0.0567603619 0.5403815012 -0.1957297772 -0.5058420538 -0.0496575823 0.6750004388
0.4807082875 0.0956259622 -0.5250003413 -0.5000000000 0.0000000000 0.7250004713
0.4448715642 0.4809122626 -0.6250004063 -0.5000000000 0.0000000000 0.6250004063
0.2352089779 0.5092563310 -0.4149254697 -0.5068959045 -0.0495209822 0.6750004388
0.2497775874 0.6633634812 -0.1666599583 -0.4933917957 0.0495614322 0.6750004388
0.2133616637 0.5123773330 -0.3975434084 -0.5065937043 -0.0495614322 0.6750004388
0.1425999177 0.5302827447 0.1371181391 -0.4941579462 0.0496575823 0.6750004388
0.0347713476 0.6920309998 -0.2114815375 -0.4933917957 0.0495614322 0.6750004388
-0.3021348714 0.5826044287 0.2652552724 -0.4941579462 0.0496575823 0.6750004388
0.3951663319 0.6500004725 0.3059816489 -0.4742467333 0.0396772258 0.6750004388
-0.0889944828 0.5575292124 -0.4946446715 -0.5058420538 -0.0496575823 0.6750004388
0.2302824747 0.6659628329 0.3525918292 -0.4933917957 0.0495614322 0.6750004388
0.0544938604 0.6894012981 -0.3529901794 -0.4933917957 0.0495614322 0.6750004388
0.3831917741 0.6019778913 -0.5133006336 -0.4943005963 0.0484450815 0.6697969354
-0.4499999675 0.5177400865 -0.6132037486 -0.4501239176 -0.0012622008 0.6765781898
-0.4499999675 0.5652551674 0.1253075814 -0.4523362190 0.0051147033 0.6757228892
-0.4499999675 0.6177951516 -0.5734870728 -0.4500301675 -0.0003073502 0.6753846390
-0.4896661933 0.5877058820 0.5750003738 -0.5000000000 0.0000000000 0.6250004063
-0.3738076680 0.7465081852 0.4140917192 -0.4933917957 0.0495614322 0.6750004388
0.0683920195 0.5330872465 0.4108554171 -0.5069185545 -0.0495176822 0.6752323889
0.4092656410 0.5414830520 0.6750004388 -0.5000000000 0.0000000000 0.7250004713
-0.4499999675 0.6374927644 -0.5544500104 -0.4500116675 -0.0001193501 0.6751496388
-0.4499999675 0.5730072725 -0.0026220517 -0.4548930707 0.0114841075 0.6749304887
0.4000004850 0.5117710827 -0.4328576814 -0.4523541190 -0.0070624546 0.6750004388
-0.1000144900 0.7100024615 0.2976224935 -0.4933917957 0.0495614322 0.6750004388
-0.4951535968 0.6084386955 -0.3062331991 -0.5340753221 -0.0362421736 0.6767041899
-0.4617176751 0.6299419595 0.5250003413 -0.5000000000 0.0000000000 0.6250004063
-0.4737891330 0.6098027964 -0.2789524813 -0.5285299185 -0.0402488262 0.6764269397
0.4375013594 0.5000003250 -0.5071101796 -0.5000000000 0.0500000325 0.6750004388
0.3652473124 0.5040889277 -0.2074616849 -0.4941579462 0.0496575823 0.6750004388
-0.5000000000 0.5829219289 -0.2607260695 -0.5500000325 0.0000000000 0.6750004388
-0.4499999675 0.5270732426 -0.0935802108 -0.4531125195 -0.0083814054 0.6751219888
-0.4680627792 0.6500004225 0.3622198354 -0.5000000000 -0.0180628117 0.6750004388
0.4000005850 0.4182804719 -0.5233134902 -0.5500000325 0.0000000000 0.6750004388
-0.5000000000 0.5047200781 -0.4034822123 -0.5500000325 0.0000000000 0.6750004388
-0.0916387846 0.5615314150 -0.4750003088 -0.5000000000 0.0000000000 0.6250004063
0.4261774520 0.5000003250 -0.2623365205 -0.5000000000 0.0500000325 0.6750004388
0.3488031017 0.6001600401 -0.5472916557 -0.5066082043 -0.0495614322 0.6750004388
-0.1431447180 0.5638997665 -0.0676338940 -0.5058420538 -0.0496575823 0.6750004388
0.2036195074 0.5482714564 -0.4750003088 -0.5000000000 0.0000000000 0.6250004063
0.4500006175 0.4922619200 -0.1006130154 -0.4499999675 0.0000000000 0.6750004388
-0.0498290074 0.7033110072 0.5223637395 -0.4933919957 0.0495599822 0.6749133887
0.3259861369 0.5087078807 -0.4331498315 -0.5058420538 -0.0496575823 0.6750004388
0.1659988829 0.5275299429 0.5458468048 -0.4941579462 0.0496575823 0.6750004388
0.0905218838 0.6845975450 0.0128667084 -0.4933917957 0.0495614322 0.6750004388
-0.5000000000 0.5224978896 -0.4620070503 -0.5500000325 0.0000000000 0.6750004388
-0.4826774887 0.6500004225 -0.1029829169 -0.5000000000 0.0326775212 0.6750004388
0.0468416054 0.6904216488 0.1821357684 -0.4933917957 0.0495614322 0.6750004388
0.4000005850 0.6287837087 0.3123380530 -0.4651193773 0.0337412219 0.6750004388
0.4281590033 0.6000003900 0.5965421378 -0.4877106920 0.0464202802 0.6688557848
-0.4340296571 0.7500004875 -0.4520076938 -0.5051413033 0.0487863317 0.6750004388
0.4500006175 0.4004520103 0.3618940852 -0.4499999675 0.0000000000 0.6750004388
-0.1624618806 0.7183287669 0.1595219037 -0.4933917957 0.0495614322 0.6750004388
-0.2682136993 0.6242464058 0.5523566090 -0.5055216036 -0.0496942323 0.6750004388
0.4000006850 0.4110810172 0.3812724978 -0.5500000325 0.0000000000 0.6750004388
-0.5000000000 0.1943721263 -0.5981713388 -0.5497293823 -0.0043472028 0.6750004388
0.3448988492 0.6506806229 0.0755896991 -0.4933917957 0.0495614322 0.6750004388
0.4505339178 0.2000001300 0.6349106127 -0.5437137784 -0.0121110079 0.6761317395
-0.2667865984 0.7322386760 -0.1806611174 -0.4933917957 0.0495614322 0.6750004388
-0.3762449196 0.5966068378 0.2774300303 -0.5070710546 -0.0494974822 0.6750004388
0.1058110938 0.5277416930 0.0286473686 -0.5068705045 -0.0495251322 0.6750235888
0.0737653229 0.6706098859 0.5750003738 -0.5000000000 0.0000000000 0.6250004063
-0.5000000000 0.2631246710 0.5839502796 -0.5473675308 -0.0032988021 0.6870857966
-0.4657723778 0.5000003250 -0.2635036213 -0.4699304305 -0.0295901692 0.6748897887
-0.4499999675 0.7078052601 0.4009289106 -0.5374467243 0.0296353193 0.6750004388
-0.1513288234 0.5648625672 0.2177669915 -0.5058420538 -0.0496575823 0.6750004388
0.3354840931 0.5075905299 -0.3617842352 -0.4941579462 0.0496575823 0.6750004388
-0.4328594064 0.5979838887 0.1490380469 -0.4941579462 0.0496575823 0.6750004388
-0.5000000000 0.6836794944 -0.4898238684 -0.5500000325 0.0000000000 0.6750004388
0.4231802501 0.6000004400 0.2221708944 -0.4706688309 0.0396973758 0.6750004388
-0.0364314487 0.7015246560 0.2511421632 -0.4933917957 0.0495614322 0.6750004388
0.3596011087 0.5000003250 0.2702738257 -0.5000000000 -0.0500000325 0.6750004388
0.2793435566 0.6372265142 -0.6250004063 -0.5000000000 0.0000000000 0.6250004063
-0.5000000000 0.6335900118 -0.5962151375 -0.5499902825 -0.0001565501 0.6750004388
-0.3971141831 0.5995881397 0.3944888564 -0.5070710546 -0.0494974822 0.6750004388
0.3195630827 0.5589378633 0.5527532593 -0.5055216036 -0.0496942323 0.6750004388
-0.1439680186 0.6983361039 -0.5250003413 -0.5000000000 0.0000000000 0.7250004713
-0.4499999675 0.5909237341 0.4479052911 -0.4518632187 0.0104889068 0.6767691399
-0.2746862035 0.7332920266 0.2203868433 -0.4933917957 0.0495614322 0.6750004388
0.0582789129 0.5402028511 0.2878355371 -0.5058420538 -0.0496575823 0.6750004388
0.1904544488 0.6712732363 0.2417783072 -0.4933917957 0.0495614322 0.6750004388
0.3853859755 0.6500004225 0.4861617660 -0.4932814956 0.0479658312 0.6750004388
-0.2581990428 0.7310936752 0.1784181660 -0.4933917957 0.0495614322 0.6750004388
-0.1692930850 0.6669761335 -0.4973380233 -0.4943592463 0.0479463312 0.6676565340
0.2119201627 0.5221274394 0.3185491571 -0.5058420538 -0.0496575823 0.6750004388
-0.5000000000 0.7298971244 0.6235057553 -0.5422196774 0.0138992090 0.6710588862
0.4316255056 0.4000002600 0.1088398207 -0.5000000000 -0.0500000325 0.6750004388
-0.0457554547 0.7027678568 -0.2743612283 -0.4933917957 0.0495614322 0.6750004388
0.4875053919 0.2000001300 0.5923092850 -0.4741405832 -0.0030665520 0.6797444918
0.2020543063 0.5232880901 -0.0203734132 -0.5058420538 -0.0496575823 0.6750004388
0.3195226327 0.5000003250 -0.3042678978 -0.5038344025 -0.0497576823 0.6750004388
-0.3760491694 0.7465789353 -0.4129086184 -0.4930385455 0.0495003822 0.6744563884
0.1428886179 0.5302487947 -0.4821669634 -0.4941579462 0.0496575823 0.6750004388
0.3003161702 0.6566250268 0.2159388404 -0.4933917957 0.0495614322 0.6750004388
0.4477989661 0.5500003575 0.1068518195 -0.4982386989 -0.0491193819 0.6750004388
-0.5000000000 0.5346911975 -0.1877604720 -0.5500000325 0.0000000000 0.6750004388
-0.4737273329 0.7189846673 -0.6250004063 -0.5197429628 0.0077502550 0.6388563153
0.3374843444 0.5000003250 0.1770199151 -0.5000000000 -0.0500000325 0.6750004388
-0.1335626118 0.7144755144 0.3331165165 -0.4933917957 0.0495614322 0.6750004388
-0.5000000000 0.3802055471 -0.5930832855 -0.5498397824 -0.0025741517 0.6750004388
-0.4134203437 0.7007570055 0.5750003738 -0.5000000000 0.0000000000 0.6250004063
0.2515434385 0.5069227795 -0.0379785247 -0.5064915542 -0.0495758822 0.6750004388
-0.0794920767 0.7072661097 -0.0690346949 -0.4933917957 0.0495614322 0.6750004388
0.4500006175 0.4764017097 -0.0963823126 -0.4499999675 0.0000000000 0.6750004388
0.1596000287 0.6753871890 -0.0912754093 -0.4933917957 0.0495614322 0.6750004388
-0.4499999675 0.5918752847 0.5518727087 -0.4523295190 0.0087475557 0.6770977401
-0.2426688827 0.6387394152 -0.5250003413 -0.5000000000 0.0000000000 0.6250004063
-0.2365656788 0.7266527223 0.4550892458 -0.4932733956 0.0495249322 0.6758962893
-0.4315930555 0.5978348886 0.4992696245 -0.4941579462 0.0496575823 0.6750004388
-0.2741779032 0.5793154266 -0.5082681304 -0.4941579462 0.0496575823 0.6750004388
0.3466760503 0.6504159728 -0.4326905312 -0.4937549959 0.0496011822 0.6753316890
-0.3451469493 0.5926866352 0.4938954210 -0.5065908043 -0.0494312321 0.6730038375
-0.5000000000 0.7028999569 -0.5434131532 -0.5475841309 0.0011837008 0.6808901426
0.4678791791 0.4248508262 -0.5983374889 -0.4524006191 0.0043037528 0.6782730909
-0.1255555066 0.5618305152 -0.1328232863 -0.4941579462 0.0496575823 0.6750004388
0.4500006175 0.5644509669 0.4726366572 -0.4499999675 0.0000000000 0.6750004388
0.2515232385 0.6631307310 -0.1582966029 -0.4933917957 0.0495614322 0.6750004388
0.2878913621 0.5131896336 0.5726332222 -0.4941579462 0.0496575823 0.6750004388
-0.4593211736 0.1133807237 -0.5250003413 -0.5000000000 0.0000000000 0.7250004713
0.2875934619 0.6132247486 -0.4965431728 -0.4945048964 0.0467084304 0.6623438805
0.2437220334 0.5990365394 -0.5250003413 -0.5000000000 0.0000000000 0.6250004063
0.4500006175 0.4628181008 -0.5241061907 -0.4499999675 0.0000000000 0.6750004388
0.4054969886 0.5500003575 -0.5158725353 -0.5000000000 0.0500000325 0.6750004388
-0.1230455050 0.5615351650 -0.1500402475 -0.5058420538 -0.0496575823 0.6750004388
-0.3307242900 0.5859679309 0.1747107636 -0.4941579462 0.0496575823 0.6750004388
0.3680042142 0.6500004225 -0.2056891837 -0.4919484948 0.0480993313 0.6750004388
0.3210491837 0.6538606250 -0.1153144250 -0.4933917957 0.0495614322 0.6750004388
0.3113304774 0.6550769258 0.4261928770 -0.4935243458 0.0495330322 0.6771064401
0.4071308396 0.4999584750 0.5750003738 -0.5480020812 -0.0077119050 0.6844537949
0.3245262859 0.6533969747 0.1140243241 -0.4933917957 0.0495614322 0.6750004388
0.2033342572 0.5718521717 -0.4959769724 -0.5055197536 -0.0496776823 0.6756027891
-0.4655771776 0.7000004550 -0.2690694749 -0.5230737650 0.0440083286 0.6750004388
-0.1110513472 0.7114739625 -0.0477570810 -0.4933917957 0.0495614322 0.6750004388
-0.3601323091 0.6344595124 0.5474664559 -0.5055216036 -0.0496942323 0.6750004388
0.4469340655 0.1081198203 -0.6250004063 -0.5148344096 -0.0039984526 0.7182110168
-0.1587986282 0.5657413677 -0.3316990156 -0.5058420538 -0.0496575823 0.6750004388
-0.2345787275 0.6779442907 -0.6137754490 -0.5066082043 -0.0495614322 0.6750004388
-0.0892747830 0.7085704606 0.1421941924 -0.4933917957 0.0495614322 0.6750004388
0.1017887912 0.6830953440 0.6166979509 -0.4933917957 0.0495614322 0.6750004388
0.1864362962 0.6218090042 -0.6170204511 -0.5066082043 -0.0495614322 0.6750004388
0.1983234039 0.6702240356 0.2432360581 -0.4933917957 0.0495614322 0.6750004388
-0.3270338376 0.5895766332 0.1964834777 -0.5070710546 -0.0494974822 0.6750004388
-0.1523694240 0.5649850172 -0.3461552250 -0.5058420538 -0.0496575823 0.6750004388
-0.2902528137 0.7353675280 -0.2602759192 -0.4933917957 0.0495614322 0.6750004388
0.0956076871 0.5291992940 -0.4065207142 -0.5067497544 -0.0495405322 0.6750004388
-0.1649358822 0.7186585671 0.2679681742 -0.4933917957 0.0495614322 0.6750004388
0.4500006175 0.4255529266 -0.3600758840 -0.4499999675 0.0000000000 0.6750004388
-0.0707971210 0.7061068090 0.6646350820 -0.4933917957 0.0495614322 0.6750004388
-0.1436979684 0.7125093631 0.5250003413 -0.5000000000 0.0000000000 0.7002554052
-0.4694500801 0.5444053539 -0.5250003413 -0.4762365846 0.0136431589 0.6539420251
0.3817865232 0.6500004225 0.3897788534 -0.4781789858 0.0390384254 0.6750004388
0.4000005850 0.4681537043 -0.0417380271 -0.5500000325 0.0000000000 0.6750004388
-0.1174416013 0.5608758646 0.2507651130 -0.5058420538 -0.0496575823 0.6750004388
-0.4902538437 0.0487308817 -0.5397135508 -0.5303016197 -0.0057345037 0.6752525389
-0.1404027163 0.7153875150 -0.1406077414 -0.4933917957 0.0495614322 0.6750004388
0.3983577839 0.5153044349 0.5250003413 -0.5000000000 0.0000000000 0.6250004063
-0.0830086290 0.7077349600 -0.5563932117 -0.4933917957 0.0495614322 0.6750004388
-0.5000000000 0.0762325496 -0.5363583486 -0.5496591823 -0.0054744036 0.6750004388
-0.4499999675 0.5244340909 -0.1939209260 -0.4522585690 -0.0075162549 0.6748591887
0.2726361022 0.5039095275 -0.3429179729 -0.5062874541 -0.0496025322 0.6750004388
0.4153282450 0.4427065378 0.6097103963 -0.5481542813 -0.0086403056 0.6747524886
0.1934674008 0.6609991796 -0.5250003413 -0.5000000000 0.0000000000 0.7250004713
-0.4808363375 0.0958184123 -0.5808928276 -0.5115782075 -0.0052878534 0.6768292899
-0.4506680179 0.7000004550 -0.4770051101 -0.5000000000 0.0500000325 0.6750004388
-0.0474942059 0.7029997569 0.0436163284 -0.4933917957 0.0495614322 0.6750004388
-0.4889017428 0.6370414141 -0.6250004063 -0.5000000000 0.0000000000 0.6250004063
0.4987230992 0.1624450056 0.6705524359 -0.4518335187 0.0001674001 0.6627082808
-0.0325475462 0.5508883581 -0.0709232961 -0.4941579462 0.0496575823 0.6750004388
-0.3440290486 0.5875331819 0.2783227809 -0.4941579462 0.0496575823 0.6750004388
0.0134794338 0.5822320785 0.5250003413 -0.5000000000 0.0000000000 0.7250004713
-0.1807777425 0.5683272194 0.5287586937 -0.4941579462 0.0496575823 0.6750004388
0.0841153797 0.6832360941 -0.4374055843 -0.4934637958 0.0495592322 0.6755347891
0.4500006175 0.4746736585 0.6320246608 -0.5500000325 0.0000000000 0.6750004388
-0.2123575130 0.7249814712 -0.1264186822 -0.4933917957 0.0495614322 0.6750004388
-0.0370141991 0.5481452563 -0.2764580797 -0.5070543546 -0.0494996322 0.6750506888
-0.4774331853 0.2956718922 -0.5250003413 -0.5000000000 0.0000000000 0.7250004713
0.2179884667 0.5117163326 -0.1357575382 -0.5065291042 -0.0495706822 0.6750004388
0.1240502556 0.6301271096 0.6477132710 -0.5066082043 -0.0495614322 0.6750004388
-0.2447382841 0.6216380041 -0.4939047210 -0.5055216036 -0.0496942323 0.6750004388
0.1581037778 0.6755866391 0.2202978432 -0.4933917957 0.0495614322 0.6750004388
0.4665524283 0.4341380322 0.6280541082 -0.4509539181 0.0044175529 0.6789330913
0.1271016576 0.5321060959 0.2828821839 -0.4941579462 0.0496575823 0.6750004388
0.4321897059 0.6000003900 -0.3188270572 -0.4730103825 0.0413850269 0.6750004388
-0.2860932110 0.7348129276 0.2339017520 -0.4933917957 0.0495614322 0.6750004388
-0.2394148806 0.7285891736 0.2218154442 -0.4933917957 0.0495614322 0.6750004388
0.4002454852 0.5492657570 -0.5722172719 -0.5371620742 -0.0094987062 0.6630416810
0.4587153232 0.4198852729 -0.6250004063 -0.5000000000 0.0000000000 0.6250004063
0.0619591153 0.6884059475 0.1950194768 -0.4933917957 0.0495614322 0.6750004388
-0.0838606795 0.7078485601 -0.1384417400 -0.4933917957 0.0495614322 0.6750004388
-0.4787030362 0.1064847192 -0.5844610299 -0.5073441548 -0.0051861034 0.6770328901
0.4000005850 0.6395041657 0.1815377680 -0.4572447722 0.0250886163 0.6750004388
0.0930955355 0.5361068485 -0.1166127258 -0.5058420538 -0.0496575823 0.6750004388
0.1622254804 0.6750370388 -0.1443198438 -0.4933917957 0.0495614322 0.6750004388
-0.4499999675 0.5830427790 0.5417243021 -0.4533672197 0.0047705031 0.6770200901
-0.4896470433 0.2998809449 -0.6250004063 -0.5000000000 0.0000000000 0.6250004063
0.2055048086 0.6626777307 0.5250003413 -0.5000000000 0.0000000000 0.7250004713
-0.4589147733 0.6000003900 0.2782265808 -0.4637354264 0.0251202663 0.6753507890
-0.0857458807 0.5571469621 0.1562907516 -0.4941579462 0.0496575823 0.6750004388
-0.4432636131 0.6000003900 -0.0282390684 -0.5000000000 -0.0500000325 0.6750004388
0.2941504162 0.5124532831 0.1032105171 -0.4941579462 0.0496575823 0.6750004388
0.2792101065 0.5029703769 0.3116863526 -0.5065932043 -0.0495630822 0.6750004388
0.4500006175 0.5530929595 0.3071505996 -0.4503264677 0.0013830509 0.6750004388
0.1247983061 0.6800273420 -0.0176939115 -0.4933917957 0.0495614322 0.6750004388
-0.2185107670 0.6758019393 -0.5605431144 -0.5066082043 -0.0495614322 0.6750004388
-0.4613300749 0.5035495773 -0.5250003413 -0.5000000000 0.0000000000 0.7250004713
-0.4426043127 0.6490434719 -0.4750003088 -0.5042080527 -0.0378724246 0.6429181679
0.4020026363 0.4628016508 -0.5250003413 -0.5000000000 0.0000000000 0.6250004063
0.0993946396 0.6834145942 -0.0594476386 -0.4933917957 0.0495614322 0.6750004388
-0.4583946730 0.5000003250 0.1313635854 -0.4674981789 -0.0323342710 0.6756993892
0.1846612450 0.6614576299 0.6750004388 -0.5000000000 0.0000000000 0.6609526296
0.2725851022 0.5149903847 -0.4985352740 -0.4941579462 0.0496575823 0.6750004388
0.4000005850 0.4658018528 -0.3144469544 -0.5500000325 0.0000000000 0.6750004388
0.2802883072 0.5140840842 -0.3695318902 -0.4941579462 0.0496575823 0.6750004388
-0.4499999675 0.5364414987 0.3986396091 -0.4577711226 -0.0143232593 0.6763897897
0.3516213036 0.6500004225 -0.2179395417 -0.4992751495 0.0498289324 0.6750004388
0.4136027438 0.5500003575 0.0856774057 -0.4840593396 -0.0420297273 0.6750004388
0.1368304639 0.6548740757 0.6750004388 -0.5000000000 0.0000000000 0.7250004713
-0.5000000000 0.5677328690 -0.5521907589 -0.5499511825 -0.0007849005 0.6750004388
-0.0260099419 0.6985323040 0.4490425419 -0.4933977457 0.0495367822 0.6761420395
0.4457665147 0.6000004400 -0.0084162055 -0.4709881311 0.0383774749 0.6750004388
-0.4992281995 0.6000003900 -0.2341470522 -0.4994553996 0.0497728324 0.6749509387
0.4622519255 0.1012050158 0.6750004388 -0.5000000000 0.0000000000 0.7250004713
0.2495750372 0.5176974365 -0.1758262643 -0.5058420538 -0.0496575823 0.6750004388
0.1435641683 0.5223483395 0.1360016884 -0.5068219044 -0.0495318322 0.6750280388
0.4500006175 0.4067788144 0.3924243551 -0.4499999675 0.0000000000 0.6750004388
0.1353611130 0.6786189911 0.3859358509 -0.4933917957 0.0495614322 0.6750004388
0.2942709163 0.5124390831 0.5672790187 -0.5058420538 -0.0496575823 0.6750004388
0.0244476409 0.6934075007 -0.2894367381 -0.4933917957 0.0495614322 0.6750004388
0.4756096341 0.3707369410 -0.5764744747 -0.4522578690 0.0031964521 0.6876555970
-0.4499999675 0.5911104342 0.0666819433 -0.4564547717 0.0186065121 0.6748902387
-0.0831538791 0.7039485576 -0.6250004063 -0.5000000000 0.0000000000 0.6250004063
-0.4499999675 0.5795602267 -0.3942950063 -0.4604509243 0.0228397648 0.6728661374
0.4607852745 0.3044793979 0.5750003738 -0.5000000000 0.0000000000 0.6250004063
-0.5000000000 0.5496125572 0.5556522112 -0.5500000325 0.0000000000 0.6750004388
0.3588383582 0.5000003250 -0.0575131374 -0.5000000000 -0.0500000325 0.6750004388
0.3106492769 0.6283950085 0.5250003413 -0.5000000000 0.0000000000 0.7250004713
-0.0909258841 0.7087906107 0.3416536221 -0.4933917957 0.0495614322 0.6750004388
0.3893428781 0.6500003725 -0.3254111615 -0.4824055886 0.0458465298 0.6750004388
0.4481727163 0.5222731895 0.6750004388 -0.5000000000 0.0000000000 0.7250004713
-0.1678712341 0.5668087684 -0.3640405866 -0.4941579462 0.0496575823 0.6750004388
0.2349260777 0.5194208876 0.0243136658 -0.5058420538 -0.0496575823 0.6750004388
0.4500006175 0.4425106876 0.3912462543 -0.4499999675 0.0000000000 0.6750004388
-0.3210052337 0.5848245801 0.5471209556 -0.4941579462 0.0496575823 0.6750004388
0.4425336126 0.4940854212 0.6335965118 -0.5000000000 -0.0494974822 0.6820714933
0.0436294034 0.5408498016 -0.4700492055 -0.5066023043 -0.0495173822 0.6736536879
-0.4499999675 0.5948277366 0.4814774630 -0.4519768688 0.0116325576 0.6768520900
0.3489881518 0.6501354226 -0.2459253099 -0.4933917957 0.0495614322 0.6750004388
-0.1752724889 0.6700367855 0.6629361309 -0.5066082043 -0.0495614322 0.6750004388
-0.3747357686 0.6911458492 0.5516087585 -0.4941632462 0.0496125822 0.6765522898
-0.3809799726 0.5972832882 0.4260557769 -0.5070710546 -0.0494974822 0.6750004388
-0.4592312735 0.6000003900 0.0932744106 -0.4662578281 0.0292554190 0.6744271884
0.2384011300 0.5088002307 -0.2176566415 -0.5064366042 -0.0495828322 0.6750004388
-0.4499999675 0.7425058326 -0.4329923814 -0.5417410271 0.0154348100 0.6750004388
0.2892974130 0.6580941778 0.3250736113 -0.4933917957 0.0495614322 0.6750004388
0.4377055595 0.3390074704 -0.6250004063 -0.5000000000 0.0000000000 0.6263152571
-0.4908408940 0.7357891283 0.5750003738 -0.5337402219 0.0146106595 0.6489712218
0.3778116206 0.6500004225 -0.4117506676 -0.4875624919 0.0470639306 0.6750004388
-0.4287415037 0.7500004875 -0.1342471873 -0.5128536084 0.0469656805 0.6750004388
-0.3014298209 0.5825215286 -0.3896887533 -0.5058420538 -0.0496575823 0.6750004388
-0.2469092855 0.6795883417 -0.5489885068 -0.5066082043 -0.0495614322 0.6750004388
-0.1998953049 0.7233198702 -0.2725798272 -0.4933917957 0.0495614322 0.6750004388
-0.4560636714 0.7000004550 -0.0482402314 -0.5353369730 0.0353369730 0.6744114384
-0.5000000000 0.5012288258 0.6664255332 -0.5473587808 -0.0032228521 0.6688581348
-0.0542038602 0.7038943575 -0.1104399218 -0.4933917957 0.0495614322 0.6750004388
-0.4418262622 0.5990386894 0.5613931149 -0.5058420538 -0.0496575823 0.6750004388
0.2120430628 0.6183947520 0.6686864846 -0.5066082043 -0.0495614322 0.6750004388
0.3087804257 0.6551529758 -0.4635913013 -0.4935562958 0.0495468822 0.6766626898
-0.2830620590 0.7337181269 -0.4646407520 -0.4932973456 0.0495084322 0.6767782399
-0.2426999328 0.7290271739 0.6311290602 -0.4933917957 0.0495614322 0.6750004388
-0.3045913730 0.7372793292 0.3312968653 -0.4933917957 0.0495614322 0.6750004388
0.2302840247 0.5099598315 -0.2327680013 -0.5064499042 -0.0495810322 0.6750004388
0.2099810615 0.5223555395 0.3946308065 -0.5058420538 -0.0496575823 0.6750004388
0.0533165597 0.6895582982 -0.3273048627 -0.4933917957 0.0495614322 0.6750004388
0.4167862959 0.5000003250 -0.1911046242 -0.5000000000 0.0500000325 0.6750004388
-0.3628815609 0.7446979341 0.4423175875 -0.4931886456 0.0495002822 0.6764708897
0.4368917090 0.5000003250 0.4877593170 -0.5000000000 0.0500000325 0.6750004388
0.4565723718 0.1424286426 0.5750003738 -0.5000000000 0.0000000000 0.6600645790
0.1037693925 0.5280333432 -0.3893019530 -0.5066959044 -0.0495477822 0.6750004388
-0.5000000000 0.6094224461 0.5967906379 -0.5497605323 -0.0003020502 0.6765106897
-0.2471078856 0.5781586758 -0.0615222400 -0.5070710546 -0.0494974822 0.6750004388
-0.4688147797 0.2839955846 0.5750003738 -0.5000000000 0.0000000000 0.6250004063
-0.5000000000 0.5507142580 0.1844278699 -0.5500000325 0.0000000000 0.6750004388
0.4500006175 0.4914267194 0.2527512143 -0.4499999675 0.0000000000 0.6750004388
0.2166732158 0.5119041827 -0.1045039679 -0.5065478543 -0.0495682322 0.6750004388
-0.4463223651 0.7500004875 -0.1751567139 -0.5246790660 0.0411466267 0.6750004388
-0.4435297133 0.7500004875 0.0397058758 -0.5307801700 0.0372504742 0.6750004388
0.2782526059 0.5143236343 0.1971378281 -0.5058420538 -0.0496575823 0.6750004388
-0.0013706759 0.5578923126 0.5250003413 -0.5000000000 0.0000000000 0.7250004713
0.4197871479 0.6000003900 0.5924044351 -0.4913644444 0.0474845809 0.6706826359
-0.0915020345 0.7088674608 -0.3236610604 -0.4933917957 0.0495614322 0.6750004388
0.2895542632 0.5129940334 0.4936256209 -0.4941579462 0.0496575823 0.6750004388
-0.0222988395 0.5460431049 0.1883210724 -0.5070353046 -0.0495015322 0.6752370389
-0.0000110250 0.6966686028 0.1322062359 -0.4933917957 0.0495614322 0.6750004388
-0.1810726427 0.6708101360 -0.6170216511 -0.5066082043 -0.0495614322 0.6750004388
0.1649381822 0.6276548080 0.5634967163 -0.4941606962 0.0496341823 0.6758068393
0.4500006175 0.4323166810 -0.4473639408 -0.4499999675 0.0000000000 0.6750004388
0.4000005850 0.5615514650 0.6247095561 -0.5500000325 0.0000000000 0.6750004388
-0.4304849048 0.6075812449 -0.4750003088 -0.5007423505 -0.0066813543 0.6281614083
0.2718384017 0.5040234276 0.4634875013 -0.5066568043 -0.0495546822 0.6750270388
0.2304481248 0.5199476880 0.1831744191 -0.5058420538 -0.0496575823 0.6750004388
-0.2242974708 0.5734471727 0.4633152512 -0.5058420538 -0.0496575823 0.6750004388
0.4000005850 0.5399246510 0.1431928931 -0.4538180200 -0.0114542074 0.6750004388
-0.3605796094 0.5943688863 -0.1155329751 -0.5070710546 -0.0494974822 0.6750004388
-0.4499999675 0.5095994312 -0.3959548574 -0.4517885687 -0.0102921067 0.6742732383
0.4385744601 0.1925763252 0.6750004388 -0.5264029172 -0.0056932037 0.6890868479
0.2079330102 0.5131528335 -0.0152296099 -0.5066141543 -0.0495595322 0.6750004388
0.2439016335 0.5673447188 -0.4969640230 -0.5055216036 -0.0496942323 0.6750004388
0.4000005850 0.4146691195 -0.4739986581 -0.5500000325 0.0000000000 0.6750004388
0.0058229788 0.5463741551 0.5348996977 -0.4941579462 0.0496575823 0.6750004388
0.4000005850 0.6069342445 -0.6078443451 -0.4499999675 0.0000000000 0.6750004388
-0.5000000000 0.3545858305 -0.5990736894 -0.5498245324 -0.0028186018 0.6750004388
-0.1935184008 0.6082168953 -0.4750003088 -0.5019819513 -0.0178374616 0.6334394617
-0.0550631608 0.7040088576 0.2048582832 -0.4933917957 0.0495614322 0.6750004388
0.4202563482 0.6000003900 -0.4691797550 -0.4986984492 0.0496927823 0.6750004388
-0.5000000000 0.6855554956 -0.0877750571 -0.5360588234 0.0260882670 0.6750004388
0.1009239406 0.6832106941 0.1033652172 -0.4933917957 0.0495614322 0.6750004388
-0.2300055245 0.7273345228 0.6578816776 -0.4933917957 0.0495614322 0.6750004388
0.3351547929 0.5000003250 0.2654530725 -0.5000000000 -0.0500000325 0.6750004388
0.4945421965 0.2011868308 -0.5400381010 -0.4654413275 0.0007152005 0.6488899218
-0.4499999675 0.7295527742 0.4960405224 -0.5457589797 0.0102388567 0.6750004388
-0.3127650783 0.5838550795 0.0783120009 -0.5058420538 -0.0496575823 0.6750004388
-0.5000000000 0.6631241310 0.0847357551 -0.4499999675 0.0000000000 0.6750004388
-0.4021989364 0.5943767363 0.2772488302 -0.4941579462 0.0496575823 0.6750004388
0.2047889581 0.5229663899 0.2804900323 -0.4941579462 0.0496575823 0.6750004388
-0.0933796357 0.5580450127 -0.3328600164 -0.4941579462 0.0496575823 0.6750004388
0.4922279949 0.1934020757 -0.5340778972 -0.4803859373 -0.0019235513 0.6443712188
-0.0741942232 0.7065597593 -0.3358145183 -0.4933917957 0.0495614322 0.6750004388
-0.4987881492 0.0413955269 0.6750004388 -0.5000000000 0.0000000000 0.7250004713
-0.0206740384 0.5458109548 0.0219403643 -0.5070332546 -0.0495020822 0.6751625889
-0.2274724229 0.5738206730 -0.0534558847 -0.4941579462 0.0496575823 0.6750004388
-0.2423802325 0.5918009847 0.5250003413 -0.5000000000 0.0000000000 0.7250004713
0.4500006175 0.4548246456 -0.3708977411 -0.4499999675 0.0000000000 0.6750004388
0.2613328949 0.5654078675 -0.5080565802 -0.5055203036 -0.0496825823 0.6754251390
-0.3665852133 0.6977881536 0.5250003413 -0.5000000000 0.0000000000 0.7250004713
0.4125564932 0.4000002600 0.1992787795 -0.5000000000 -0.0500000325 0.6750004388
0.3641449617 0.5360337984 -0.4750003088 -0.5000000000 0.0000000000 0.6250004063
-0.3567489569 0.7442336838 0.0295174692 -0.4933917957 0.0495614322 0.6750004388
0.1969971530 0.5147150846 0.2109731871 -0.5067531544 -0.0495414322 0.6750007888
-0.2298062744 0.6042625928 -0.4750003088 -0.5014641010 -0.0131768586 0.6312345103
0.3109419271 0.6552082259 0.5895948332 -0.4933917957 0.0495614322 0.6750004388
-0.3636466114 0.7451533843 0.3700138405 -0.4933917957 0.0495614322 0.6750004388
-0.3073607748 0.5832193291 -0.1958480273 -0.5058420538 -0.0496575823 0.6750004388
0.4648773772 0.3395868707 -0.5529413094 -0.5190804624 -0.0086921556 0.6696852353
0.1931135005 0.6709186861 0.6292985090 -0.4933917957 0.0495614322 0.6750004388
-0.3038178225 0.7133221637 -0.5250003413 -0.5000000000 0.0000000000 0.7250004713
0.3667856134 0.6500004225 0.4907316690 -0.4997077498 0.0499115324 0.6750004388
0.2830678590 0.5137570839 0.4458788398 -0.5058420538 -0.0496575823 0.6750004388
-0.4958412473 0.7033849572 0.1250000313 -0.5000000000 0.0000000000 0.7250004713
-0.5000000000 0.3208282585 -0.5924694851 -0.5498044824 -0.0031406520 0.6750004388
-0.5000000000 0.2351122028 -0.6232190551 -0.5497535823 -0.0039585026 0.6750004388
0.1902389987 0.5156805352 -0.2691873250 -0.5065342542 -0.0495696822 0.6750004388
0.0078888301 0.5417305521 0.4411222367 -0.5069964045 -0.0495065822 0.6753134890
0.4621287754 0.3394040206 0.6750004388 -0.5000000000 0.0000000000 0.7250004713
0.2105872619 0.6685888846 0.4950634218 -0.4933924957 0.0495563822 0.6746935386
-0.5000000000 0.6804313423 -0.1815667180 -0.5500000325 0.0000000000 0.6750004388
0.4413050118 0.4000002600 0.2749139787 -0.5000000000 -0.0500000325 0.6750004388
-0.1844489949 0.5692074200 0.1887217227 -0.5070710046 -0.0494970322 0.6751173888
0.1132143986 0.6315719105 0.6089918958 -0.5066082043 -0.0495614322 0.6750004388
-0.3824353736 0.7476584860 -0.5385564501 -0.4933917957 0.0495614322 0.6750004388
0.4109073921 0.4000002600 0.2541158652 -0.5000000000 -0.0500000325 0.6750004388
0.4000005850 0.6253469565 -0.2039238326 -0.4624080756 0.0312793203 0.6750004388
-0.2649663472 0.6819959433 -0.5603222642 -0.5066082043 -0.0495614322 0.6750004388
-0.5000000000 0.2123752380 -0.5596965638 -0.5497400823 -0.0041754527 0.6750004388
0.1149140997 0.5264412422 0.1836312694 -0.5068587545 -0.0495265322 0.6750809888
0.4215650990 0.4000002600 0.5662101180 -0.5000000000 -0.0500000325 0.6750004388
-0.2735874528 0.6665877333 0.5750003738 -0.5000000000 0.0000000000 0.7250004713
0.3747435686 0.6029718419 -0.4900098185 -0.4945845465 0.0460313299 0.6594381286
0.1484063715 0.5268795425 -0.4648503522 -0.5066043043 -0.0495324322 0.6741142382
-0.3999886350 0.5999987900 0.0323946211 -0.5070710546 -0.0494975322 0.6750004388
0.3129518784 0.5102413317 0.0971100631 -0.5058420538 -0.0496575823 0.6750004388
0.4721177819 0.0811646528 -0.6250004063 -0.5000000000 0.0000000000 0.6512517733
-0.4637870765 0.5214765890 -0.5250003413 -0.5000000000 0.0000000000 0.7250004713
0.4057780388 0.4109028671 0.5750003738 -0.5000000000 0.0000000000 0.7250004713
0.3318652907 0.5000003250 0.2520989639 -0.5000000000 -0.0500000325 0.6750004388
-0.1724162371 0.7196560178 -0.3331562166 -0.4933917957 0.0495614322 0.6750004388
0.2300271245 0.5099965315 -0.1234824303 -0.5065044042 -0.0495739822 0.6750004388
0.1776954905 0.5261538920 0.0203062132 -0.4941579462 0.0496575823 0.6750004388
0.4000005850 0.6030199920 0.5206528384 -0.4633530262 0.0326552712 0.6750004388
0.3304491898 0.6526072742 -0.2220759943 -0.4933917957 0.0495614322 0.6750004388
-0.4678669291 0.7500004375 -0.6075402449 -0.5110243072 0.0429912279 0.6748342886
0.4236568004 0.5000003250 0.2463424101 -0.5000000000 0.0500000325 0.6750004388
0.3598503089 0.5047238781 -0.4277295280 -0.4941579462 0.0496575823 0.6750004388
0.1989816043 0.6624166806 0.5750003738 -0.5000000000 0.0000000000 0.6250004063
0.4000005850 0.4416109870 0.3845831000 -0.5500000325 0.0000000000 0.6750004388
0.3288385887 0.5000003250 0.3062176490 -0.5000000000 -0.0500000325 0.6750004388
0.0102373817 0.6953021519 -0.2818525332 -0.4933917957 0.0495614322 0.6750004388
-0.5000000000 0.5655409176 0.5298250444 -0.5500000325 0.0000000000 0.6750004388
-0.3881159773 0.5927199353 0.0176317115 -0.4941579462 0.0496575823 0.6750004388
0.4315048555 0.4000002600 -0.3153745550 -0.5000000000 -0.0500000325 0.6750004388
0.4469301655 0.5950098868 -0.5250003413 -0.4589289233 0.0183037119 0.6894545481
-0.2877096120 0.7135706138 -0.4750003088 -0.5000000000 0.0000000000 0.6250004063
-0.1585461281 0.5657116677 0.0438513785 -0.4941579462 0.0496575823 0.6750004388
0.2830297590 0.5137615839 -0.1589758033 -0.5058420538 -0.0496575823 0.6750004388
-0.0509489581 0.7034603072 0.0061783040 -0.4933917957 0.0495614322 0.6750004388
0.1844307449 0.6305235598 0.6750004388 -0.5000000000 0.0000000000 0.7250004713
0.1212693038 0.5327922463 0.4540241951 -0.5058420538 -0.0496575823 0.6750004388
0.0341560972 0.6921129999 0.6222631545 -0.4933917957 0.0495614322 0.6750004388
-0.2707492510 0.5789120763 0.5406247014 -0.4941579462 0.0496575823 0.6750004388
0.2160411654 0.6678616341 -0.0750919488 -0.4933917957 0.0495614322 0.6750004388
-0.4796513868 0.6500004225 0.3759642444 -0.5000000000 -0.0296514193 0.6750004388
0.4000005850 0.6008986906 -0.3613180849 -0.4711186812 0.0382007748 0.6750004388
0.4350461578 0.3046810980 0.6435865183 -0.5471175306 -0.0107619070 0.6679093341
0.1265943073 0.5297878444 0.4915247195 -0.5065870043 -0.0494026321 0.6774351403
-0.1879735972 0.5691738200 -0.1070339196 -0.4941579462 0.0496575823 0.6750004388
0.4226240497 0.5500003575 0.2620495703 -0.4921967949 -0.0460984300 0.6750004388
0.4769556850 0.1762555146 0.6685795346 -0.4953772470 -0.0057030537 0.6625153806
-0.4499999675 0.6763183396 -0.5445738540 -0.4499999675 0.0000000000 0.6750004388
0.2745086534 0.6600659790 0.2639805216 -0.4933917957 0.0495614322 0.6750004388
-0.1939662011 0.7225293196 -0.2396307558 -0.4933917957 0.0495614322 0.6750004388
0.4000005850 0.4724122071 0.4463341901 -0.5500000325 0.0000000000 0.6750004388
0.1344860624 0.5312373953 -0.2854678856 -0.4941579462 0.0496575823 0.6750004388
0.4869688915 0.1192471775 0.5750003738 -0.4704878308 0.0000000000 0.6850918453
-0.4499999675 0.5975550384 -0.4945117214 -0.4640291266 0.0334811718 0.6719943868
-0.5000000000 0.6550054258 0.6673657838 -0.5500000325 0.0000000000 0.6750004388
-0.3264125872 0.6804358923 0.5750003738 -0.5000000000 0.0000000000 0.7250004713
-0.3380195447 0.7345426275 0.6750004388 -0.5000000000 0.0000000000 0.7250004713
0.4189327473 0.6000003900 0.1036848674 -0.4634813763 0.0328181213 0.6750004388
-0.4511294682 0.7000005050 -0.2984645940 -0.5247918661 0.0422445275 0.6743888384
-0.0309185951 0.6506967730 -0.4954075220 -0.4944584964 0.0471027806 0.6640363316
0.3558698563 0.6500004225 0.3981582588 -0.4973751983 0.0493803821 0.6750004388
0.4214347989 0.3816876981 -0.5250003413 -0.5000000000 0.0000000000 0.7250004713
-0.3973218833 0.5938029360 0.3316756656 -0.5058420538 -0.0496575823 0.6750004388
-0.3145820795 0.7386114801 0.0506706329 -0.4933917957 0.0495614322 0.6750004388
-0.5000000000 0.5798560769 0.5026431767 -0.5500000325 0.0000000000 0.6750004388
0.0680396692 0.5331375965 -0.2295896992 -0.5068658545 -0.0495253822 0.6750004388
0.0743650733 0.6867517964 0.5077949301 -0.4933930457 0.0495521322 0.6744322884
0.0477703561 0.5414391519 0.0571472371 -0.5058420538 -0.0496575823 0.6750004388
-0.4989522493 0.7398686309 -0.5250003413 -0.5250889663 0.0325522212 0.6945275514
-0.0644929669 0.7052662584 0.3038207975 -0.4933917957 0.0495614322 0.6750004388
-0.4739110830 0.7000004550 0.3200384580 -0.5278147181 0.0391647755 0.6736283879
-0.0187712372 0.5492675570 -0.2118542377 -0.4941579462 0.0496575823 0.6750004388
-0.5000000000 0.5022206764 0.5449897042 -0.5500000325 0.0000000000 0.6750004388
-0.4499999675 0.5274759929 0.6066308943 -0.4502976677 -0.0018772512 0.6773469903
-0.2630401960 0.5780051257 0.3092913510 -0.4941579462 0.0496575823 0.6750004388
-0.1637686314 0.7185029670 -0.2968434429 -0.4933917957 0.0495614322 0.6750004388
-0.0326763462 0.5475256059 0.1400422410 -0.5070486546 -0.0494996822 0.6752276389
0.4000005850 0.4870459166 -0.2661782230 -0.5500000325 0.0000000000 0.6750004388
-0.4660547779 0.6000003900 -0.5029046269 -0.4760465344 0.0400082760 0.6728228373
0.4000005850 0.5039962776 -0.3313726654 -0.4507991680 -0.0023975516 0.6750004388
-0.4071240896 0.6000003900 -0.2412509568 -0.5000000000 -0.0500000325 0.6750004388
-0.0884708825 0.7084632605 0.6445074689 -0.4933917957 0.0495614322 0.6750004388
0.1864311462 0.5251261413 0.4343327323 -0.5058420538 -0.0496575823 0.6750004388
0.0974671384 0.5355924981 0.1117081726 -0.4941579462 0.0496575823 0.6750004388
0.0102722817 0.6952975519 0.0150509098 -0.4933917957 0.0495614322 0.6750004388
0.2145393145 0.5706071209 -0.5079364302 -0.5055216036 -0.0496942323 0.6750004388
-0.5000000000 0.2265607973 -0.5828856289 -0.5497484823 -0.0040401026 0.6750004388
0.1011389907 0.5351604979 -0.1811417677 -0.4941579462 0.0496575823 0.6750004388
-0.4821434384 0.7000004550 0.0446694790 -0.5353063229 0.0353063229 0.6734282377
-0.5000000000 0.0605949894 -0.5652461674 -0.5496499323 -0.0056236037 0.6750004388
-0.3359167433 0.6317689606 0.5468744555 -0.5055216036 -0.0496942323 0.6750004388
-0.0567464619 0.7038951575 -0.6250004063 -0.5000000000 0.0000000000 0.6250004063
-0.4510307182 0.1909643241 -0.6250004063 -0.4620934254 -0.0029159019 0.6668381334
-0.5000000000 0.6580944278 -0.3229380599 -0.5500000325 0.0000000000 0.6750004388
-0.2117056626 0.7248946212 -0.1992272795 -0.4933917957 0.0495614322 0.6750004388
-0.3662431631 0.6954995521 -0.5739837731 -0.5066082043 -0.0495614322 0.6750004388
-0.4499999675 0.4018583612 -0.6113349974 -0.4502324677 -0.0023681015 0.6779605407
-0.3756086191 0.5965158877 -0.1452798944 -0.5070710546 -0.0494974822 0.6750004388
-0.4499999675 0.6349010127 -0.5462929551 -0.4500141175 -0.0001441001 0.6751805389
0.0062373791 0.6946362015 0.4429900379 -0.4934093457 0.0495325322 0.6764047897
-0.4339256571 0.7500004875 0.3861976010 -0.5253364665 0.0362539736 0.6750004388
0.2329227264 0.5196565378 0.3089770508 -0.5058420538 -0.0496575823 0.6750004388
-0.4957816973 0.6495317222 -0.4988101242 -0.5055216036 -0.0496942323 0.6750004388
0.4435972633 0.5485030065 0.5750003738 -0.5000000000 0.0000000000 0.6250004063
-0.4555459211 0.6055463436 0.5068195294 -0.5350997728 -0.0355062231 0.6765593398
0.4000005850 0.4734656078 -0.1207641285 -0.5500000325 0.0000000000 0.6750004388
-0.4536082698 0.5841963797 -0.5250002413 -0.4661290280 0.0286654186 0.6685969346
0.1687197347 0.5272098427 0.2110930372 -0.4941579462 0.0496575823 0.6750004388
0.3007399205 0.5000003250 -0.0083393054 -0.5062914541 -0.0495961822 0.6750004388
-0.4499999675 0.7118256127 -0.3430448730 -0.5419399273 0.0251421163 0.6750004388
0.4493580171 0.1618364552 -0.6250004063 -0.5000000000 0.0000000000 0.6674358838
-0.5000000000 0.7060719089 -0.5558248113 -0.5468670805 0.0024786516 0.6767331899
-0.0935364358 0.5580635127 -0.4011556608 -0.4941579462 0.0496575823 0.6750004388
-0.0135395838 0.5486521566 0.4987014742 -0.4941579462 0.0496575823 0.6750004388
0.2910360142 0.6308383100 -0.5250003413 -0.5000000000 0.0000000000 0.7250004713
0.4500006175 0.4906818689 0.5032658771 -0.4499999675 0.0000000000 0.6750004388
0.4500006175 0.4609300996 -0.2238328455 -0.4499999675 0.0000000000 0.6750004388
-0.1646062820 0.5664246182 0.3304886148 -0.5058420538 -0.0496575823 0.6750004388
0.4500006175 0.4772517602 -0.4843528148 -0.4499999675 0.0000000000 0.6750004388
-0.4499999675 0.3048605982 -0.5790714264 -0.4505373678 -0.0032773021 0.6745473885
-0.0115955325 0.6982132538 -0.1293614341 -0.4933917957 0.0495614322 0.6750004388
-0.4499999675 0.5024217266 -0.0360385234 -0.4570358721 -0.0212934138 0.6751166388
-0.4499999675 0.6659011328 -0.5497558573 -0.4499999675 0.0000000000 0.6750004388
-0.2877725121 0.7339679771 -0.4163565706 -0.4931330455 0.0495169322 0.6746115385
-0.4745275334 0.1110748722 0.6750004388 -0.5184286620 -0.0046071530 0.6912675493
-0.5000000000 0.6545040254 -0.3013362959 -0.5495245822 0.0020140513 0.6750004388
-0.4499999675 0.7149945147 -0.1823474185 -0.5442336288 0.0225576647 0.6711108862
0.4500006175 0.4583632479 -0.0121007579 -0.4499999675 0.0000000000 0.6750004388
-0.2872988617 0.5808590776 -0.3589131833 -0.4941579462 0.0496575823 0.6750004388
0.1543177753 0.6760914395 -0.6194339026 -0.4933917957 0.0495614322 0.6750004388
-0.0507436080 0.5530290595 -0.5014832760 -0.5058420538 -0.0496575823 0.6750004388
0.0400511010 0.6913269994 -0.1586500031 -0.4933917957 0.0495614322 0.6750004388
-0.3773730203 0.6969835030 -0.5660627179 -0.5066082043 -0.0495614322 0.6750004388
0.4381618098 0.4000002600 0.5444828039 -0.5000000000 -0.0500000325 0.6750004388
-0.0581247128 0.7044171579 0.4946263715 -0.4933937957 0.0495467322 0.6741019382
-0.1762199895 0.5677909691 -0.4822263134 -0.4941579462 0.0496575823 0.6750004388
0.4000004850 0.5488329067 0.1583012529 -0.4536669699 -0.0110009572 0.6750004388
-0.4793573866 0.2586750181 -0.5250003413 -0.5000000000 0.0000000000 0.7250004713
-0.4793589366 0.5000003250 0.2277574980 -0.4854120905 -0.0439468786 0.6756635392
0.3880574272 0.5430903530 0.5250003413 -0.5000000000 0.0000000000 0.7250004713
0.4067465894 0.5372413492 -0.6250005063 -0.5000000000 0.0000000000 0.6250004063
0.0394186506 0.5424217526 -0.3100702515 -0.5058420538 -0.0496575823 0.6750004388
0.3614357099 0.5805871274 0.5750003738 -0.5000000000 0.0000000000 0.7250004713
0.1944268014 0.6487114717 0.6750004388 -0.5000000000 0.0000000000 0.7250004713
-0.2488506368 0.5784076760 0.4004597603 -0.5070710046 -0.0494969822 0.6751375388
-0.1841786447 0.7212243688 -0.0164102107 -0.4933917957 0.0495614322 0.6750004388
-0.3299541895 0.5899938335 -0.3630923860 -0.5070710546 -0.0494974822 0.6750004388
0.3186801321 0.6541764752 -0.2241560457 -0.4933917957 0.0495614322 0.6750004388
-0.3720411668 0.5960062874 0.0891697080 -0.5070710546 -0.0494974822 0.6750004388
0.4259896519 0.4000002600 -0.0219679143 -0.5000000000 -0.0500000325 0.6750004388
0.2766996549 0.5145063844 -0.5060252789 -0.5058420538 -0.0496575823 0.6750004388
-0.5000000000 0.5451422543 0.4448063391 -0.5500000325 0.0000000000 0.6750004388
0.1468887705 0.5297781444 -0.1843012198 -0.5058420538 -0.0496575823 0.6750004388
0.2154768151 0.6679369342 0.5901086336 -0.4933917957 0.0495614322 0.6750004388
-0.4499999675 0.7376930795 0.4636017013 -0.5362284735 0.0251528663 0.6750004388
0.2793699566 0.6594178786 0.6151269498 -0.4933917957 0.0495614322 0.6750004388
0.3135926788 0.6194022526 0.5750003738 -0.5000000000 0.0000000000 0.6250004063
0.0327193463 0.5432099031 0.2529547144 -0.4941579462 0.0496575823 0.6750004388
0.4162075455 0.4365520838 0.6332623616 -0.5478074811 -0.0086918056 0.6698930354
0.1902931987 0.5156727852 -0.1372031892 -0.5065991543 -0.0495612822 0.6750004388
0.4809212376 0.2634613712 -0.5611282147 -0.4932204956 -0.0047217031 0.6661119330
-0.2738947530 0.7121384129 0.6750004388 -0.5000000000 0.0000000000 0.7250004713
-0.3837240244 0.6240105556 -0.4750003088 -0.5023736015 -0.0213624139 0.6351071628
-0.0906434839 0.7087530107 -0.1857159707 -0.4933917957 0.0495614322 0.6750004388
-0.4618927752 0.7000004550 0.3409301716 -0.5354297230 0.0314065204 0.6717126866
0.2571304921 0.6616091300 0.4634702513 -0.4936440959 0.0495833322 0.6754970891
0.0731210725 0.6869176465 -0.1947449266 -0.4933917957 0.0495614322 0.6750004388
-0.5000000000 0.5199516880 0.1060448189 -0.5500000325 0.0000000000 0.6750004388
-0.1311063602 0.7141480142 -0.6059328439 -0.4933917957 0.0495614322 0.6750004388
0.3349008427 0.5000003250 0.1879911222 -0.5000000000 -0.0500000325 0.6750004388
0.4294755542 0.5000003250 -0.3205936584 -0.5000000000 0.0500000325 0.6750004388
0.4909051441 0.2000001300 0.5826471287 -0.4674975289 -0.0022155514 0.6822594935
-0.4732919826 0.1335402368 -0.5788906263 -0.4966042978 -0.0049281032 0.6775492904
0.4000005850 0.5115896825 0.0521498339 -0.4523178190 -0.0069536045 0.6750004388
0.4179128966 0.4561336965 0.3679341892 -0.5000000000 -0.0494974822 0.6820714933
-0.4282007533 0.7500004375 0.4269369275 -0.5126118082 0.0470227806 0.6750004388
-0.5000000000 0.5681573193 0.1012492658 -0.5500000325 0.0000000000 0.6750004388
0.4000005850 0.4837788145 0.3752027439 -0.5500000325 0.0000000000 0.6750004388
0.4500005175 0.5957837873 -0.1641396567 -0.4573236223 0.0229651149 0.6750004388
0.1977778036 0.5146035845 -0.1083529204 -0.5065942043 -0.0495619822 0.6750004388
0.3722049669 0.5000003250 -0.3912401043 -0.5000000000 -0.0500000325 0.6750004388
0.3642812618 0.5042025777 -0.2805252823 -0.5058420538 -0.0496575823 0.6750004388
-0.3106704269 0.6880897973 -0.5744068234 -0.5066082043 -0.0495614322 0.6750004388
0.2775133054 0.5032127771 -0.3614342349 -0.5062658541 -0.0496053822 0.6750004388
-0.3167985309 0.5843296298 0.5387273002 -0.4941579462 0.0496575823 0.6750004388
-0.2510621382 0.7301421246 -0.2183438919 -0.4933917957 0.0495614322 0.6750004388
-0.3355820931 0.7414114319 -0.5364917487 -0.4933917957 0.0495614322 0.6750004388
0.3273635378 0.6085458956 -0.4876307670 -0.4946135465 0.0457847798 0.6583800279
-0.0321193459 0.6176047514 -0.5250003413 -0.5000000000 0.0000000000 0.6250004063
0.1082377454 0.5273950428 0.0419415773 -0.5068674045 -0.0495255322 0.6750266388
0.1172397012 0.5332663466 0.0528011843 -0.5058420538 -0.0496575823 0.6750004388
-0.4743771833 0.5000003750 0.5421602524 -0.4818912882 -0.0424859276 0.6758235393
0.0933436857 0.6342213122 -0.5727430223 -0.5066082043 -0.0495614322 0.6750004388
-0.4041636377 0.7500004875 0.3459622749 -0.5018620512 0.0495604322 0.6750004388
0.2273324728 0.5203142382 0.5534430097 -0.5058420538 -0.0496575823 0.6750004388
-0.4429920129 0.7500004875 -0.3748521437 -0.5383870750 0.0263008171 0.6750004388
0.0335248968 0.5907199340 -0.5008687256 -0.4944783964 0.0496942323 0.6750004388
0.3865221262 0.6500004225 -0.2206700934 -0.4789986363 0.0414758770 0.6750004388
0.4000006850 0.6289343588 0.2411102067 -0.4592247235 0.0278356181 0.6750004388
0.2607747945 0.5163798356 0.1985948291 -0.5058420538 -0.0496575823 0.6750004388
-0.1920109998 0.5702876707 -0.0988594643 -0.5070710546 -0.0494974822 0.6750004388
0.4143080943 0.5500003575 -0.0974927134 -0.4768171849 -0.0384086250 0.6750004388
0.1761680395 0.6118597977 -0.5250002413 -0.5000000000 0.0000000000 0.6250004063
0.2413681319 0.5083763804 -0.3224383596 -0.5063774041 -0.0495905322 0.6750004388
-0.2950631668 0.5850094303 -0.3966578078 -0.5070710546 -0.0494974822 0.6750004388
0.4744625834 0.3787673462 -0.5742978233 -0.4521974189 0.0033470522 0.6873560968
0.4587210232 0.2270643976 -0.6114683475 -0.5205179633 -0.0080560052 0.7018816562
-0.0195254877 0.5456468547 -0.3896573533 -0.5070106546 -0.0495056822 0.6750004388
-0.0095818312 0.6979447537 0.1682928594 -0.4933917957 0.0495614322 0.6750004388
0.4781354358 0.1610472547 0.5750003738 -0.5000000000 0.0000000000 0.6250004063
-0.0777899256 0.7010497557 0.5250003413 -0.5000000000 0.0000000000 0.7250004713
0.4275634029 0.5000003250 -0.1704858108 -0.5000000000 0.0500000325 0.6750004388
0.2153644650 0.6679519342 0.1497544973 -0.4933917957 0.0495614322 0.6750004388
-0.3041201727 0.5828380788 0.0477128310 -0.4941579462 0.0496575823 0.6750004388
0.2506958880 0.5070438296 -0.0544932854 -0.5064856042 -0.0495766822 0.6750004388
0.4500006175 0.5595521637 -0.3620782354 -0.4510083682 0.0042717028 0.6750004388
-0.4404403113 0.6000003900 0.1698427104 -0.5000000000 -0.0500000325 0.6750004388
0.1690403349 0.5271721427 0.4534822948 -0.4941579462 0.0496575823 0.6750004388
0.1517746737 0.5211754388 0.3527459293 -0.5068113044 -0.0495329822 0.6751134388
0.4628070258 0.4603553992 -0.5887804827 -0.4521345189 0.0049698032 0.6769355400
-0.3113262774 0.7381772798 -0.0791098514 -0.4933917957 0.0495614322 0.6750004388
-0.5000000000 0.5721770219 0.4461296900 -0.5500000325 0.0000000000 0.6750004388
-0.1794908417 0.7205992684 -0.0074676049 -0.4933917957 0.0495614322 0.6750004388
0.0307644950 0.5384626500 -0.3946069565 -0.5068797545 -0.0495231822 0.6750004388
0.3084473255 0.6555408261 0.3180892068 -0.4933917957 0.0495614322 0.6750004388
-0.3190229324 0.7384324300 -0.4005771604 -0.4931934456 0.0495092822 0.6739015880
-0.5000000000 0.5161722355 0.5148263346 -0.5500000325 0.0000000000 0.6750004388
-0.5000000000 0.5371722992 -0.1690324099 -0.5500000325 0.0000000000 0.6750004388
-0.5000000000 0.6631911811 0.2027106818 -0.5486074316 0.0058991038 0.6750004388
-0.5000000000 0.5001295251 0.1126008732 -0.5500000325 0.0000000000 0.6750004388
-0.3420488473 0.5873002317 -0.2092908360 -0.5058420538 -0.0496575823 0.6750004388
0.4102477417 0.5096551813 -0.6093081461 -0.5451245293 -0.0096435063 0.6891074479
0.3310859402 0.5000003250 -0.3471989257 -0.5023904016 -0.0498482324 0.6750004388
-0.4889461428 0.6368442639 0.2618767702 -0.5324641211 -0.0374063243 0.6766236398
-0.2866794613 0.7348911277 -0.0152686099 -0.4933917957 0.0495614322 0.6750004388
-0.4779492357 0.7000004550 0.2027072318 -0.5317622706 0.0353198230 0.6750004388
-0.4710841812 0.6000003900 0.4010846607 -0.4740581831 0.0317534206 0.6754189390
-0.2602305441 0.5776745755 0.0429874779 -0.5058420538 -0.0496575823 0.6750004388
