-0.3076923225 0.7664198641 -0.4954138273 -0.5369852664 0.3076922840 0.3397829931
-0.4256723903 1.1590369108 0.1480877386 -0.5346739973 0.2916524776 0.3478328386
-0.4419651968 0.0876981086 0.0632074759 -0.5379462279 0.3055154380 0.3506348384
-0.3919143545 1.1336319128 0.1765350441 -0.5358021126 0.2940873620 0.3509385692
0.2980331309 0.8257156288 0.2161807334 -0.5045406920 0.3457882042 0.3500283769
-0.1050049919 0.1709695253 -0.6098182031 -0.5059865380 0.3343057435 0.3382113009
-0.4230769290 0.1742312174 -0.5164969795 -0.4628355798 0.3042337074 0.3444509158
0.2979027848 0.2873295548 0.2709783830 -0.4965412695 0.3078773225 0.3096725723
-0.0676323794 0.7046239073 0.1409698161 -0.5011643461 0.3460767041 0.3480717617
0.0970850310 0.8005971307 -0.4696365216 -0.5045089612 0.3457893196 0.3456553773
-0.3481837040 0.2331421359 0.2709783830 -0.4936244236 0.3005180538 0.3124959952
-0.3914698930 0.2574815571 -0.5751753981 -0.5035862305 0.2940629389 0.3802366054
-0.1934047544 0.6538461036 -0.4649523681 -0.4965291541 0.2763488249 0.3461913388
-0.1807122553 0.1529439498 -0.6174092410 -0.5053440765 0.3327102821 0.3340783397
0.2821329783 0.0543200343 0.3479014540 -0.4947547696 0.3216542445 0.3128624952
-0.5000000000 1.3957143542 0.0169911718 -0.5383863432 0.3076922840 0.3480784540
-0.3167847064 1.1765769480 -0.0324955937 -0.4642134643 0.3215628983 0.3485830309
-0.2307692515 0.7718000560 -0.3829462205 -0.4778000786 0.3354273204 0.3444704158
0.0268302672 0.7918152468 -0.0581732840 -0.5044916150 0.3457516272 0.3489311462
0.0632815721 0.2110377145 -0.5968910118 -0.5061922688 0.3388473970 0.3442131466
-0.4615384645 1.3296368208 -0.3064248803 -0.5349961127 0.2922921314 0.3473858387
0.2671642487 0.0931548774 0.3479014540 -0.4956526542 0.3200137446 0.3122911875
0.0057826919 0.7151117527 -0.4699451369 -0.5040633843 0.3459362042 0.3478017232
0.2724228637 0.8225143213 0.1696581600 -0.5045458458 0.3457885503 0.3497477231
-0.2226674059 1.0739902251 0.3918674122 -0.5025252306 0.2693149793 0.3478329540
-0.1966672541 0.1554991419 -0.5751753981 -0.5172559602 0.3127960529 0.3755385288
-0.2585670955 1.0310329976 -0.2566120380 -0.4640850412 0.3211586676 0.3476368002
-0.2461189811 0.9999126923 0.0347809396 -0.4638964643 0.3204408600 0.3500217615
-0.4230769290 0.2429353275 -0.1543816612 -0.4617894645 0.3104185146 0.3464144157
-0.2435179043 0.1978705232 0.3740525289 -0.4976900002 0.3069731687 0.3112274953
-0.1255620673 0.3076922840 0.2807500746 -0.4954520003 0.2812368630 0.3297509554
-0.3080669763 0.8849899704 0.0414382084 -0.5271963441 0.2804959400 0.3478941079
-0.3347077050 0.9906153469 -0.4590540993 -0.5357083434 0.2936378236 0.3468026464
0.1621002952 0.0321114206 0.2709783830 -0.4967860002 0.3156357450 0.3105242261
-0.4767093095 0.1581194109 -0.3189778408 -0.5349763819 0.3084035917 0.3567003379
-0.0072230379 0.3070565148 -0.6520984691 -0.4966760003 0.3023725152 0.3104445338
-0.3689916255 1.3070943225 -0.4991814424 -0.4644496950 0.3218430137 0.3444617620
0.0201067292 0.7909747853 -0.4305411015 -0.5045754227 0.3457941657 0.3459952234
-0.0538477651 0.3076922840 0.3067043418 -0.4972848848 0.2792605170 0.3325554167
-0.4874812317 0.1261671826 -0.4374689471 -0.5309552284 0.3080160917 0.3652439527
-0.2428157890 0.6923076391 -0.1732800059 -0.5000000000 0.2692431716 0.3473544540
-0.4404839661 0.0524764960 -0.3062630341 -0.5013388076 0.3003617846 0.3533267997
0.3907121623 0.8373004741 -0.2826588436 -0.5044109997 0.3457942042 0.3464263772
-0.3823843552 0.1408727584 0.3724272983 -0.4971165002 0.3082677455 0.3113447261
-0.5000000000 1.5545961112 -0.0543303612 -0.5383429971 0.3076922840 0.3479329155
0.2806434784 0.8235418982 -0.4054200650 -0.5044233458 0.3457887042 0.3458134157
-0.2307692515 0.8888202778 -0.0238753635 -0.4616184645 0.3076922840 0.3487329539
-0.4434500043 1.2307691361 -0.1903749661 -0.5041921920 0.3157787834 0.3477117233
-0.4615384645 1.3298493592 -0.3220026868 -0.5349804588 0.2922719006 0.3472079925
-0.1929359082 0.6606967569 -0.5751753981 -0.4953205004 0.2752950942 0.3395282623
0.0582908032 0.2095977531 0.3495471847 -0.4988301924 0.3133868220 0.3101191108
0.3899105469 0.7612720953 -0.5170901718 -0.5027773844 0.3459045503 0.3470534925
0.1094066070 0.7301049823 -0.3508994538 -0.4947956542 0.2697658254 0.3473507233
0.1479047194 0.8069495533 -0.3119796491 -0.5045499997 0.3457988580 0.3465594541
0.4940164235 0.7682859409 -0.5161729026 -0.4944324235 0.2742628251 0.3603953377
-0.2858544780 1.0992513770 -0.4060502957 -0.4642277335 0.3215625137 0.3461635311
0.3551213188 0.3166598218 0.6142477028 -0.5256701134 0.3361798972 0.3458772619
-0.5000000000 1.6908142546 -0.1741201981 -0.5384615355 0.3076922840 0.3479014540
-0.4497958116 1.2307691361 -0.1050033188 -0.5161971911 0.3129421298 0.3482922617
-0.4140289297 1.3755672403 -0.3988326809 -0.4728417713 0.3348505127 0.3474347617
0.2330885975 0.2642398643 0.2709783830 -0.4966812695 0.3085950916 0.3097450723
-0.4939332697 0.1347963358 -0.5084411724 -0.5300379208 0.3084898609 0.3671489525
0.2576142110 0.7309592515 0.2324529629 -0.4941225774 0.2714584791 0.3461528772
-0.3381076278 0.9991151155 -0.2852207281 -0.5357213049 0.2936622851 0.3480682617
-0.4384150047 1.2307691361 -0.0301164400 -0.4946530004 0.3180302063 0.3482899540
-0.0154200373 0.7865339395 -0.3095421108 -0.5045831150 0.3457844349 0.3469687233
-0.2648352104 0.0129843836 0.2709783830 -0.4977393463 0.3163430526 0.3105521492
-0.3275862056 0.9728115406 0.0347639781 -0.5356595742 0.2935975543 0.3498618769
-0.4230769290 1.4316253130 0.1925470813 -0.4616854645 0.3076922840 0.3508989538
-0.3480747809 1.2548021727 -0.4374263317 -0.4643866181 0.3217753214 0.3451753388
-0.0538594574 0.7817290553 0.1160613565 -0.5043554227 0.3456935119 0.3508017999
-0.3496902423 1.2588408262 -0.2994534962 -0.4643646181 0.3217913214 0.3461833772
-0.3422448198 1.1153845296 0.2996027270 -0.4859733472 0.3427488198 0.3460053003
-0.0815962630 1.0644140335 0.3370873779 -0.5025291152 0.2693146716 0.3477909540
0.4999999231 0.8367818202 -0.1485334309 -0.4700663485 0.3282563978 0.3476886079
-0.5000000000 1.6149989142 -0.1044071266 -0.5382791509 0.3076922840 0.3481258771
0.1402352584 0.0353914204 0.2709783830 -0.4968358079 0.3155431680 0.3105112261
-0.4556040034 1.2928560544 0.1699965831 -0.5359090742 0.2945844004 0.3506266846
-0.5000000000 1.2328292898 -0.6094140493 -0.4656061180 0.3231286290 0.3489179924
0.0469276502 0.7231628674 -0.5113248645 -0.4946455389 0.2698163639 0.3460659541
0.3697472408 0.8346798589 0.0485356693 -0.5045775381 0.3458177811 0.3484904540
-0.2307692515 0.8394860893 0.1353143165 -0.4617946183 0.3076922840 0.3512473384
-0.2872729010 1.1027975690 -0.2968753425 -0.4642106566 0.3215756676 0.3469594541
-0.4230769290 0.1371222587 -0.4443159466 -0.4628736182 0.3029471305 0.3446356850
-0.4230769290 1.5574853033 -0.3755765288 -0.4617887722 0.3076922840 0.3457730311
-0.4230769290 0.0564824187 -0.1444579697 -0.4624858490 0.3031796690 0.3458606465
-0.5000000000 1.3321370898 -0.5708288599 -0.5320128822 0.3040018612 0.3299502631
0.4389113509 0.7667165949 -0.0872416664 -0.4939955005 0.2700150177 0.3474433771
-0.2307692515 0.8606525876 -0.1449341619 -0.4616551953 0.3076922840 0.3481759155
-0.4575390033 1.2976935925 0.0980868578 -0.5358607280 0.2946182850 0.3495759539
-0.1944471774 1.0719374175 0.2838216512 -0.5025769998 0.2693177101 0.3479714925
0.0466299195 1.0558655726 0.3545384535 -0.5024624998 0.2693119408 0.3476250694
0.1424549121 0.7844900166 0.2709783830 -0.5016504999 0.3241828212 0.3516774537
-0.3427388583 1.2414624045 -0.4118451799 -0.4643686950 0.3217588214 0.3454305696
-0.4926235775 1.7766070941 0.1076663571 -0.5242749981 0.3366305895 0.3493928770
0.0139651912 0.0000000000 0.2957414196 -0.4961545388 0.3190420908 0.3115964953
-0.4401828123 1.7863366318 0.2375016548 -0.4893521931 0.3390065893 0.3489916078
0.1594459493 0.2339340205 -0.6318865091 -0.5061645380 0.3403381277 0.3359374165
-0.2307692515 0.9008162769 -0.4558021765 -0.4617753106 0.3076922840 0.3451185696
0.3579810878 0.8332091282 -0.2960000349 -0.5044254227 0.3457941657 0.3463865695
-0.0296393439 0.7847565550 0.1296882785 -0.5043649612 0.3456987811 0.3508064153
-0.5000000000 1.4215510830 -0.1026459729 -0.5383696509 0.3076922840 0.3473391848
0.0637739182 0.7964332464 0.1273102017 -0.5044278843 0.3457292811 0.3503524538
0.3607591646 0.7580330186 -0.1052561265 -0.4943069620 0.2699164792 0.3479322617
-0.1876454471 0.2618649029 0.2709783830 -0.4939965774 0.3011331307 0.3119633798
-0.3461541272 1.2500006346 0.0321604014 -0.4642934258 0.3218040906 0.3486961078
-0.4230769290 0.2527861729 0.0848286281 -0.4616483106 0.3088853609 0.3472506848
-0.5000000000 1.4418473891 0.0481914771 -0.5384615355 0.3076922840 0.3479014540
-0.0710589561 0.7100532531 0.1959216195 -0.4955490773 0.2695274408 0.3488204155
-0.4364504280 1.1538460651 -0.6163066257 -0.4941633081 0.2709309022 0.3508197999
-0.0946322235 0.7074339840 0.2471153848 -0.5039208459 0.3433755120 0.3538828766
-0.3066458995 1.1512299884 -0.3460828772 -0.4642675412 0.3216389368 0.3463580310
0.0573043417 0.2403357123 -0.6520984691 -0.4995180770 0.3119746298 0.3110483030
-0.4499529269 0.1921940621 -0.0246573635 -0.5377656894 0.3101121300 0.3506320307
-0.0672643025 0.7046764843 0.0810751668 -0.5014991537 0.3460599734 0.3480388002
-0.0459170349 0.7827218244 0.1583995455 -0.5043405381 0.3456882426 0.3511284922
-0.4060481995 1.0728127252 0.2642564604 -0.5328293821 0.2950274388 0.3617445299
0.0639484566 0.7250540596 -0.3075387648 -0.4951239235 0.2696608254 0.3482528771
-0.3828040475 1.1108561838 0.1432388544 -0.5357834203 0.2940174005 0.3507102230
-0.4488144655 1.2053211381 -0.2027746959 -0.5371040356 0.3020019383 0.3474940694
-0.3060642457 0.9819845783 -0.5751753981 -0.5131126913 0.2983069771 0.3394854162
-0.4842626551 1.7849680165 -0.4196176408 -0.5155557680 0.3386760124 0.3471256079
-0.1643137181 0.0975909156 0.2709783830 -0.4975337310 0.3137543220 0.3102746107
-0.4066855072 0.1262131826 0.3709716061 -0.4970116925 0.3088797839 0.3113296107
-0.5000000000 1.7558621726 0.1492867770 -0.5379278432 0.3076922840 0.3531129536
0.2216844829 0.8161720141 -0.3263499172 -0.5044969997 0.3457958580 0.3463758387
0.4975646925 0.7692307101 0.2212372330 -0.4947693850 0.2772005556 0.3465473387
-0.1221156445 0.6968405618 0.0407965161 -0.5011677307 0.3460882041 0.3480409540
-0.5000000000 1.5964028387 -0.3745747981 -0.5383316124 0.3076922840 0.3456588773
-0.4873621933 0.0858414165 0.3682129140 -0.4966716541 0.3102290531 0.3113424568
-0.4091122762 0.2527142883 -0.6520984691 -0.4960222695 0.3045798227 0.3121825721
-0.2704140561 1.0606503799 0.0922915891 -0.4639671566 0.3206765523 0.3501420308
0.0899955700 0.7997109385 -0.3377408009 -0.5045744612 0.3457987042 0.3464757618
-0.4438899659 0.3076922840 -0.1293678170 -0.5221813829 0.3151563219 0.3496169539
0.3770833556 0.8355968973 -0.4047158727 -0.5043630766 0.3457861272 0.3456932619
-0.2307692515 0.8999724308 0.0200584023 -0.4616438491 0.3076922840 0.3493095693
-0.5000000000 1.6915351007 -0.2721248060 -0.5384615355 0.3076922840 0.3479014540
-0.4270463902 0.0590847647 -0.3789539901 -0.4841536935 0.2977547848 0.3469188772
-0.1810438707 0.6616974876 0.2565320380 -0.4941916928 0.2698193639 0.3480079925
-0.0304993438 0.7145598681 -0.4675010217 -0.4951226542 0.2696641331 0.3472579541
-0.3505760115 0.1125002221 -0.6065546649 -0.5125399606 0.3220982060 0.3473125694
-0.0365722280 0.7838899782 -0.5699414754 -0.5045464997 0.3457860503 0.3452109927
-0.4647564642 0.3076922840 -0.3301509554 -0.5249661519 0.3142406681 0.3494514923
-0.1765362172 0.7692307101 -0.0746627058 -0.5017286537 0.3459297426 0.3495620693
-0.4686368101 0.1472504502 -0.2301805400 -0.5361201895 0.3078089763 0.3543252997
-0.4729888098 0.1795475631 -0.2780524594 -0.5369233433 0.3088016301 0.3525472229
-0.4453726196 0.3076922840 -0.5850295127 -0.4970385002 0.2864450164 0.3739266059
0.3846153166 0.5505169192 -0.5801267438 -0.5384615355 0.3076922840 0.3479014540
0.2961965926 1.0392278431 -0.6260017788 -0.5027358075 0.2693400177 0.3479168002
-0.2178161371 0.1439441812 0.3582344148 -0.4977350771 0.3120383606 0.3107150723
-0.3076923225 0.8350282435 -0.1735224674 -0.5382548432 0.3076922840 0.3485729540
-0.2757265557 0.9723309637 0.2709783830 -0.4950445773 0.3031670921 0.3687651832
-0.0573983033 0.7115710991 0.0051185573 -0.4955316542 0.2695325947 0.3488194155
0.1275599902 0.8044065150 0.2069159649 -0.5044322689 0.3457350888 0.3507399923
-0.5000000000 1.4446943504 0.0620988991 -0.5384615355 0.3076922840 0.3479014540
0.4999999231 0.8292757824 -0.5224699406 -0.4678717332 0.3229469367 0.3469400695
-0.4230769290 0.2026190998 -0.0788481670 -0.4617448876 0.3099343992 0.3466784926
0.0783074171 0.0298551515 0.2709783830 -0.4969734618 0.3157292834 0.3105246492
0.2440193658 0.7822665937 0.2709783830 -0.4998261923 0.3094561685 0.3515188383
0.4999999231 0.8274223979 -0.2049977342 -0.4673247333 0.3216410137 0.3476529540
-0.2040621766 0.6952751004 0.1566360072 -0.4957186157 0.2694766331 0.3481810694
0.3846153166 0.9356771588 -0.6477506617 -0.5384615355 0.3076922840 0.3479014540
0.0535155343 0.2565850956 0.3617281453 -0.4988568078 0.3094041300 0.3104956877
0.1971892156 0.7398585969 0.1054474727 -0.4952070773 0.2696298639 0.3500518000
-0.1373168741 0.7712968637 -0.3703751830 -0.5045313843 0.3457564349 0.3470121079
0.3846153166 0.7251707904 0.4522071768 -0.4615384645 0.3076922840 0.3479014540
-0.0409946507 0.7133937144 0.2627781913 -0.4955107311 0.2695389793 0.3489847616
0.3426617813 0.8312941668 0.1564186226 -0.5045986150 0.3458135888 0.3493080693
0.3846153166 0.5624051106 0.4610651761 -0.5384615355 0.3076922840 0.3479014540
0.2311455207 0.8173546679 -0.3032461113 -0.5045017689 0.3457971657 0.3465057233
0.4403837738 0.8435094351 0.1676241986 -0.5045882689 0.3458240888 0.3491317231
-0.3076923225 0.8120357452 -0.2676622679 -0.5381887278 0.3076922840 0.3483163386
-0.1657746796 0.1808109476 0.2709783830 -0.4961062311 0.3081759378 0.3108909569
-0.1233098367 0.1337491051 0.3479014540 -0.4980120771 0.3150475912 0.3103300338
-0.4230769290 1.6264027980 0.1024583190 -0.4616728491 0.3076922840 0.3503422615
0.3846153166 0.7011238307 0.1102495492 -0.4615384645 0.3076922840 0.3479014540
0.3419548198 0.7631363644 -0.4228544867 -0.5045440381 0.3458827042 0.3478902232
-0.4573233494 1.2223389444 0.1687730832 -0.5379654202 0.3058072457 0.3496841846
-0.4655318103 0.2013897922 -0.1960251965 -0.5379153048 0.3097701300 0.3503603384
-0.5000000000 1.3308541669 0.2007963115 -0.5319519591 0.3036067459 0.3309567245
-0.3171515525 0.9467248887 -0.2768643441 -0.5356687665 0.2935051697 0.3480305694
-0.4212538522 1.1108268376 0.2381301932 -0.5337012282 0.2947972081 0.3532453382
-0.5000000000 1.7421338275 -0.3620171837 -0.5157320757 0.3076922840 0.3479014540
0.2132564836 0.7321129821 0.2709783830 -0.4981371540 0.2929012467 0.3710632599
0.4092154301 0.7692307101 -0.0512145538 -0.5033648459 0.3459345119 0.3479014540
0.3846153166 0.3318271283 0.4907136738 -0.4645433489 0.3133842836 0.3459746849
-0.4972857694 0.2990499001 -0.5453187081 -0.5380168048 0.3128472836 0.3499144539
-0.4230769290 1.1753274481 -0.4759287134 -0.4626938875 0.3124902452 0.3466910310
-0.4423875429 0.1817329091 0.2709783830 -0.4942434235 0.3029872459 0.3124019183
-0.0281013440 0.3076922840 -0.6286994709 -0.4983728463 0.2776762863 0.3537142613
-0.4018416229 1.1584501032 -0.3652843757 -0.5356590357 0.2942219389 0.3454599927
-0.4602061569 1.2307691361 -0.3347288781 -0.5359147280 0.3082879378 0.3475488387
-0.5000000000 1.7661820949 0.0578233609 -0.5379622278 0.3076922840 0.3521305691
-0.5000000000 1.7691308639 -0.4616629837 -0.4615384645 0.3076922840 0.3479014540
0.4971910002 0.7692307101 0.0974184733 -0.4994418462 0.2698460562 0.3499480308
-0.3076923225 0.9026063152 0.1454257388 -0.4615738106 0.3076922840 0.3493116462
-0.4090538916 1.1764807172 0.1281147017 -0.5358497665 0.2942139774 0.3507307230
0.4232907751 0.8413727814 -0.1779385440 -0.5044390381 0.3458005888 0.3470284156
0.2952994773 0.7369095587 0.2159505795 -0.4940076543 0.2709196715 0.3404606469
-0.4373470817 1.4582636571 0.2709783830 -0.4758221942 0.3076922840 0.3520139922
-0.5000000000 1.3769698941 -0.2177742332 -0.5372857664 0.3042794766 0.3477643771
-0.4904740392 1.7787565170 -0.5237340559 -0.5189170755 0.3371756664 0.3468325695
0.4999999231 0.8195213216 -0.5288876324 -0.4650137335 0.3160529372 0.3470177233
0.2396325585 0.8184155524 -0.5082689801 -0.5044014997 0.3457827042 0.3452337619
-0.5000000000 1.5489480347 0.2463139618 -0.4615384645 0.3076922840 0.3479014540
-0.4230769290 1.6517717191 -0.2372235779 -0.4616253876 0.3076922840 0.3482433001
0.3846153166 0.8757014711 -0.6084207801 -0.4615384645 0.3076922840 0.3479014540
-0.3437305120 0.1499222577 0.3711756830 -0.4972696925 0.3084682070 0.3112602261
-0.3118322837 1.1641959874 0.0799694746 -0.4641400797 0.3212837830 0.3495054923
-0.3530593190 1.1222900291 -0.6005550115 -0.4800810785 0.3403143969 0.3469529156
-0.1133348759 0.3076922840 -0.6038548959 -0.4984668078 0.2785474017 0.3647664142
-0.4544402343 0.0495645346 0.3561507995 -0.4967604618 0.3140186682 0.3109357261
-0.2895302085 1.1084408378 -0.5600383992 -0.4642657720 0.3215636291 0.3449720312
-0.2368314818 0.6923076391 0.2141489643 -0.5000000000 0.2692477101 0.3480991463
-0.4108059684 1.3723442791 0.1068615110 -0.4728614636 0.3348308204 0.3498462231
-0.3433032813 1.0121042683 0.1866182741 -0.5356812665 0.2937224774 0.3507977230
-0.4570843879 0.2263952518 -0.1031038190 -0.5377568432 0.3113899376 0.3505486846
-0.4230769290 1.5965499926 0.0802624746 -0.4616697722 0.3076922840 0.3502051077
0.3621020106 1.0225132290 0.3262654941 -0.5078253456 0.2808413246 0.3423781852
-0.0987206847 0.2236889059 -0.6520984691 -0.4991028078 0.3122442452 0.3116709953
0.4971948848 0.8461537811 0.2267392326 -0.4751070019 0.3356803973 0.3483364155
0.3073961687 0.7521038268 0.1777453133 -0.4950665773 0.2696720177 0.3505951846
-0.4230769290 0.0316272283 0.2409651545 -0.4615561953 0.3078846302 0.3477965309
0.4142394297 0.8402413969 -0.1911184661 -0.5044386150 0.3457998965 0.3469590310
0.4012897384 0.7536449036 0.2106399261 -0.4940257697 0.2714520945 0.3409915699
-0.0726025329 1.0638144566 -0.6412666237 -0.5026239229 0.2693222870 0.3476970694
0.2790485555 0.8233425521 -0.2096691569 -0.5045149612 0.3458023580 0.3470194156
0.3303400131 0.7614771337 -0.1877301971 -0.5048507304 0.3458424349 0.3478871848
-0.1782275248 0.7154885603 -0.5751753981 -0.5261242672 0.3014293614 0.3309619168
0.0191864985 0.7283427517 0.2709783830 -0.5147562296 0.2915609006 0.3633793374
0.0567708802 0.7955578234 -0.2208157330 -0.5045887304 0.3457912811 0.3473956079
-0.1081312225 0.7490744424 0.2709783830 -0.5199188446 0.3101667454 0.3534861459
0.0776140710 0.7265724441 0.2062998495 -0.5040700381 0.3452186658 0.3420750314
0.3846153166 0.6492513347 -0.1402175469 -0.5384615355 0.3076922840 0.3479014540
-0.4659745026 1.3461537426 -0.3098536108 -0.5269994210 0.2831388244 0.3472290694
0.3846153935 0.8208995522 0.3070405341 -0.4615384645 0.3076922840 0.3479014540
-0.4296106593 0.1222288368 0.3720596445 -0.4969221541 0.3086471301 0.3113902260
-0.2056685611 0.6538461036 -0.0442000928 -0.5085395378 0.2723762483 0.3488771847
-0.3076923225 0.7596594031 -0.3111608030 -0.5372255356 0.3076922840 0.3435482620
-0.3282609747 0.9744985404 0.1206955869 -0.5356516126 0.2936064774 0.3503578769
-0.5000000000 1.3570019341 0.0621118606 -0.5354061511 0.2953661696 0.3488104924
-0.2516824806 1.0138214605 0.0697957446 -0.4639022720 0.3204541677 0.3502158769
-0.4330660051 1.2365109818 -0.2447572696 -0.5356844973 0.2944759773 0.3458788003
0.3602026646 0.7657432103 -0.4652644450 -0.5045086920 0.3458877811 0.3478950309
0.4999999231 0.8347217435 -0.5723912444 -0.4694680023 0.3267952056 0.3467794926
0.3846153166 0.8194401293 -0.6099808569 -0.5384615355 0.3076922840 0.3479014540
-0.0542933420 0.7119160991 -0.4231491021 -0.4953536927 0.2695899793 0.3479786848
-0.1869503702 0.1884747547 0.3665611064 -0.4978927309 0.3091291301 0.3109315338
-0.4230769290 1.4576894648 -0.2286834632 -0.4618591568 0.3076922840 0.3462399157
0.3846153166 0.4438080043 0.3002234192 -0.4615384645 0.3076922840 0.3479014540
-0.4936857697 0.3076922840 0.3728346444 -0.4948697312 0.2914714007 0.3137215336
-0.5000000000 1.3645153566 0.1369468549 -0.5359621511 0.2987199770 0.3511561845
-0.2910792468 1.0769229941 0.3072597648 -0.4903358854 0.3436336274 0.3446800696
0.4752933096 0.8461537426 -0.4917083660 -0.4929957313 0.3418758199 0.3454804542
-0.1232855290 0.1892445239 0.3609658376 -0.4981316155 0.3106222838 0.3106847261
-0.2307692515 0.9451120042 -0.1533113536 -0.4651040027 0.3147373219 0.3414269930
0.3271724364 0.7610245953 -0.4957699811 -0.5044261535 0.3458976657 0.3478863386
-0.5000000000 1.4707890792 -0.3963645657 -0.5199601908 0.3076922840 0.3479014540
-0.4914498468 0.0763987249 -0.5694077831 -0.5192593062 0.3060084765 0.3729487982
-0.4230769290 1.7008505615 0.1474710463 -0.4616791568 0.3076922840 0.3506204153
0.2061659841 0.7437379813 -0.1494463154 -0.5047491919 0.3458523195 0.3478544925
-0.0240849981 0.0000000000 0.3412709161 -0.4948873465 0.3210958599 0.3124570337
-0.2156436373 0.2336147897 -0.5751753981 -0.5070444995 0.3003175538 0.3811236822
-0.4230769290 0.2267818287 0.2168576179 -0.4615703876 0.3080391686 0.3477122617
0.0141982681 0.7195262523 0.1134028567 -0.4954403850 0.2695599793 0.3491933770
-0.1547712573 0.2722003252 -0.6520984691 -0.4969767310 0.3051499381 0.3112570337
-0.4473778117 1.2024477921 0.0222475175 -0.5369401510 0.3013594384 0.3484549540
-0.0228874598 0.7856005934 -0.3219404175 -0.5045840766 0.3457843196 0.3468969156
0.0391877662 0.7198839446 0.1568233149 -0.5021557691 0.3460045503 0.3480333771
-0.4937473851 1.3461537426 0.0656007450 -0.5273818825 0.2835596705 0.3489795308
0.4183658524 0.8407572430 0.2311987707 -0.5046131920 0.3458241657 0.3495988770
0.2402377508 0.3076922840 -0.6048211650 -0.4997543462 0.2707234023 0.3506034538
-0.3088748224 0.9260330826 -0.4440048312 -0.5356671126 0.2934355159 0.3470374156
-0.4230769290 1.4620580414 0.1356417780 -0.4616775029 0.3076922840 0.3505473384
0.0744363404 0.7020364460 -0.5342388628 -0.4940891928 0.2704001715 0.3439073389
0.0101708838 0.7190787908 0.0615223991 -0.4954455004 0.2695584023 0.3491566847
-0.4464152734 1.2698841715 0.1252614711 -0.5358957665 0.2945117466 0.3503777615
-0.2485068270 0.0000000000 0.3321638014 -0.4959418080 0.3191283216 0.3116210337
0.2831110167 0.7547300958 -0.0126729798 -0.5050312688 0.3458176657 0.3478747232
-0.4519784652 1.2837920936 -0.3424472621 -0.5355925357 0.2946689389 0.3438172236
-0.4539044266 1.6949799081 -0.5751753981 -0.4924385390 0.3076922840 0.3444683389
0.4117586606 0.8399313200 -0.3053025342 -0.5043873074 0.3457920503 0.3462599157
-0.0005493461 0.0407510353 0.2709783830 -0.4971529233 0.3154235911 0.3104809953
-0.1613247568 0.7108919453 -0.5751753981 -0.5262627672 0.3006116692 0.3328015706
-0.3520651652 0.2965524387 -0.6520984691 -0.4948045004 0.2994992077 0.3115131491
0.3061789764 0.7519685575 -0.2754437288 -0.4940937312 0.2699872485 0.3464651849
-0.2639678258 1.0445348043 -0.3877892586 -0.4641691181 0.3214789368 0.3465658003
-0.4979819617 0.2062969072 -0.5529769382 -0.5330113052 0.3104671684 0.3606989530
-0.4062091995 1.1300853361 -0.4982523271 -0.4997253462 0.3165275910 0.3648646450
-0.4554124265 1.4438949274 -0.5751753981 -0.4941671928 0.3076922840 0.3424496467
-0.4088898147 1.3704281254 0.2515533845 -0.4728701944 0.3348220896 0.3505099538
-0.1644942181 0.1568054110 -0.6040345497 -0.5091206147 0.3300893208 0.3444460697
-0.1775762171 0.7692307101 -0.2571987687 -0.5016175768 0.3459444734 0.3489283001
0.3846153166 0.6553398342 -0.1259665865 -0.5384615355 0.3076922840 0.3479014540
-0.3076923225 0.7461333657 -0.0529507844 -0.5374850356 0.3076922840 0.3484682232
-0.5000000000 1.7296689823 0.1053405111 -0.5384615355 0.3076922840 0.3479014540
-0.5000000000 1.4772965787 0.1570768533 -0.5069451149 0.3076922840 0.3479014540
-0.5000000000 1.2680517871 -0.6109936261 -0.4637364643 0.3195368600 0.3477206463
0.4228734290 0.7649346335 -0.3978784886 -0.4932205774 0.2702666331 0.3440216466
-0.4340190435 1.2388937124 -0.5055362111 -0.5355188819 0.2945442466 0.3423045314
-0.3356565896 1.2237567520 0.1341008551 -0.4642104643 0.3215191291 0.3496061462
0.2720366329 0.8224660521 -0.1456587003 -0.5045489997 0.3458070119 0.3474221848
-0.2484655193 0.6538461036 0.2508718076 -0.4969541156 0.2694887870 0.3475992617
-0.5000000000 0.0600103415 0.2723196906 -0.4967797310 0.3118947452 0.3112848414
0.1320954514 0.3076922840 0.2831487282 -0.4984783078 0.2741000558 0.3404855700
-0.4230769290 0.2879384779 -0.1766822364 -0.4618026568 0.3105614376 0.3463364541
0.3846153166 0.6767972941 -0.0936821274 -0.5384615355 0.3076922840 0.3479014540
-0.4707686946 0.2164523680 -0.2536308843 -0.5379347279 0.3102277069 0.3502853769
0.3746479712 1.0106791530 0.2709783830 -0.5256580749 0.2813265937 0.3421089929
-0.1037872228 0.7064167534 0.1910209661 -0.4955908080 0.2695149408 0.3486647232
0.4337993897 0.8426864352 -0.2502256154 -0.5043989612 0.3457952811 0.3465702233
-0.4230769290 1.6606331030 -0.2416143853 -0.4616247722 0.3076922840 0.3482161463
0.3846153166 0.6935477928 0.4594004070 -0.4615384645 0.3076922840 0.3479014540
0.3846153166 0.5128675375 0.2771381902 -0.5384615355 0.3076922840 0.3479014540
0.5000000000 0.8341314358 0.2444400389 -0.4692961947 0.3263852057 0.3487900309
-0.4359362357 0.0179205371 0.2709783830 -0.4981243848 0.3162454372 0.3105207261
-0.5000000000 0.1665259872 0.3845437589 -0.4965053464 0.3032796690 0.3120428798
0.4763333095 0.8461537811 0.1947679273 -0.4923490391 0.3416150122 0.3488018386
-0.1043048766 0.7063592149 -0.3605602607 -0.4955914234 0.2695145177 0.3484734924
-0.4230769290 1.7331115975 0.1808269284 -0.4616838106 0.3076922840 0.3508265307
-0.2998774385 0.1145203758 0.3583386071 -0.4974001925 0.3124530529 0.3108167646
-0.2307692515 0.7745505943 -0.2272159633 -0.4731483867 0.3298933208 0.3473883387
-0.3365867818 0.9135097759 -0.0500316308 -0.5271861902 0.2805060938 0.3482370694
-0.4406893123 0.2653414411 0.0772420133 -0.5374740356 0.3140752451 0.3509011076
-0.1148520296 0.7741050174 -0.1532523536 -0.5044430381 0.3457235888 0.3487722616
0.3846153166 1.0099892300 -0.5996805885 -0.4618367337 0.3076922840 0.3503242231
-0.4874068087 0.3076922840 0.2925138429 -0.4917946929 0.2912655545 0.3145659181
-0.4663791564 0.2694617100 -0.2053460804 -0.5377492279 0.3129831682 0.3504379923
0.1101544531 0.7301880592 0.0517963999 -0.4953180388 0.2695965946 0.3496238770
-0.4496705423 1.2070333687 0.0145579412 -0.5371791894 0.3023847844 0.3485465693
0.1982963309 0.7215932906 0.2031711574 -0.4941557697 0.2706835946 0.3407593392
-0.5000000000 1.6484811040 -0.0060386342 -0.5381748432 0.3076922840 0.3497774539
-0.1521364114 0.3076922840 0.3538349920 -0.4980125771 0.2820020937 0.3281121094
-0.2046308304 0.2732018636 0.3893501816 -0.4979068079 0.3017258614 0.3116464953
-0.5000000000 1.7592574031 0.0672229756 -0.4814850399 0.3076922840 0.3479014540
0.3893818547 0.7612133261 -0.1749506596 -0.4939843851 0.2700201331 0.3468778002
-0.4483573886 1.4234805828 -0.5751753981 -0.4871835010 0.3076922840 0.3421379929
0.4477005040 0.8444240889 0.2363847318 -0.5046154996 0.3458286657 0.3495451847
-0.0010896922 1.0590468801 -0.6309266245 -0.5025816152 0.2693200562 0.3476227233
0.0848996473 0.7273819440 -0.3364281087 -0.4949483081 0.2697170946 0.3477348771
0.3048433996 0.2685524409 -0.6283145478 -0.5071211148 0.3433329736 0.3404199161
0.2376434048 0.1199452985 0.3479014540 -0.4963448080 0.3187155524 0.3118272260
-0.0732174559 0.7793092862 -0.5661678603 -0.5045712689 0.3457873196 0.3452815311
-0.4230769290 1.6929217159 -0.3634936067 -0.4616077337 0.3076922840 0.3474630310
-0.3160230142 1.1746728327 -0.4864528664 -0.4643170412 0.3216607829 0.3451988773
-0.4593543493 0.1443780274 -0.1280732017 -0.5379523817 0.3073699379 0.3504807230
-0.4230769290 1.4795148862 -0.5100787492 -0.4619800029 0.3076922840 0.3430851467
0.3774968171 0.7598927877 -0.3899256431 -0.4934517313 0.2701930946 0.3445167620
0.3101099377 0.7392480585 -0.5493353616 -0.4940491158 0.2712275945 0.3424208775
0.3846153166 0.4860751934 0.4742753674 -0.5384615355 0.3076922840 0.3479014540
-0.4797614631 0.1289266824 -0.6520984691 -0.5000516538 0.3200432831 0.3138248797
0.3846153166 0.8556713573 0.3679162217 -0.5384615355 0.3076922840 0.3479014540
-0.2307692515 0.8904975853 -0.0464090926 -0.4616223106 0.3076922840 0.3486594155
-0.1638857951 0.6997391385 0.0610480530 -0.4956674234 0.2694919408 0.3483374155
-0.2523634806 0.2804713630 0.2709783830 -0.4931150775 0.2984129001 0.3125333029
0.2799534015 0.1677271794 0.3479014540 -0.4972193848 0.3172238602 0.3113452645
-0.2307692515 0.8921120852 0.1623202760 -0.4616259645 0.3076922840 0.3498558385
-0.1614759876 0.7574954033 -0.5751753981 -0.5134671528 0.3293541670 0.3418687237
-0.4606729261 0.2844052858 -0.1425775852 -0.5376472279 0.3139841682 0.3505625307
-0.4260507365 1.1597936800 -0.0764379364 -0.5347138435 0.2918216699 0.3478188771
-0.0313868053 0.7845381320 -0.2431023467 -0.5045409997 0.3457670119 0.3476133771
-0.3905735469 1.0788540324 -0.5751753981 -0.5003459615 0.3079501686 0.3288368401
-0.5000000000 1.6028005306 -0.3630941836 -0.5383332278 0.3076922840 0.3457298003
-0.4615384645 1.3438027812 0.2549096150 -0.4689454639 0.3266043980 0.3522934152
0.3064794764 0.8267713979 -0.0320509014 -0.5045799612 0.3458139349 0.3480764540
-0.5000000000 1.3695126639 -0.2311615399 -0.5366828049 0.3009507076 0.3463620695
0.0533531113 0.2176534448 -0.6520984691 -0.5028333844 0.3264054364 0.3200020331
0.4008411999 0.7539108651 -0.4982523271 -0.4948518850 0.2765777480 0.3673670679
-0.3549017419 0.9449465812 -0.5465185157 -0.5304787284 0.3077670532 0.3467281464
-0.4230769290 0.2644294797 -0.2438995774 -0.4618423106 0.3109922453 0.3461014926
0.1037043766 0.2105865223 0.2709783830 -0.4969589233 0.3102565531 0.3099154185
-0.0265567672 1.0607446492 -0.6115412799 -0.5026347306 0.2693237870 0.3481895694
0.1165837218 0.2237287136 -0.6303683554 -0.5058952303 0.3395187816 0.3353328781
-0.0418817275 0.7132951374 -0.5073129802 -0.4950663850 0.2696827100 0.3469024541
-0.4615384645 1.3432231659 -0.1740590443 -0.5276562286 0.2839814397 0.3479957232
0.0145459604 0.1090945685 0.3479014540 -0.4969555002 0.3172024371 0.3111598030
0.3619457414 0.8337046666 -0.1313700091 -0.5044991535 0.3458055119 0.3473939925
-0.4576895033 1.2980697848 -0.0718417445 -0.5357535742 0.2946585158 0.3472652233
0.3846153166 0.7079540994 -0.4493434462 -0.4615384645 0.3076922840 0.3479014540
-0.3537268189 1.0381630355 0.0070492495 -0.5357270357 0.2937927851 0.3498096846
0.0216465753 0.2516189037 -0.5751753981 -0.5054944227 0.3043731689 0.3831217975
-0.1756116403 0.6949646388 0.1940553120 -0.5036266151 0.3346887050 0.3355559550
-0.2307692515 0.9088301993 0.1892867739 -0.4616640029 0.3076922840 0.3505063384
-0.4615384645 1.1776179479 0.2945662273 -0.4650226181 0.3012811691 0.3364787626
0.3594515877 0.8333929744 0.2061125418 -0.5045861150 0.3458098196 0.3496568769
-0.1785195247 0.7476185963 -0.5751753981 -0.5211232676 0.3168220141 0.3390191085
-0.0841642243 0.3076922840 -0.5888308586 -0.4985730386 0.2779019017 0.3635979528
-0.2459267119 0.9994321154 -0.4751413673 -0.4641378105 0.3213869753 0.3461360695
-0.0028862305 0.7881007086 -0.1385135855 -0.5045101150 0.3457568965 0.3483791847
0.0513902653 1.0555483034 -0.5968269733 -0.5026588844 0.2693312870 0.3477186848
-0.4782608863 0.1373599894 -0.3360449549 -0.5335294974 0.3079370532 0.3598001454
-0.1714038714 0.6538461036 0.0658888219 -0.4967354618 0.2710893253 0.3494043770
0.2471375964 0.8193537062 -0.5233106328 -0.5043898074 0.3457814734 0.3451315696
-0.4382012355 0.1692093331 0.1046110881 -0.5376941894 0.3096025916 0.3508150307
-0.3318131668 0.9087361609 -0.1509444692 -0.5271911133 0.2805011707 0.3477195309
-0.4230769290 1.5910354161 -0.5556338611 -0.4618365029 0.3076922840 0.3440158005
0.1088657609 0.7298379054 0.1827447359 -0.5027163075 0.3459617426 0.3480168386
-0.5000000000 0.1991746001 -0.6516192768 -0.4975193463 0.3104019377 0.3134450720
0.3846153166 0.5489414578 0.3664109910 -0.5384615355 0.3076922840 0.3479014540
-0.3518438960 1.2642249797 0.2644911143 -0.4642138874 0.3215048599 0.3503883000
-0.1311495284 0.2713002868 0.2709783830 -0.4941438466 0.3014046691 0.3117680337
-0.4230840059 1.1538602189 0.0945413966 -0.5344018050 0.2904949392 0.3479012617
0.3851116627 0.7692307101 0.1215104714 -0.5053051150 0.3457826657 0.3479014540
-0.4883263855 0.1992083693 -0.4467656387 -0.5346969204 0.3099062454 0.3571742225
-0.4378796586 1.1834514859 -0.2322060398 -0.5359581126 0.2971117464 0.3474904156
-0.1858166396 0.6538461036 -0.3510119153 -0.4950875773 0.2753968250 0.3468248772
-0.5000000000 1.4321614283 0.2050045804 -0.4615384645 0.3076922840 0.3479014540
-0.3519072037 1.2643831335 -0.0126647875 -0.4643160027 0.3218205906 0.3482924924
0.3846153166 0.6617862952 -0.2799690746 -0.4615384645 0.3076922840 0.3479014540
-0.2556931342 0.2185180601 -0.5751753981 -0.5087991147 0.3006861307 0.3805941053
-0.2290666747 0.2176546756 0.3776848363 -0.4977628079 0.3056986688 0.3113207261
-0.4630556182 0.2455652119 -0.5751753981 -0.5048568073 0.2934057851 0.3795303747
-0.3076923225 0.8404884738 0.2708433830 -0.5384615355 0.3076922840 0.3479014540
-0.2364776741 0.9758094634 -0.2147375027 -0.4639760412 0.3207691292 0.3482454540
-0.4293888900 1.2042388689 -0.4982523271 -0.4854805396 0.3183101678 0.3619366068
-0.4981988078 0.1585331417 -0.5553623611 -0.5303998054 0.3092614762 0.3663222603
-0.0677845717 0.7104170223 0.2293088477 -0.4955448850 0.2695287100 0.3488472616
-0.2586638263 1.0312748053 0.2047169650 -0.4638663874 0.3203016292 0.3511532230
-0.5000000000 1.6999293308 0.0328775167 -0.5380759201 0.3076922840 0.3509407615
-0.4171802371 1.3787185478 -0.2795933823 -0.4728370790 0.3348552050 0.3480534155
0.2268570595 0.8168186295 -0.3345265704 -0.5044899612 0.3457951272 0.3463188772
-0.2926378621 1.1162099141 -0.3208979561 -0.4642283489 0.3215923983 0.3467154926
-0.1841028320 0.3076922840 -0.5789557439 -0.4982091155 0.2801134015 0.3676011448
-0.4230769290 1.6079138379 -0.0706884369 -0.4616486568 0.3076922840 0.3492723385
-0.1438472582 0.7019656383 -0.3390919547 -0.4956418465 0.2694994023 0.3482947617
-0.4230769290 1.4928677313 -0.0614386299 -0.4617146568 0.3076922840 0.3487576078
-0.2512409807 1.0127177683 0.0790787055 -0.4638960797 0.3204306677 0.3502924538
0.3846153166 0.6878573702 0.3464918003 -0.5384615355 0.3076922840 0.3479014540
-0.1204419907 1.0670037641 0.3883642201 -0.5025201921 0.2693152485 0.3477222617
0.3846153166 0.4501887731 0.4991352885 -0.5384615355 0.3076922840 0.3479014540
-0.2130901759 0.6942719851 -0.0611071299 -0.4957301157 0.2694730947 0.3480640694
0.4568691956 0.8455700888 0.2075151956 -0.5045963843 0.3458264349 0.3493557616
-0.2307692515 0.8557496649 0.1785120055 -0.4617919260 0.3076922840 0.3515282999
0.4517362345 0.8449285119 -0.1516513537 -0.5044333074 0.3458016272 0.3471533771
-0.4755048480 1.3461537426 0.1122847414 -0.5201943446 0.2763469403 0.3488684924
0.2996255539 0.2673100948 -0.6435431236 -0.5070122302 0.3428526659 0.3360490703
-0.4341135435 1.2391298662 0.1159837026 -0.5359097665 0.2944029004 0.3507309923
-0.2305639053 0.6923304467 -0.1123524721 -0.4957524234 0.2694664023 0.3479643002
0.1506067576 0.8072872841 0.2297435400 -0.5044366920 0.3457382811 0.3508290307
0.1571626802 0.3037098997 0.3640868758 -0.4992891924 0.3080608225 0.3104430723
0.2299158669 0.7434948659 -0.1186124332 -0.4948743081 0.2697366331 0.3489435693
-0.1310815668 0.7720762483 -0.5172897871 -0.5046053458 0.3457855888 0.3457216080
0.3355578588 0.2970963233 -0.5928129352 -0.5015436922 0.3173927448 0.3601716454
-0.4627079259 1.2595602493 -0.4982523271 -0.5030648844 0.3091307839 0.3621767991
-0.3960202003 1.1438966043 -0.3374646856 -0.5356859588 0.2941630543 0.3460640695
0.1720893714 0.3076922840 0.4016655653 -0.4994685385 0.2729975559 0.3420554929
0.1437342197 0.3076922840 -0.6515695460 -0.4986920386 0.2746432096 0.3410414161
0.0376697279 0.3076922840 0.3023815344 -0.4981570771 0.2767235172 0.3364057626
-0.1046399535 0.7753815173 0.1101317031 -0.5043246151 0.3456782811 0.3509865692
-0.1743085635 0.6985810616 -0.1679641217 -0.4956806926 0.2694878639 0.3482099924
-0.5000000000 1.5482891117 -0.2057431957 -0.5383552278 0.3076922840 0.3467021079
-0.1425179890 0.7706467484 -0.0053441342 -0.5043544227 0.3456873965 0.3501707615
0.3164127834 0.1355656819 0.3479014540 -0.4963845772 0.3187912062 0.3119059568
-0.1898524469 0.3076922840 -0.6093593570 -0.4979692694 0.2807901322 0.3636961836
-0.1111931453 0.7745623250 -0.4271403710 -0.5045756535 0.3457753196 0.3464034157
-0.1049518381 0.2020543306 -0.5751753981 -0.5112689607 0.3056992457 0.3814184130
-0.4230769290 0.1395137585 -0.5374774779 -0.4631623490 0.3011557461 0.3441141081
-0.5000000000 1.4221520444 0.2119827337 -0.5384615355 0.3076922840 0.3479014540
-0.4230769290 1.1873317548 -0.3824434898 -0.4633275797 0.3151733604 0.3469465695
0.3846153166 0.5399258431 0.4481685617 -0.4615384645 0.3076922840 0.3479014540
-0.0717266868 0.7099790223 -0.2675690371 -0.4955498850 0.2695269793 0.3486586463
-0.3920165468 1.1338874897 -0.1612246607 -0.5358032665 0.2940866312 0.3486104540
0.3523921267 0.8325104744 -0.4379514855 -0.5043631920 0.3457844734 0.3455207234
-0.0630183413 0.0075597302 0.2709783830 -0.4972853079 0.3164461295 0.3105878800
-0.4230769290 1.6568825264 -0.4998137885 -0.4617065799 0.3076922840 0.3455783003
-0.0547623419 0.7816161706 0.1647883142 -0.5043316535 0.3456842042 0.3512244153
-0.4551813881 0.2827899782 -0.0821706668 -0.5375903048 0.3141825143 0.3506605307
-0.3375544740 1.2285013670 -0.1142477797 -0.4642998489 0.3217633214 0.3477099540
-0.4230769290 1.5971759156 -0.1288665093 -0.4616405414 0.3076922840 0.3489128770
-0.4398224662 1.1572483341 -0.5517035537 -0.5318416899 0.2956187080 0.3415024545
-0.4733366944 1.2159039834 0.3047788804 -0.4656965026 0.3234725136 0.3420513391
-0.3376674356 0.9145903912 -0.3590834531 -0.5271923056 0.2804999784 0.3473128002
-0.1893746777 1.0715992253 0.3692142601 -0.5025782306 0.2693178254 0.3479762617
0.2383631355 0.8182568986 -0.5174000564 -0.5043980766 0.3457821272 0.3451792619
0.0264104980 0.7917628237 -0.2056272726 -0.5045614227 0.3457787042 0.3476669156
-0.3193599370 1.1830150628 0.2626640375 -0.4640836951 0.3210500138 0.3507999538
-0.2307692515 0.8393556277 -0.1999613115 -0.4616891183 0.3076922840 0.3481398771
0.4899262700 0.7976185540 -0.1834129282 -0.4779993863 0.2778945171 0.3461556080
-0.1585052570 0.7003369846 0.0155663642 -0.4956605388 0.2694939793 0.3483471847
-0.1438034505 0.7220867521 0.2709783830 -0.5235849213 0.2996044000 0.3655302219
-0.4230769290 0.2481634424 -0.1458209311 -0.4617844260 0.3103636300 0.3464443387
-0.1601973723 1.0696540716 0.3700171062 -0.5025387306 0.2693152101 0.3478214925
-0.3311726668 1.0265066518 -0.5751753981 -0.5196119600 0.2971133233 0.3404947238
-0.1520823345 0.6662703334 -0.5328259398 -0.4942762697 0.2698867485 0.3465834926
-0.2307692515 0.9129701221 -0.4111227568 -0.4619246952 0.3076922840 0.3442268389
-0.1970736387 0.7692307101 -0.2694429985 -0.4979034232 0.3455655888 0.3468649925
-0.4230769290 1.4422010044 0.1727649290 -0.4616826953 0.3076922840 0.3507767230
-0.1936516389 0.7692307101 -0.5731725521 -0.4994088077 0.3459752811 0.3465408387
0.1294739900 0.8046457458 -0.5055413265 -0.5044719612 0.3457859349 0.3453927619
0.2015127922 0.7430731736 -0.2878768432 -0.5045544227 0.3458775503 0.3478532617
-0.4230769290 1.7377363663 -0.5619785914 -0.4616184645 0.3076922840 0.3458962234
-0.2307692515 0.8409688968 -0.3618754529 -0.4616518106 0.3076922840 0.3467895310
-0.4908948853 1.2331935974 -0.5751753981 -0.4646888104 0.3214978983 0.3537383382
-0.4894565777 0.2507336346 -0.4591978301 -0.5372221510 0.3112606684 0.3517219153
-0.2307692515 0.9063425841 -0.2132944644 -0.4617218106 0.3076922840 0.3474341464
0.3846153166 0.6777803325 -0.3742646827 -0.4615384645 0.3076922840 0.3479014540
-0.4651764642 0.2369475972 -0.6520984691 -0.4962280388 0.3059680534 0.3125208413
-0.5000000000 0.1775329479 0.3248158019 -0.4940681928 0.3023492460 0.3125796490
-0.5000000000 1.6232264905 -0.4735997136 -0.5383177663 0.3076922840 0.3450469542
-0.4591929262 0.1007825307 -0.6520984691 -0.5012070384 0.3240115135 0.3140978028
0.4762651557 0.7692307101 -0.4265958710 -0.4991396924 0.3189465139 0.3558075303
0.3846153166 0.3476670502 0.5942152043 -0.5384615355 0.3076922840 0.3479014540
-0.1023369537 0.2500454808 -0.6520983921 -0.4981230001 0.3087213609 0.3113724953
-0.2597018262 0.6923076391 0.1975942733 -0.5000000000 0.3436943197 0.3432059928
0.3465687041 0.3081071686 0.3268639941 -0.5268314210 0.3351752050 0.3462818003
-0.1213661445 0.1752215634 0.2709783830 -0.4965371541 0.3094546300 0.3105843800
0.0695783408 0.7971587848 0.1095683570 -0.5044401920 0.3457343965 0.3501731461
-0.1696569869 0.7692307101 -0.4934945967 -0.5026806536 0.3459165888 0.3466096849
-0.2866813241 0.0212163445 0.2709783830 -0.4977903079 0.3161007065 0.3105224184
-0.4615384645 1.3219411291 -0.5625449375 -0.4702714254 0.3242914751 0.3371714548
-0.1737573712 1.0709559176 0.3833509897 -0.5025351537 0.2693149024 0.3478780309
-0.3076923225 0.8643323951 -0.4578807917 -0.5384615355 0.3076922840 0.3479014540
-0.4697382716 0.1565592956 0.2709783830 -0.4946714619 0.3045434381 0.3122539952
-0.3076923225 0.8075084763 0.2180334255 -0.4615384645 0.3076922840 0.3479014540
-0.2331959821 0.7910318622 -0.5751753981 -0.4739923866 0.3234180905 0.3437108005
-0.4413202353 0.2185635601 0.0703019754 -0.5376016510 0.3118064376 0.3508256076
0.1046534150 0.7292361747 0.0640587066 -0.5033298459 0.3459321272 0.3479536848
0.4364209664 0.7692307101 0.0213023637 -0.5015401537 0.3460583195 0.3479014540
-0.4912870391 1.2518048268 -0.6495314693 -0.4636541951 0.3188929370 0.3436252236
-0.3471212810 1.2524184806 -0.0555629765 -0.4643123104 0.3218008214 0.3480310309
-0.4431757736 0.1070578379 0.3695000677 -0.4968570387 0.3095637070 0.3113286107
-0.2321081360 0.8215519368 -0.5751753981 -0.4630069259 0.3076922840 0.3447248389
-0.5000000000 1.3873141625 -0.1623547375 -0.5383613047 0.3076922840 0.3469702233
-0.0775865325 0.1851717550 0.2709783830 -0.4965873464 0.3094489377 0.3104640338
0.3902383161 0.7692307101 -0.0152670565 -0.5044964227 0.3345970127 0.3479014540
-0.4702341561 1.3750463173 -0.5751754750 -0.5211269984 0.3147470527 0.3431636467
0.0308159207 0.7213726368 -0.0307607092 -0.4954191927 0.2695662485 0.3492222616
-0.5000000000 1.6049694919 0.0066548264 -0.5382336124 0.3076922840 0.3493521077
-0.5000000000 1.5704664177 -0.2963734964 -0.5383425355 0.3076922840 0.3461421080
0.0638949182 0.3076922840 0.4006407192 -0.4990445001 0.2760030172 0.3373911087
-0.0821819552 0.6773072171 -0.5279609017 -0.4941896928 0.2700447100 0.3460453003
-0.1196354139 0.7735070559 0.0165860564 -0.5043591535 0.3456907042 0.3502528769
-0.0116220376 0.7870087087 -0.3369688395 -0.5045986920 0.3457907042 0.3467156079
-0.0559140726 0.7814722091 -0.0786446670 -0.5044465766 0.3457287811 0.3491393770
-0.5000000000 1.6389692970 -0.3259779557 -0.5383384201 0.3076922840 0.3459591465
0.1817142937 0.2840500166 -0.6520984691 -0.4987448078 0.3077423994 0.3101956108
-0.4230769290 1.7573575187 -0.1397411623 -0.4616390030 0.3076922840 0.3488456462
-0.4230769290 1.6748092558 0.1965648503 -0.4616860029 0.3076922840 0.3509237615
0.3151517450 0.8278554363 -0.3377576856 -0.5044329997 0.3457924734 0.3461850311
0.3364832433 0.2303280207 0.3106537261 -0.4966361156 0.3128063990 0.3106618799
-0.2817485553 0.2189655601 -0.6520984691 -0.4980785771 0.3106068223 0.3122282260
-0.3998376616 1.3613760107 -0.5029967113 -0.4729953867 0.3346968973 0.3445084158
-0.3638978566 1.2385290970 0.2709783830 -0.4815116168 0.3147857835 0.3509486845
-0.3888830470 1.1361779126 -0.6520984691 -0.4756583480 0.3311153591 0.3315995322
-0.4615384645 1.3110798607 -0.4481661771 -0.5354174204 0.2944003620 0.3425439160
-0.2414478660 0.6923076391 -0.1519916614 -0.5000000000 0.2692417485 0.3474165694
-0.4724872713 0.1195585293 0.3752899519 -0.4967592310 0.3078185917 0.3115400722
-0.3222925137 1.1429138736 0.2709783830 -0.4787486939 0.3152333219 0.3513931460
-0.4230769290 0.0482182271 0.1701218908 -0.4615979645 0.3083387071 0.3475488771
0.3636127797 0.8339130897 -0.2693751908 -0.5044341920 0.3457958965 0.3465430695
-0.5000000000 1.5118353452 -0.0509295153 -0.5383768817 0.3076922840 0.3476587617
-0.3622788567 0.1097138377 -0.6261973941 -0.5067200764 0.3265091672 0.3317668783
-0.3076923225 0.8751892019 0.2216096945 -0.5384615355 0.3076922840 0.3479014540
0.2407109430 0.1568707956 0.2709783830 -0.4966389233 0.3118394760 0.3101089569
0.3846153166 0.6628569875 0.0143702104 -0.4615384645 0.3076922840 0.3479014540
-0.3076923225 0.8316748206 -0.5308640169 -0.5384615355 0.3076922840 0.3479014540
-0.3360953588 0.0000000000 0.3039959189 -0.4969039618 0.3183040524 0.3112424184
0.3547642035 0.8328070129 -0.3923644890 -0.5043828074 0.3457875888 0.3457980311
-0.4307987746 0.0208119215 0.0420472468 -0.5240958058 0.3016365922 0.3521897998
0.2759166326 0.8229510521 -0.5033841344 -0.5043809612 0.3457820503 0.3452169927
-0.4230769290 1.5730058405 -0.1467710079 -0.4616402722 0.3076922840 0.3487822616
-0.4387423509 0.1955313696 0.0986586270 -0.5376323817 0.3108342838 0.3508411461
0.1128995682 0.3076922840 0.3162584180 -0.4992365770 0.2746417481 0.3395037623
-0.1712632945 0.6538461036 -0.0175917486 -0.4952764619 0.2718872099 0.3488834155
-0.3076923225 0.8397320508 -0.4521905229 -0.5383073047 0.3076922840 0.3461048003
0.3846153166 0.6526526421 -0.2263171941 -0.4615384645 0.3076922840 0.3479014540
0.0845179166 0.7990262078 -0.5336676705 -0.5044871920 0.3457852426 0.3452778004
0.2528699036 0.8200702446 -0.0299422477 -0.5046146535 0.3458155503 0.3481586463
0.1948881389 0.0000000000 0.3026845344 -0.4954805003 0.3196577831 0.3118858414
-0.2307692515 0.9374470433 -0.5096699416 -0.4658239257 0.3126767067 0.3352745704
-0.5000000000 1.5533638420 -0.0984545501 -0.5383689970 0.3076922840 0.3473761079
-0.4328315436 1.1733552944 0.0848773204 -0.5354228434 0.2948541696 0.3479376848
-0.4087804686 1.1757972942 0.1563103918 -0.5358459203 0.2942132081 0.3508914153
-0.3555185880 1.0426424967 -0.3989771808 -0.5357125742 0.2938118236 0.3468070310
-0.4864761164 0.1153998373 -0.4264127941 -0.5305920746 0.3077027071 0.3660373372
0.3062336303 1.0397134969 0.4408936776 -0.5021226921 0.2692993639 0.3470845695
-0.3076923225 0.7989805155 0.0867792818 -0.5380978817 0.3076922840 0.3516216845
-0.2643720566 1.0455454196 -0.0587268993 -0.4640145028 0.3208723215 0.3490696462
0.3846153166 0.8190389370 0.3165601103 -0.5384615355 0.3076922840 0.3479014540
0.1238055674 0.7319722129 -0.4016507191 -0.5043028074 0.3459082042 0.3478328002
-0.2027736382 1.0724925329 0.3089052262 -0.5025749229 0.2693175177 0.3479636848
-0.3440657043 1.2447795581 0.1593126993 -0.4642324258 0.3215908599 0.3496882231
-0.3076923225 0.7185904447 -0.3927030275 -0.5319483437 0.3076922840 0.3341935704
-0.2307692515 0.7976199002 0.1486977770 -0.4628484259 0.3121232452 0.3515287614
-0.4853047319 0.1996486770 -0.4135274490 -0.5353672280 0.3097982839 0.3557636072
-0.4328099282 0.2971432079 0.1639154682 -0.5373043817 0.3159915911 0.3510884153
-0.4230769290 0.2375510202 -0.2478521925 -0.4618446568 0.3110175915 0.3460876465
-0.0435256890 0.6834108705 -0.5568825918 -0.4943137697 0.2701348254 0.3440323774
0.4217404676 0.8411790122 -0.5135000951 -0.5042846535 0.3457773196 0.3449665312
-0.3250069750 0.9019300075 -0.1284563940 -0.5271940364 0.2804982477 0.3475614156
-0.2402129815 0.9107139684 0.2709783830 -0.4710839638 0.3076922840 0.3511540691
-0.4230769290 1.7524421344 -0.0965336272 -0.4616450414 0.3076922840 0.3491126462
0.0081593071 0.7154512911 -0.3257182634 -0.5042632689 0.3459102426 0.3478023386
-0.4001095077 1.1541196805 0.0007461346 -0.5358419972 0.2941410543 0.3499631077
0.1438972197 0.7339372897 0.1773410441 -0.4952750388 0.2696095562 0.3498256462
0.1007985307 0.0708589561 0.3479014540 -0.4958003849 0.3194379370 0.3119825337
-0.3492270501 1.1956629849 -0.5751753981 -0.4834267320 0.3144188220 0.3434674928
-0.0170662295 0.7118476376 -0.3555557226 -0.5041913074 0.3459189349 0.3477957232
