-0.2692306538 0.7434937564 -0.2999238807 -0.5251506280 0.0265560517 0.5879321017
0.4206868065 0.5929029888 -0.0501983328 -0.5000000000 -0.0098805434 0.5590018180
-0.2457224113 0.7307695962 -0.1854738620 -0.4984560377 -0.0344792095 0.5876481015
0.2660990754 0.6923080385 -0.3123323485 -0.4838618765 -0.0345532865 0.5961541827
0.4458961268 0.2774872157 0.1034702440 -0.5000000000 0.0188743941 0.6295838917
-0.1138300761 1.1077288616 0.0961539327 -0.4947316897 0.0050186179 0.5593440874
-0.1484424781 1.2136799145 0.1260705246 -0.4795507590 0.0110392363 0.5660243215
-0.3062365185 0.0000000000 -0.2769667923 -0.5000000000 0.0384615577 0.5961541827
-0.0344545365 0.6923080385 -0.2792851012 -0.4886613405 0.0366495568 0.5961541827
0.0154184885 1.2724906362 0.1730770481 -0.5024848089 -0.0049696563 0.6339358554
0.1678794493 0.7720070014 0.0961539712 -0.4961849212 -0.0076301961 0.6330777781
0.1077725347 0.7862737778 0.0961538942 -0.5000000000 0.0053893104 0.5585672024
-0.2692306538 0.7189245133 -0.0301980920 -0.5337495553 -0.0038213096 0.5992299919
-0.1996644652 0.8208426412 0.0576923750 -0.5103334282 -0.0103334282 0.6299709688
-0.2307690962 0.7058588914 -0.0403434817 -0.4770391039 -0.0238839735 0.6045374946
-0.1923075385 0.6319592006 -0.0363144412 -0.4658677906 -0.0130545065 0.5961541827
0.2676556915 0.7291941338 -0.2216540724 -0.5143496610 0.0355137870 0.5929730273
0.2418501786 0.7170791662 -0.1831530531 -0.5129810065 0.0348176713 0.6034906479
-0.1971559255 0.7424837943 -0.3034946517 -0.4793731051 0.0316676697 0.5904734875
-0.3076922115 0.0365950183 -0.5817901370 -0.5384615577 0.0000000000 0.5961541827
0.4088101852 0.7644958822 -0.1441472644 -0.5097171202 0.0252467434 0.6186058478
0.1325003932 0.7297496726 0.0576923750 -0.5000000000 0.0151028537 0.6244230045
-0.2682687687 0.2336549630 0.1217995224 -0.4620980195 -0.0064690802 0.5961541827
-0.0374431918 0.9100904550 0.1096499394 -0.5139142377 0.0073825422 0.6307841231
0.1999301577 0.6923080385 -0.4148095536 -0.5000000000 0.0384615577 0.5961541827
0.1863499201 0.6923080385 -0.1811920137 -0.5000000000 -0.0384615577 0.5961541827
0.1288468529 0.6923080385 -0.1007199734 -0.5000000000 0.0384615577 0.5961541827
-0.2583228792 0.7614008422 -0.2656606713 -0.5209764336 0.0308189385 0.5884982173
0.3764395921 0.7362990605 -0.1867825934 -0.5261147054 0.0268649750 0.6042902637
0.3846158269 0.7424235635 -0.2223392650 -0.4696401002 -0.0195591636 0.5961541827
0.3664094332 0.7307695962 -0.3589319102 -0.4982433068 -0.0382675576 0.5979108759
0.4554602854 0.2393344274 -0.5135209875 -0.5000000000 -0.0175073934 0.6303771613
0.0017238278 0.6923080385 -0.3797088822 -0.5000000000 -0.0384615577 0.5961541827
0.2964625136 0.8667692795 0.0895375832 -0.5228288576 0.0120630060 0.5685836304
0.2725696940 1.0440649836 0.1017569740 -0.4903526106 -0.0071341190 0.6326776240
-0.1462000923 0.7307695962 -0.2126411063 -0.4999096538 0.0384522115 0.5961090288
-0.2692306538 0.7042644675 -0.0362049796 -0.5245115123 -0.0255482820 0.6061258415
-0.2307690962 0.7262755939 -0.0898407372 -0.4628547122 -0.0031777708 0.5961541827
-0.1928690387 0.7692311538 -0.1853243619 -0.4813349522 0.0252522819 0.6085975351
0.4087455698 0.4728197364 0.0260259361 -0.5000000000 0.0141220840 0.6318524698
-0.0672156682 0.6847694578 -0.4807694327 -0.5069739650 0.0006857696 0.5586624332
-0.1248702355 1.3076929615 0.1387074924 -0.5000000000 0.0374601341 0.5919120267
0.1155130001 0.7820174295 0.1089402083 -0.4969866523 -0.0145817381 0.6308760462
0.1604930995 0.9209273451 0.1301188728 -0.4907117261 0.0047409254 0.6330008550
0.1956765017 1.3076929615 0.2069982573 -0.5000000000 0.0384615577 0.5961541827
0.3221182188 1.2157359540 0.1201900601 -0.4813989522 -0.0065916571 0.6289315837
0.3306912230 0.7307695962 -0.1818707448 -0.5000000000 0.0384615577 0.5961541827
0.3846158269 0.5823204835 -0.0581394137 -0.4950500360 0.0000000000 0.5961541827
-0.0740122485 0.6923080385 -0.3332670512 -0.5166479314 -0.0343132479 0.5961541827
-0.0351552291 0.7858446237 0.0961539327 -0.4930267273 0.0035611556 0.5590816257
0.3102703667 0.8914860996 0.0867060049 -0.5253973973 0.0037032326 0.5682566687
0.1558877895 0.8328896857 0.0961539327 -0.5082761964 0.0095706971 0.5602228955
0.0992183381 1.2784653315 0.1730770481 -0.5000000000 0.0000000000 0.6346157404
0.0219687225 1.0611884152 0.1188803287 -0.4948863051 0.0062522724 0.5587972025
0.1618677540 0.8824718259 0.1324714124 -0.4943579203 -0.0040046943 0.6337913938
-0.1274740060 1.0359754795 0.0961539327 -0.4932939197 0.0000000000 0.5597230491
0.1139339993 0.8841835959 0.1346154904 -0.4979270374 -0.0021175395 0.6343656633
0.1433847448 0.6923079615 -0.4390362580 -0.5000000000 -0.0384615577 0.5961541827
0.4902469182 0.0000000000 -0.2416798516 -0.5000000000 -0.0384615577 0.5961541827
0.3656102790 0.8061072492 0.0561068742 -0.5000000000 -0.0176125857 0.6302582382
0.3938943316 1.0313448618 0.0961539327 -0.5119008906 -0.0047465793 0.6200593100
-0.1538459808 0.7251898626 -0.4210953644 -0.5107840054 -0.0340483632 0.6046379562
0.0077015231 0.6923080385 -0.1013302430 -0.4983118068 0.0382751345 0.5944659895
-0.0371317301 1.2115457981 0.1346154904 -0.4998043076 0.0002609232 0.5577771250
-0.1923075385 0.6764094151 -0.1297284110 -0.4615384423 0.0000000000 0.5961541827
-0.1333852398 1.1280821025 0.0961539327 -0.4920924960 0.0050962333 0.5595493952
0.1106810361 0.6923080385 -0.4748417759 -0.5000000000 0.0384615577 0.5961541827
0.2971220909 1.1643859283 0.1346155288 -0.4885534558 -0.0062644647 0.6322999700
0.3839164804 0.8583636600 0.0576923750 -0.4995054998 0.0000000000 0.6344108941
-0.3076922115 0.0019383087 0.1518320759 -0.5384615577 0.0000000000 0.5961541827
-0.1748555297 0.8826910952 0.0576923750 -0.5000000000 0.0000000000 0.5576926250
0.4230773846 0.7951347822 0.0733633444 -0.5384615577 0.0000000000 0.5961541827
-0.1843505729 1.2139328762 0.0961539327 -0.5000000000 0.0000000000 0.5576926250
-0.2672161528 0.2559804357 0.0877502746 -0.5000000000 -0.0128155064 0.5599145876
-0.2307690962 0.8637740857 0.0754478839 -0.5384615577 0.0000000000 0.5961541827
-0.0472631582 1.0943865087 0.1346154904 -0.5053086180 -0.0076650423 0.6333038936
0.3150338691 1.2151278768 0.1267944865 -0.4819057602 -0.0063916186 0.6293246224
0.3019972856 0.7250742472 -0.4083923965 -0.5159429310 0.0349274021 0.5961541827
-0.0624851659 0.6923080385 -0.3277922793 -0.5109446978 -0.0358193256 0.5961541827
-0.2259855553 0.7692311538 -0.2370323108 -0.4920370729 0.0368565184 0.5921727192
0.0089418314 1.1728321249 0.1441081874 -0.4992098073 -0.0100101973 0.6330897781
-0.1675157953 1.2916377612 0.1594073105 -0.5226022805 0.0112495056 0.6204432333
-0.1513063641 1.0868004665 0.0986935493 -0.5143521610 -0.0068465803 0.6311132002
0.3095253663 1.2066341033 0.1207149450 -0.5160153926 0.0088316583 0.5631666662
0.1975951950 1.0107369669 0.0961539327 -0.5061736954 0.0061736954 0.5595595875
-0.2307690962 0.8945829088 0.0953418554 -0.4615384423 0.0000000000 0.5961541827
-0.2222490150 0.7635090356 -0.0249528586 -0.4983845761 0.0275483215 0.5701929005
0.0110420248 0.7146945881 0.0279075140 -0.4902201105 0.0342727479 0.5829710223
0.3118475213 0.7307695962 -0.1765625883 -0.5000000000 0.0384615577 0.5961541827
-0.1820489179 0.9699170619 0.0576923750 -0.5000000000 0.0000000000 0.5576926250
-0.2692306538 0.2222108419 0.1337171438 -0.4620229425 -0.0058540414 0.5961541827
-0.0015750585 0.7123264715 -0.0031116554 -0.4887547636 0.0349585175 0.5849089463
0.0740109409 0.6898421911 -0.3269232019 -0.5000000000 0.0000000000 0.6346157404
0.0793860974 0.6943509626 0.0576923750 -0.5000000000 0.0010530774 0.6337802400
0.4948758821 0.0000000000 -0.0280038217 -0.5000000000 -0.0384615577 0.5961541827
-0.2307690962 1.1461329577 0.0603604533 -0.5277415523 0.0097749280 0.5735493252
-0.1879308055 1.2528633957 0.0961539327 -0.5000000000 0.0000000000 0.5576926250
0.1819661871 0.7204276679 -0.0121013522 -0.5110811594 0.0350562868 0.5852996003
0.2845765077 0.7383789846 0.0191042403 -0.4868017626 -0.0330277473 0.6106029207
0.0360883450 1.2871894128 0.1730770481 -0.4992136919 0.0007863081 0.5579692405
-0.1864784202 0.8511880410 0.0576923750 -0.5000000000 0.0000000000 0.5576926250
-0.0734074021 0.7307695962 0.0249498971 -0.5000000000 -0.0292269762 0.5961541827
-0.2748617720 0.0000000000 0.0454162150 -0.5000000000 -0.0384615577 0.5961541827
0.2597547260 0.6923080385 -0.3631034123 -0.4859674161 -0.0348370943 0.5961541827
-0.2219363610 0.5523248915 -0.3515217142 -0.5000000000 -0.0232091270 0.6266194287
-0.2014106969 0.7307695962 -0.3570349862 -0.5092025046 -0.0366064414 0.5987199147
0.1215241569 0.8298401072 0.1183013668 -0.4950468052 -0.0125404293 0.6319162775
0.1459583999 1.1006590503 0.1346154904 -0.5005861157 -0.0017583086 0.6344701249
-0.2551978391 0.4022852011 -0.4358531025 -0.5363885182 0.0121231214 0.5961541827
-0.1619266002 1.0106172361 0.0683091880 -0.5128811603 -0.0135295068 0.6284953527
0.0715460550 1.2042647944 0.1465719964 -0.4985628454 0.0147985459 0.5609918574
0.2070161997 0.6923080385 -0.3332169358 -0.5000000000 -0.0384615577 0.5961541827
-0.2414469476 0.7307696731 -0.2152540307 -0.4851292233 -0.0291965915 0.5961541827
-0.2692306538 0.7192004750 -0.1166410583 -0.5356013255 -0.0036179633 0.5928307195
0.0448066570 0.8226464113 0.1111076325 -0.5077468885 -0.0136267376 0.6310633540
0.2721502707 1.2377255035 0.1415711477 -0.4896828025 -0.0100104281 0.6315212773
-0.0284788412 1.2542601656 0.1588374640 -0.5058069644 -0.0083400042 0.6331885474
0.1671349874 0.8649286632 0.1213269837 -0.4938780739 -0.0081524656 0.6329761626
-0.2692306538 0.0903494298 -0.5952851053 -0.4615384423 0.0000000000 0.5961541827
0.2758437725 0.6767277230 -0.3269232019 -0.5000000000 0.0000000000 0.6346157404
0.4083742234 0.5294066109 -0.3781888814 -0.4751933338 0.0118105828 0.5961541827
-0.1041208790 0.8399141507 0.0961539327 -0.5136626607 -0.0100654666 0.6299024303
-0.2597710337 0.7402292547 -0.0754154608 -0.5256460513 0.0260303976 0.5901844874
0.3970625255 0.9746342181 0.0576923750 -0.5000000000 0.0000000000 0.6346157404
0.0640898205 0.9735102944 0.1346154904 -0.5037741557 0.0000000000 0.6340482401
0.1007965696 0.7061693915 0.0576923750 -0.5000000000 0.0042657329 0.6324591624
0.0257546475 0.6923080385 -0.1170119047 -0.5000000000 -0.0384615577 0.5961541827
0.1868572665 0.6923080385 -0.2700616735 -0.5000000000 -0.0384615577 0.5961541827
-0.2692306538 0.7347974828 0.0130695450 -0.5209352028 -0.0196417021 0.6076963423
-0.1198547330 1.1961866750 0.1173239048 -0.4885804943 0.0100867358 0.5612499345
0.1613789076 1.0558874510 0.1270830251 -0.5067920803 0.0067920803 0.5593840105
-0.1265671979 0.7307695962 -0.0994548190 -0.5107456208 -0.0362559412 0.5961541827
0.3056434797 1.0417073285 0.0971785486 -0.4908274185 -0.0088819275 0.6324267008
0.4408522781 0.2897910680 -0.4798830861 -0.5000000000 -0.0193152020 0.6293280454
0.0049777525 0.6923080385 -0.0807389634 -0.4959318826 0.0374127879 0.5920860653
0.0853963312 0.7806582365 0.0961539327 -0.5000000000 0.0036135787 0.5582790099
-0.2675214991 0.2608047458 0.1145919034 -0.5000000000 0.0197249329 0.6290281222
-0.2388722925 0.7937337815 0.0192308173 -0.5350987868 0.0135210837 0.5987098378
-0.2692306538 0.7261324785 -0.0604948379 -0.5373290956 -0.0029441938 0.5965750675
0.1385504347 0.7264650171 0.0533877575 -0.5043147714 0.0284988604 0.5721926323
0.1844123422 0.9989222687 0.0961539327 -0.5066265802 0.0081128502 0.5599414338
-0.2692306538 0.1554005777 -0.5521569684 -0.5384615577 0.0000000000 0.5961541827
0.2880943940 0.9613977115 0.0961539327 -0.4972754602 -0.0027245398 0.6342303940
-0.2573983787 0.7692311538 -0.2379013113 -0.5185130862 0.0319786698 0.5938441431
-0.2349406752 0.7692311538 -0.0599079146 -0.5077436193 0.0360765565 0.5913603341
-0.1732916443 1.1172802894 0.0961539327 -0.5096468510 -0.0022505011 0.6318908544
-0.1990406572 0.6020828395 -0.0147967382 -0.5000000000 0.0166197391 0.6307958154
0.1208834643 1.2134207221 0.1557279240 -0.5038836558 0.0177720858 0.5627218198
0.0781390583 0.6923080385 -0.2206533796 -0.5000000000 0.0384615577 0.5961541827
-0.1923075385 0.6237488119 -0.3523914454 -0.4624370966 -0.0072997729 0.5961541827
-0.1698453734 0.6903029605 -0.3269232019 -0.5122448907 0.0048946178 0.5663417447
-0.2828705453 0.0097948895 0.1730770481 -0.5000000000 0.0000000000 0.6346157404
-0.2119061636 0.5443885414 -0.3594581028 -0.5000000000 -0.0238138965 0.6261236208
-0.0945940281 0.7099792011 -0.2934013005 -0.5172954317 -0.0343510172 0.5961541827
0.1853195734 1.3076929615 0.1831142839 -0.5000000000 -0.0384615577 0.5961541827
-0.1750872222 0.7307695962 -0.2087829121 -0.4904891876 0.0358272102 0.5961541827
0.0906247569 1.3074186152 0.1730770481 -0.5000000000 0.0000000000 0.5576926250
0.1770064923 0.7061418146 -0.0285569374 -0.5089052737 0.0362086335 0.5883282172
-0.2440890259 0.6923080385 -0.0635978010 -0.4990523841 -0.0301962459 0.6050384948
-0.0110587940 0.9972856140 0.0961539327 -0.4956867671 0.0058686952 0.5589072025
-0.1529462496 0.6784956854 -0.3269232019 -0.4856659159 0.0039809635 0.6297030841
0.4784690277 0.0000000000 0.0894028909 -0.5000000000 -0.0384615577 0.5961541827
0.2801590055 0.7307696731 -0.0085221196 -0.5072408882 0.0359343257 0.5854007158
0.1007062234 0.6786894932 -0.4807694327 -0.5000000000 0.0000000000 0.5576926250
0.1306605076 0.8747704374 0.1247701393 -0.5083516965 0.0066345033 0.5601010108
-0.1923075385 1.1277599870 0.0784795392 -0.4670397143 0.0000000000 0.5840782536
-0.1538459808 0.9791412973 0.0748447682 -0.4698631003 0.0074546960 0.5734719406
-0.2307690962 0.7589269179 -0.0758003071 -0.4615384423 0.0000000000 0.5961541827
-0.1251511587 0.9636015203 0.0884497365 -0.4833756071 0.0063968109 0.5635196664
0.1541589809 0.6923080385 -0.1577801174 -0.5000000000 0.0384615577 0.5961541827
-0.2561553396 0.3643896053 0.0485746012 -0.5009948467 -0.0153445846 0.5610133959
-0.1765612614 0.7307695192 -0.3606758726 -0.5030880785 -0.0381557883 0.5961541827
0.3632302393 0.7683553842 -0.0192307404 -0.5123469677 0.0199835869 0.5685339766
0.3076927115 0.9557618625 0.0653299173 -0.5292973608 0.0060450799 0.5723859016
-0.2307690962 0.6885869597 -0.1754117031 -0.5375977111 -0.0021976934 0.5961541827
0.2901860489 1.2853543734 0.1346154904 -0.5013506545 0.0094906201 0.5609303574
0.3442758068 0.9842056459 0.0576923750 -0.5135894299 0.0064263109 0.5629587815
0.2815855831 0.7046625446 -0.3895020024 -0.4827229914 -0.0343607095 0.5961541827
0.3892122523 0.7692311538 -0.3374088610 -0.5195651636 0.0326907087 0.5950328744
0.4615389423 0.0379662113 0.1773323194 -0.4615384423 0.0000000000 0.5961541827
0.0619489733 0.6792501858 -0.4807694327 -0.5000000000 -0.0073746191 0.6315610850
0.1361851642 1.1820304756 0.1442919952 -0.5016596547 -0.0097940818 0.6330057396
0.2718598475 0.6949367321 -0.2993226881 -0.4825907605 -0.0342909787 0.5961541827
0.3053295950 0.9307431577 0.0961539327 -0.5000000000 0.0000000000 0.6346157404
0.0703292852 0.8808364789 0.1346154904 -0.5010831544 -0.0017764624 0.6342616248
-0.2121375099 0.6153849231 -0.0293630147 -0.5035654249 -0.0180622783 0.5961541827
0.3078557116 0.6821224949 -0.3269232019 -0.5000000000 0.0000000000 0.5576926250
-0.2114650096 0.6923080385 -0.1282927565 -0.5000000000 0.0384615577 0.5961541827
0.3356198409 0.7614383038 0.0141794686 -0.5165183544 0.0295127455 0.5789484049
0.1113369595 0.7861968931 0.1131196719 -0.4973127679 -0.0137723530 0.6314055849
0.0108419093 0.9624462505 0.1208055604 -0.5105035822 -0.0022447319 0.6329524703
-0.2734958483 0.0000000000 -0.5056720221 -0.5000000000 -0.0384615577 0.5961541827
0.4230773846 0.7631604970 -0.4058312029 -0.4617479809 0.0000000000 0.5952665284
0.3943035625 0.7307695962 -0.1006566657 -0.5071281959 0.0359040949 0.5900854104
-0.1355272024 0.7845952769 0.0529136803 -0.4867161087 0.0176818550 0.5656140905
-0.2102572397 1.0400312123 0.0582154137 -0.5000000000 -0.0093668508 0.6334561629
0.3954431016 0.7692311538 -0.3290694722 -0.5146095842 0.0344299788 0.5959582595
0.2097584703 1.3076929615 0.1560807319 -0.5026225782 0.0319555929 0.5830412531
0.3572036209 0.7307695962 -0.1748160489 -0.4938709200 -0.0366058260 0.5961541827
-0.2542159156 0.3083318465 0.0829071184 -0.5000000000 0.0171777778 0.6304078921
-0.2307690962 0.7321355584 -0.1650669671 -0.4986339993 -0.0075989653 0.5936211814
0.2639445743 0.7254830166 -0.2758885610 -0.5123266600 0.0360392873 0.5912198725
0.3846158269 1.0765265383 0.0768076538 -0.5351260176 -0.0083038503 0.6006294542
0.0318537275 0.6822885719 -0.0961538558 -0.5000000000 0.0000000000 0.6346157404
-0.2307690962 1.0123768523 0.0852700426 -0.5384615577 0.0000000000 0.5961541827
0.0362087681 0.6626199852 -0.3269232019 -0.5000000000 0.0000000000 0.6346157404
0.2125272793 0.8844990576 0.1245058699 -0.4889018021 0.0020903472 0.6326968163
-0.0805983288 1.0914742765 0.0997538576 -0.4853511850 0.0093003123 0.5618888194
-0.2003247732 0.6538464808 -0.0802880786 -0.5000000000 -0.0384615577 0.5961541827
0.0064293686 1.0218409725 0.0961538942 -0.4928228810 0.0097515818 0.5597172414
-0.2307690962 0.7564484551 -0.3471959813 -0.5313954388 -0.0114331980 0.5961541827
-0.0325766894 1.2159408772 0.1567885784 -0.5080815040 -0.0076846192 0.6329543549
0.3623665081 0.7469819120 -0.2167084160 -0.5259053591 0.0272602444 0.6025123013
-0.2113305095 0.7497925287 -0.3459202499 -0.4753258723 0.0291632838 0.5939096046
-0.0940841817 0.7008886966 -0.4567846515 -0.4951288053 0.0314187465 0.5809843674
0.0743375949 0.6923080385 -0.4489837630 -0.5000000000 0.0384615577 0.5961541827
-0.0310329578 0.9565744783 0.0998681269 -0.5101518512 -0.0033072709 0.6325670471
-0.2602021878 0.3461540192 -0.4604105379 -0.5185000862 0.0117894290 0.5961541827
0.1134737683 0.6923080385 -0.0288403990 -0.5025780782 0.0382328268 0.5948651436
-0.0110904094 0.7066793149 -0.0296356302 -0.4909619955 0.0360797103 0.5871161782
-0.2458901806 0.4395157967 -0.4271288289 -0.5368879415 0.0106445822 0.5961541827
-0.1815061869 1.0912158148 0.0684937650 -0.4846491077 0.0087150044 0.5626064351
-0.2664954986 0.6923080385 -0.0773641156 -0.5256147436 -0.0251970511 0.6006188388
-0.0327125740 0.6923080385 -0.1689788922 -0.4932088812 0.0375324803 0.5995497613
0.0486001974 0.6923080385 -0.3271591251 -0.5000000000 -0.0384615577 0.5961541827
-0.0116322174 0.6923080385 -0.3119247713 -0.5000000000 -0.0384615577 0.5961541827
-0.2692306538 0.2011757929 0.1260082938 -0.5384615577 0.0000000000 0.5961541827
-0.0202995678 0.6923080385 -0.0184906631 -0.5065610417 -0.0368445569 0.6017051470
0.0852621003 0.6923080385 -0.1555855393 -0.5000000000 0.0384615577 0.5961541827
-0.1163210005 0.7302021728 -0.3674564530 -0.5139977378 -0.0355415562 0.6000986462
0.0990364534 0.6923080385 -0.2427156983 -0.5000000000 -0.0384615577 0.5961541827
0.3227876037 0.8679002416 0.0643434552 -0.5190291634 0.0088051198 0.5652761673
-0.2307690962 0.7308205962 -0.1729510096 -0.4615384423 0.0000000000 0.5961541827
0.3822233642 0.7668387680 -0.2314649619 -0.5244460122 0.0278250908 0.5960792211
-0.0240045697 1.3048464601 0.1730770481 -0.5041683482 0.0000000000 0.6338453554
-0.2307690962 0.7938010507 0.0485234089 -0.5366955183 0.0030313861 0.6022169934
0.4172314971 0.5432580024 -0.3894270409 -0.4925705732 -0.0106135053 0.6320694699
0.2659133060 0.6923080385 -0.3179711205 -0.4838437612 -0.0345195173 0.5961541827
0.4892729177 0.0000000000 -0.1901717489 -0.5000000000 -0.0384615577 0.5961541827
0.4225738459 0.4101660897 0.0256863590 -0.5022852704 -0.0170979316 0.5618922040
-0.0766727499 0.7096490856 -0.3307027038 -0.4880878017 0.0358693641 0.5891217561
-0.2016814278 0.7311161348 -0.3262300862 -0.5143054302 -0.0342142479 0.6022421088
0.0328906511 0.6923080385 -0.0353652485 -0.5003929617 -0.0384267115 0.5963506443
0.1643076398 0.6923080385 -0.0663205716 -0.4992621150 -0.0383960961 0.5965231060
-0.2216025146 1.1721798938 0.1016725508 -0.5369422877 0.0106778515 0.5961541827
-0.2212510914 1.0787612701 0.0576923750 -0.5026638475 0.0029321938 0.5591286642
-0.1428660907 0.8555118124 0.0686722651 -0.5103859283 -0.0101227358 0.6315003927
0.1551654045 0.6940674240 0.0192308173 -0.4959461903 -0.0248092432 0.6247967739
0.3865160586 0.7692311538 -0.2480422009 -0.4742063333 -0.0269807443 0.6043894945
0.1755296839 0.6888431137 -0.4807694327 -0.5000000000 0.0023327319 0.5580711637
0.3846158269 0.7579192636 -0.2751373299 -0.5175619703 0.0326236702 0.5944087203
-0.2307690962 0.5717810167 -0.0290818992 -0.5136555068 0.0034138863 0.5961541827
-0.0973764910 1.2347808482 0.1386266078 -0.5099909281 -0.0090641199 0.6319954314
-0.0899773719 0.8691641654 0.0961539327 -0.4936998815 0.0009239620 0.5595328182
0.2475609507 1.2557232432 0.1346154904 -0.5060460415 0.0030230015 0.5591352796
0.1024616474 0.7783581199 0.1052808988 -0.4980058067 -0.0185881631 0.6284915450
-0.0739662870 1.1528471149 0.1346154904 -0.5079141578 -0.0062819262 0.6332280474
-0.2509812216 0.7314896350 -0.3619819118 -0.5305064383 0.0207073950 0.5882178710
0.3337686092 0.8763644766 0.0618266848 -0.5183152015 0.0044946561 0.5636608203
0.3945246396 0.5000002115 0.0136005837 -0.5176880088 -0.0112373133 0.5961541827
-0.2307690962 0.7823900450 0.0338604400 -0.5352448638 0.0055215028 0.6071971498
0.0757118263 1.1371972609 0.1346154904 -0.4999081538 -0.0062816570 0.6336086245
-0.2882219326 0.0000000000 -0.1000335500 -0.5000000000 -0.0384615577 0.5961541827
0.2692310769 0.7764597728 0.0915873150 -0.4974900372 -0.0018643086 0.6336982784
0.4104219552 0.7692311538 -0.2842949114 -0.5040020020 0.0378121343 0.5961541827
-0.0220866841 1.2856704121 0.1620335810 -0.4882387249 0.0065628110 0.5606200880
-0.2692306538 0.7352377907 -0.0323421700 -0.5367473645 0.0072547344 0.5961541827
-0.0876030630 1.2502362405 0.1540818078 -0.5079990425 -0.0126377755 0.6311940464
-0.2307690962 0.5384381538 0.0013774238 -0.5376973265 -0.0041392328 0.5961541827
0.3785910931 1.0751788453 0.0739478447 -0.4818423755 -0.0069013111 0.6286859682
0.4054367604 0.6322756623 -0.0576922981 -0.5000000000 0.0096467356 0.6323384700
0.2146868189 0.9525765917 0.0961539327 -0.4937051122 -0.0062948878 0.6332258551
-0.2692306538 0.7487521436 -0.1196710983 -0.5330469781 0.0136134299 0.5952563361
-0.1211957721 0.7557975317 0.0384474808 -0.5173426241 -0.0253637819 0.6163051928
0.2626872660 0.7063545070 -0.0436458295 -0.4876685708 -0.0346669404 0.6060173799
0.3461542692 0.6891938446 -0.3113658480 -0.4631808662 0.0000000000 0.5891967561
-0.2771429270 0.0153384307 -0.5961541058 -0.5000000000 -0.0163505082 0.5644652438
-0.1331423935 1.1147671728 0.0961539327 -0.4941024586 0.0031242323 0.5589217410
-0.1300933150 0.6607362534 -0.0961538558 -0.5000000000 0.0000000000 0.5576926250
0.0114409096 1.2016389854 0.1585116177 -0.5013986545 -0.0103367359 0.6326940471
-0.1937401546 0.7322022507 -0.2440493143 -0.5271964367 -0.0271964367 0.5961541827
0.0937731046 1.0855776966 0.1346155288 -0.5002136924 -0.0006410772 0.6345626634
-0.1472491313 1.2461234308 0.1346154904 -0.4818897986 0.0063211955 0.5638214742
0.3553740431 0.7307695962 -0.2036124480 -0.4946886512 -0.0367514799 0.5961541827
-0.2173657048 0.8476276161 0.0576923365 -0.5000000000 0.0000000000 0.6346157404
0.3932880236 1.1141056340 0.0576923750 -0.4742922564 0.0057278875 0.5714639011
-0.0955760286 0.8270907597 0.0961539327 -0.5126317755 -0.0097266587 0.6304704691
-0.1923075385 0.6176725781 -0.3417221709 -0.4626185198 -0.0087734659 0.5961541827
0.1007352234 0.9561475935 0.0961539327 -0.5018456163 -0.0005263849 0.5588407410
-0.0503033136 0.8948298320 0.1125594794 -0.5128550064 0.0048256178 0.6317429697
-0.2692306538 0.2035812172 -0.5300208804 -0.5384615577 0.0000000000 0.5961541827
-0.1538459808 0.7251622857 -0.4393325658 -0.5146506227 -0.0310517848 0.6120903830
0.1884213827 0.7766796576 0.0961539327 -0.4993929997 -0.0012140006 0.6343710480
-0.3039580174 0.0000000000 -0.4765497767 -0.5000000000 -0.0384615577 0.5961541827
-0.1153844231 0.7938579739 0.0836503880 -0.5142182379 0.0128869295 0.6103724206
0.4321302353 0.3039735751 -0.4948295936 -0.5000000000 0.0121626215 0.5596663568
0.3203441025 0.7307695962 -0.1654411212 -0.5000000000 0.0384615577 0.5961541827
-0.2959940903 0.0203792794 0.1730770481 -0.5000000000 0.0000000000 0.6346157404
0.3480141548 1.1084139388 0.0734375367 -0.5089349275 0.0079815809 0.5608212804
-0.2479276432 0.3217061993 -0.4889186675 -0.5000000000 0.0145176226 0.5605617034
0.2326358663 0.8756125532 0.0961539327 -0.5020044625 0.0010022313 0.5579668559
0.3213416414 0.7826554298 0.0574677595 -0.4868196088 -0.0197057406 0.6262207746
-0.2151243191 0.7696833464 -0.0187785479 -0.5000000000 0.0271964367 0.5689577460
-0.0744212487 0.6923080385 -0.3844170384 -0.5152006230 -0.0348590559 0.5980758375
-0.2684805765 0.7307695962 -0.2347015404 -0.5203125486 -0.0317154005 0.5961541827
-0.1359682026 0.8560099665 0.0755701532 -0.5114903519 -0.0101890051 0.6309402001
0.3289103760 0.7307695962 -0.2631891701 -0.5028253476 0.0381697499 0.5947414897
-0.2215192454 0.6538464808 -0.1041860136 -0.5000000000 -0.0384615577 0.5961541827
0.0962009519 1.2008132927 0.1431204562 -0.5016052316 0.0155202001 0.5613158576
-0.1480880164 0.7307695962 -0.3019460356 -0.4978706912 0.0380268267 0.5956218747
0.2324931739 0.7893893562 0.0961539327 -0.4951268437 0.0000000000 0.6340158170
0.4415640862 0.2528162418 -0.5045330984 -0.5000000000 -0.0179904321 0.6300968535
0.1964001174 0.7995527459 0.0961539327 -0.5040636943 0.0040636943 0.5592223565
0.0210849913 0.9712980241 0.1259270630 -0.5102705051 -0.0018215394 0.6330496242
-0.1774344926 0.8518488875 0.0576923750 -0.5000000000 0.0000000000 0.5576926250
-0.0484759665 0.6923080385 -0.4091753969 -0.4965074598 0.0377603266 0.5949899898
0.2856070851 0.6644894861 -0.4725814671 -0.4811832598 -0.0249683202 0.5755511724
0.3461542692 0.9087379159 0.0802611940 -0.4708512931 0.0063364262 0.6195757329
0.2614294192 0.6923080385 -0.2730434442 -0.4866051471 -0.0353741331 0.5961541827
-0.2692306538 0.1803196671 -0.5527960072 -0.5384615577 0.0000000000 0.5961541827
0.2968373984 0.7710581932 0.0685476881 -0.4989451533 -0.0355797101 0.5972090294
-0.2012073121 0.6538464038 -0.0755735378 -0.5000000000 0.0384615577 0.5961541827
0.1824355335 0.6923080385 -0.0068328111 -0.4959773441 -0.0367701722 0.6014062622
-0.1679981417 0.6538465577 -0.3263537016 -0.4930605735 -0.0122967369 0.6045548407
0.0982175299 0.6923080385 -0.4687772729 -0.5000000000 -0.0338272861 0.6073422652
0.1055312643 0.6923080385 -0.1063402839 -0.5000000000 -0.0384615577 0.5961541827
0.4739493331 0.0000000000 0.0872785436 -0.5000000000 -0.0384615577 0.5961541827
-0.1098809972 0.7252661703 -0.0862918124 -0.4864119163 0.0352348253 0.5928949888
0.2299241342 0.6538464038 -0.4633753471 -0.5000000000 -0.0210675105 0.5961541827
0.4687103690 0.0000000000 -0.4595182682 -0.5000000000 0.0384615577 0.5961541827
0.4230773846 0.4020520472 0.0410320974 -0.4619997887 -0.0034810787 0.5961541827
0.3895762525 0.7692311538 -0.2986133032 -0.5144297380 0.0349782098 0.5961541827
0.2416872555 0.7169976662 -0.1944913665 -0.5130950065 0.0352150945 0.5996500306
-0.1165124621 0.9478943586 0.0961539327 -0.5007976542 0.0000000000 0.6342853556
-0.1810849944 0.8417376516 0.0576923750 -0.5000000000 0.0019751548 0.5581588945
-0.0095999471 0.6923080385 -0.2318544621 -0.5000000000 -0.0384615577 0.5961541827
0.3676260492 0.7522413761 -0.2253960742 -0.5273845906 0.0260445515 0.6014404930
0.1607783689 0.6923080385 -0.0810645790 -0.4995110767 -0.0384181731 0.5963986444
0.4288774260 0.3274050483 -0.4870191666 -0.5000000000 0.0121626215 0.5596663568
-0.2307690962 1.0749741529 0.0918051997 -0.5384615577 0.0000000000 0.5961541827
0.1513095564 0.6923080385 -0.2710555201 -0.5000000000 0.0384615577 0.5961541827
0.0494204670 0.6923080385 -0.1619801579 -0.5000000000 0.0384615577 0.5961541827
-0.1572331363 0.7307695962 -0.4150179383 -0.5092485046 -0.0359473641 0.6007149927
-0.0001880578 1.3076929615 0.1912684033 -0.5000000000 0.0384615577 0.5961541827
0.2383351769 0.7307695962 0.0101015051 -0.5044723099 0.0372904033 0.5925417193
-0.2692306538 0.7297179033 0.0160878542 -0.5165913160 -0.0302161690 0.6112435749
-0.1377562420 0.7307695962 -0.0758958072 -0.5063380801 -0.0371606340 0.5961541827
0.3189957941 0.6556816355 -0.3269232019 -0.5050549256 0.0000000000 0.6334224321
-0.2336045591 0.6993830420 -0.0435422525 -0.4848798386 -0.0320442468 0.6076925346
0.1813476868 1.0217475109 0.0987569725 -0.5100030435 0.0115761981 0.5609839728
-0.1923075385 0.6822549181 -0.1200891754 -0.5384615577 0.0000000000 0.5961541827
0.2938302431 0.8702993967 0.0961539327 -0.4948676128 -0.0067465803 0.6336215091
0.2999867846 0.7307695962 -0.0331420550 -0.5059371184 0.0365791721 0.5860814084
0.4174016125 0.4679641186 -0.4118554367 -0.5000000000 -0.0115723904 0.6328138933
-0.1538459808 1.2201071870 0.1178639820 -0.4745552950 0.0073053113 0.5713654011
0.2178103974 0.8524889262 0.0961539712 -0.5000000000 0.0000000000 0.5576926250
-0.2307690962 0.7666391526 -0.0602967225 -0.4615384423 0.0000000000 0.5961541827
0.0329496126 0.6923080385 -0.2216082262 -0.4992428458 0.0383555192 0.5961541827
0.0409008089 0.6923080385 -0.0458064460 -0.5000000000 -0.0384615577 0.5961541827
0.0622158196 0.6923081154 -0.0941922779 -0.4998525384 0.0384391346 0.5960067211
0.4826282221 0.0000000000 0.1138541339 -0.5000000000 -0.0384615577 0.5961541827
0.2464187963 0.6923080385 -0.3526121378 -0.4926454963 -0.0366216722 0.5961541827
0.1718532590 0.6923080385 -0.2451929688 -0.5000000000 -0.0384615577 0.5961541827
0.3846158269 0.6544640195 -0.1619590425 -0.4615384423 0.0000000000 0.5961541827
-0.1296292379 0.7039942366 -0.4306216768 -0.5097631972 -0.0314855157 0.6143488072
-0.2307690962 0.7378970613 -0.2218236878 -0.4707159854 -0.0221565495 0.5961541827
0.4223068842 0.5523305839 -0.3864028855 -0.4948136897 -0.0113785057 0.6321476238
0.4200333831 0.3863432316 0.0476450623 -0.5000000000 0.0108493131 0.6329549703
0.2514705680 1.1396189929 0.1068006688 -0.5147337381 0.0112412749 0.5626394352
0.3250341817 0.9619514425 0.0576923750 -0.5167884315 0.0042522329 0.5664685140
-0.1790238395 0.7307695962 -0.3096784241 -0.4862502624 0.0332565936 0.5961541827
0.4560014011 0.1869997089 -0.5338208054 -0.5000000000 -0.0152894692 0.6313468157
0.1955001939 0.6826944183 -0.0961538558 -0.5000000000 0.0000000000 0.5576926250
0.3778718236 0.8009486312 0.0234163963 -0.5197164714 0.0302723228 0.5842031767
0.1338145477 0.6923080385 -0.4248763278 -0.5000000000 -0.0384615577 0.5961541827
0.1993840035 1.0186803555 0.0961539327 -0.5069505804 0.0069505804 0.5597758953
0.2599353030 0.7885389712 0.0768460384 -0.5086347351 -0.0135436991 0.5653410134
-0.2258101706 1.0757249994 0.0701133812 -0.4962160750 -0.0104685822 0.6320276622
-0.1573400979 0.7307695962 -0.3602569878 -0.5032686555 -0.0381379037 0.5961541827
0.1772949925 0.6923080385 -0.3904239260 -0.5017776163 0.0382918653 0.5952653746
0.3768596692 0.7974824372 0.0090205430 -0.5195789713 0.0282269372 0.5819306756
-0.0877805247 0.9814959907 0.0961539327 -0.5051800411 -0.0031261939 0.6338934708
-0.0103515244 1.1318982583 0.1346154904 -0.4956200747 0.0058391568 0.5588955487
0.3324635316 0.7307695962 -0.1209053681 -0.5042762714 0.0375996342 0.5982923376
-0.2307690962 1.1262129862 0.0760841534 -0.5342836710 0.0080079271 0.5887659098
-0.0966130291 0.7811927368 0.0961539327 -0.5069060419 -0.0164412775 0.5926477194
-0.1639325243 0.8604028917 0.0719409975 -0.5149886998 -0.0073685806 0.6303908921
-0.0128162564 1.3076929615 0.1902910951 -0.5000000000 0.0384615577 0.5961541827
0.3849997117 0.7692311538 -0.2029083707 -0.4732377943 -0.0271461290 0.5941742971
-0.2663187293 0.3578016404 -0.4644724630 -0.5365629798 0.0117208520 0.5961541827
-0.2307690962 0.3689590306 0.0550555660 -0.5262036669 0.0000000000 0.5961541827
-0.2307690962 0.6469099773 -0.3281129333 -0.5384615577 0.0000000000 0.5961541827
-0.2002072732 0.9594875951 0.0576923365 -0.5000000000 0.0000000000 0.5576926250
-0.0639459743 0.6923080385 -0.3228572384 -0.5115593135 -0.0356855178 0.5961541827
-0.1876987285 0.7307695962 -0.2547598197 -0.5000000000 -0.0384615577 0.5961541827
-0.2609780343 0.7559623011 -0.0490048322 -0.5243325506 0.0275657830 0.5916067958
-0.0029779438 0.9859260314 0.0961539327 -0.4958129594 0.0058704260 0.5588265871
-0.0464608117 0.6923080385 -0.2151814153 -0.5032488862 -0.0377720958 0.5961541827
0.3846158269 0.6546315196 -0.3049976140 -0.4615384423 0.0000000000 0.5961541827
0.1703833352 0.6923080385 -0.3135518875 -0.5023731935 0.0381037883 0.5957586440
-0.2307690962 0.6608509458 -0.1053467834 -0.5380940190 -0.0012139237 0.5961541827
0.3076927115 0.9445905108 0.0835248495 -0.5268193980 0.0024767705 0.5693475539
0.1967669638 0.6923079615 -0.4025990475 -0.5001891155 0.0384435192 0.5960596442
0.4246178469 0.2650155556 0.1117846713 -0.5000000000 -0.0184275477 0.5624651658
-0.1809833790 1.0316149004 0.0791616550 -0.5144033149 -0.0131281219 0.6286543143
-0.2299899419 0.7747183104 -0.0137435838 -0.5138396992 -0.0182396245 0.6255611205
0.4111329556 0.4675341953 0.0273473214 -0.5000000000 0.0139220454 0.6319198544
-0.1995586575 0.6923080385 -0.1782373199 -0.5000000000 0.0384615577 0.5961541827
0.4230773077 1.0257796667 0.0890947753 -0.4677170992 0.0039778097 0.6138436146
0.4666692141 0.0000000000 -0.1440053797 -0.5000000000 0.0384615577 0.5961541827
0.1217073493 0.6942846548 0.0576923750 -0.4935441122 -0.0189800480 0.6141619994
-0.0116787558 0.6574141749 -0.0961538558 -0.5000000000 0.0000000000 0.5576926250
0.4033032209 0.5000002500 0.0130220834 -0.5007816542 -0.0113062749 0.5961541827
0.2533149920 0.7148534343 -0.0000929231 -0.4862196470 -0.0330595165 0.6095809586
-0.2397186776 0.3193052366 -0.4839205112 -0.4618985579 0.0018822702 0.5961541827
0.4230773846 0.7652469980 -0.1971275601 -0.4615384423 0.0000000000 0.5961541827
0.1190530403 0.7220388610 0.0489616014 -0.5029496553 0.0306787076 0.5765628652
0.2650542671 0.6923080385 -0.2491063553 -0.4854756850 -0.0352234792 0.5961541827
0.0055934451 1.2521116261 0.1730770481 -0.5052090795 -0.0069072727 0.6334152782
0.3198297561 1.0459860230 0.0915408535 -0.5229288576 0.0092499662 0.5670945143
0.3846158269 1.2051950641 0.1196239444 -0.4616669808 0.0018084240 0.5961541827
-0.2665483448 0.3385936308 -0.4832895493 -0.5000000000 0.0149549690 0.5607280111
0.4421805096 0.2888446060 -0.4873936668 -0.4627133275 0.0087786198 0.5961541827
-0.2307690962 0.7948744359 0.0588083756 -0.4615384423 0.0000000000 0.5961541827
-0.1937790392 0.6199326946 -0.3269232788 -0.5000000000 0.0000000000 0.6346157404
-0.0094945240 0.7177652820 0.0192308173 -0.5020709241 -0.0209050105 0.6271483136
0.3846158269 0.6570010208 -0.1382433384 -0.4615384423 0.0000000000 0.5961541827
-0.0476774661 1.0253472819 0.0961539327 -0.4962605751 0.0059527337 0.5586108562
0.0101691397 1.1266989095 0.1346154904 -0.4973031910 0.0039336558 0.5583320099
-0.0034219825 1.2072086421 0.1612964653 -0.5058380029 -0.0079307732 0.6331667781
0.3564810436 1.0969841639 0.0677226492 -0.5063953494 0.0086504274 0.5608170112
-0.1383534346 0.9712103702 0.0828563876 -0.4771425655 0.0069241188 0.5681232071
-0.3044395561 0.0687726882 -0.5961540288 -0.5000000000 0.0000000000 0.6346157404
-0.0896030640 0.7255089012 -0.1551360006 -0.4822586450 0.0325529394 0.6050248410
0.1079786117 0.6923080385 -0.4797906630 -0.5000000000 0.0384615577 0.5961541827
0.1095647279 0.6923080385 -0.2191746865 -0.5000000000 -0.0384615577 0.5961541827
0.3452806919 0.9021932203 0.0576923750 -0.5098536588 -0.0001713462 0.5600857031
0.2299995958 0.9827883760 0.0961539327 -0.5007051927 0.0007051927 0.5577395481
-0.1923075385 0.6694054501 -0.2389339272 -0.5384615577 0.0000000000 0.5961541827
-0.1234031194 0.7307695962 -0.2540642809 -0.5139672378 -0.0350615560 0.5961541827
0.3972204101 0.5000002500 -0.0161568927 -0.5113758134 -0.0123778523 0.5961541827
0.0209448374 0.9191474980 0.1297868726 -0.5094157739 0.0077040039 0.6324400470
0.4230773846 0.7932564351 0.0112601595 -0.4615384423 0.0000000000 0.5961541827
-0.2223511689 0.7772793502 -0.0111825441 -0.5000000000 0.0271964367 0.5689577460
-0.0017076739 0.6923080385 -0.1126535948 -0.4977954220 0.0382180960 0.5939496047
0.2813042368 0.8244115276 0.0623381850 -0.5137500838 0.0077769270 0.5626621275
0.1121978830 0.6923080385 -0.1956288670 -0.5000000000 0.0384615577 0.5961541827
0.4134991106 0.9355760832 0.0576923750 -0.5000000000 0.0000000000 0.6346157404
0.1261874285 0.6923080385 -0.4337756400 -0.5000000000 0.0384615577 0.5961541827
0.4662191370 0.0000000000 0.0586134524 -0.5000000000 -0.0384615577 0.5961541827
0.0248769163 1.2800595631 0.1730770481 -0.4954993824 0.0045006176 0.5592759335
-0.0172371432 0.9103473783 0.1194960213 -0.5121494676 0.0066553495 0.6315716235
-0.2692306538 0.7250027087 -0.0108085439 -0.5279079755 -0.0119250829 0.6032698401
-0.2222940919 0.7998629769 0.0114010826 -0.4998275384 0.0272575136 0.5690691307
0.2356080217 0.6923080385 -0.4276992523 -0.4978361912 -0.0379507497 0.5961541827
0.3738127446 0.7307695962 -0.2999959192 -0.5000000000 -0.0384615577 0.5961541827
0.2392889081 0.6941112317 -0.3617783347 -0.5071811959 0.0374330187 0.5922172192
0.0157374117 0.6923080385 -0.4350941406 -0.5000000000 -0.0384615577 0.5961541827
0.1571510209 1.0917962382 0.1346154904 -0.5021716934 0.0023433473 0.5578451635
0.2474860661 0.7985541685 0.0961539327 -0.4933086890 0.0000000000 0.6337920092
-0.2307690962 0.7364251759 -0.3178745820 -0.4615384423 0.0000000000 0.5961541827
-0.1218296955 1.1052940526 0.0961539327 -0.4956531517 0.0033402709 0.5588373179
0.3902810221 0.5707798239 -0.0520270260 -0.5224756651 -0.0046234254 0.6064301878
-0.2593162258 0.3025068820 0.0722414207 -0.5000000000 -0.0140204301 0.5603726648
-0.0469611196 1.0772562309 0.1113010941 -0.4882144941 0.0096080817 0.5611467806
0.0450593110 0.9265534633 0.1346154904 -0.5067551572 0.0067551572 0.6331499320
-0.0596610875 0.6538464038 -0.4426062213 -0.5000000000 -0.0152888538 0.6111446902
-0.2362415220 0.7307695962 -0.2360545796 -0.4791204896 -0.0282215141 0.5961541827
-0.0337110361 0.9518174759 0.0961539327 -0.4987351532 -0.0025296936 0.5581575098
-0.2307690962 0.4636495395 0.0136265453 -0.4619163271 -0.0040268866 0.5977657220
0.2448869109 0.8072680190 0.0961539327 -0.4936238814 0.0000000000 0.6338308169
0.1068684957 1.2819573717 0.1730770481 -0.5000000000 0.0000000000 0.6346157404
-0.2692306538 0.7249647086 -0.1157831348 -0.5367770569 -0.0002986540 0.5929699119
-0.0232853770 0.9145688419 0.1122504407 -0.5129884296 0.0081255041 0.6310155847
0.3597372376 0.7307695962 -0.0770734616 -0.5016575008 0.0372397109 0.5902013336
-0.0354456139 0.6538464038 -0.4445956838 -0.5000000000 -0.0022878088 0.5961541827
0.4248130778 0.2959121095 0.0911869687 -0.5000000000 -0.0195345098 0.5631075892
-0.2692502308 0.0000000000 0.1707109700 -0.5000000000 -0.0384615577 0.5961541827
-0.0196801445 0.7213789761 -0.0036632711 -0.4888099175 0.0350262098 0.5849641002
-0.3024271704 0.0000000000 -0.1964549828 -0.5000000000 -0.0384615577 0.5961541827
-0.2529712226 0.7484321050 0.0192308558 -0.5246614354 0.0043263868 0.6218536186
-0.2307690962 0.7353011753 -0.0485834474 -0.5142933533 -0.0311189771 0.5987968379
-0.2244709776 0.6538464808 -0.2563094358 -0.5000000000 -0.0384615577 0.5961541827
-0.1862484970 0.9461536654 0.0576923750 -0.5042843868 0.0000000000 0.6328410857
0.3999173346 0.7692311538 -0.2705420968 -0.5073238498 0.0372730571 0.5961541827
0.1957051940 0.8590449295 0.0961539327 -0.5024137320 0.0012068852 0.5580228559
-0.0492821593 1.1979676759 0.1346154904 -0.4973214987 0.0017856547 0.5582552407
0.3351585330 1.0368012876 0.0686880728 -0.5278385524 0.0082070426 0.5715330165
-0.2307690962 0.7508123369 -0.1401371085 -0.4615384423 0.0000000000 0.5961541827
-0.2083037772 0.5449308879 -0.0285460143 -0.4645925592 -0.0068136573 0.6074022268
0.4060057222 0.7307696731 -0.1310424886 -0.5120984291 0.0303779767 0.6058368414
0.0037705980 0.9451771649 0.0961539327 -0.4960390749 -0.0054550027 0.5595748182
-0.2692306538 0.7044754676 -0.0759252303 -0.5323019008 -0.0164878159 0.5980035298
-0.1923075385 0.7362668681 -0.2922401846 -0.4784921431 0.0302535536 0.5946849897
-0.2692306538 0.1198617522 -0.5640646282 -0.4615587500 -0.0002453463 0.5961541827
0.2011974660 0.6923080385 -0.1097520933 -0.5031186554 0.0375403265 0.5903752952
0.1800829554 0.9346170827 0.1083790157 -0.4864887240 0.0077188500 0.6308498539
-0.0352504215 0.6923080385 -0.4210329413 -0.5000000000 0.0384615577 0.5961541827
0.2790861972 0.8371404186 0.0772850002 -0.5164887775 0.0140124685 0.5657169752
0.3487057320 1.2692314038 0.1102029013 -0.4876731477 -0.0198664715 0.6234679271
-0.2307690962 0.9089789930 0.0578556059 -0.5384615577 0.0000000000 0.5961541827
0.3933306390 0.7394844082 -0.3324916278 -0.4799301823 -0.0320185545 0.6028009168
0.0518678913 0.8840472882 0.1340469132 -0.4920851499 0.0044108099 0.5596914337
-0.2362895989 0.7637106126 -0.2714240203 -0.5182107783 0.0319836698 0.5891082176
0.2805217749 0.8273662214 0.0961539327 -0.4930881889 -0.0069118111 0.6330344319
0.3698312426 0.7307695962 -0.3376282842 -0.5162078927 0.0311544002 0.5912564110
0.0806776750 1.2302447305 0.1725519324 -0.5003413079 0.0126218909 0.5599219338
0.3361529950 0.9318982352 0.0961539327 -0.4771810655 0.0076063115 0.6213681568
0.4142823033 0.7307695962 -0.4327819856 -0.4767214499 -0.0260489746 0.5961541827
0.4180956898 0.4074456268 0.0423694443 -0.5000000000 0.0116479289 0.6326859317
0.2657714983 0.6714868357 -0.0961537788 -0.5000000000 0.0000000000 0.5576926250
-0.2934749737 0.0000000000 -0.3825105759 -0.5000000000 0.0384615577 0.5961541827
-0.2978479758 0.0644873784 0.1730770481 -0.5000000000 0.0000000000 0.6346157404
0.3679916648 0.7513623757 -0.2102938359 -0.5265250517 0.0266078210 0.6028775322
-0.1422327057 0.7307695962 -0.1134959029 -0.5045746946 -0.0375225572 0.5961541827
-0.0186476055 0.6923080385 -0.4680033109 -0.4963778443 -0.0335394398 0.6070206112
-0.1130477681 1.1963071366 0.1197208676 -0.4903488413 0.0094313509 0.5602297032
0.2662228062 1.1846979770 0.1346154904 -0.4901629182 -0.0067844649 0.6326430471
-0.0686987074 0.7225454767 -0.0407110204 -0.4911557263 0.0361921719 0.5873099090
-0.0004574041 0.6923080385 -0.3170495816 -0.4938463431 0.0374629418 0.5961541827
0.0277836870 0.6923079615 -0.3583605638 -0.5000000000 -0.0384615577 0.5961541827
0.1008632620 0.9559354395 0.1346154904 -0.4970425370 0.0006042311 0.6342054709
-0.0670515143 0.9385423923 0.0961539327 -0.5033601171 -0.0020739626 0.6340861247
-0.1097934203 1.1362139527 0.0961539327 -0.4888162636 0.0102855821 0.5611738575
-0.2692306538 0.7311773271 -0.0291236299 -0.5377952497 0.0058111568 0.5961541827
0.2191420903 0.8645152399 0.0961539327 -0.5010662313 0.0005331157 0.5578385097
-0.1263120055 0.7307695962 -0.1587743486 -0.4989458072 0.0382490576 0.5966812983
-0.0547301620 0.6551599814 -0.4645005399 -0.4930718042 -0.0010638851 0.6269263519
-0.2162228966 0.7666364987 -0.1491616130 -0.4876863015 0.0229968192 0.6200158869
0.2171275893 0.6923080385 -0.1449050340 -0.5000000000 -0.0384615577 0.5961541827
0.3537810423 0.9016578354 0.0576924135 -0.4802203747 0.0033422324 0.6269027750
0.2154497808 0.6923080385 -0.1764315498 -0.5000000000 -0.0384615577 0.5961541827
0.3710102432 0.7307695962 -0.2175618011 -0.4845536846 -0.0320634776 0.5961541827
-0.2114801250 0.5385781539 -0.0263310516 -0.4642333667 -0.0066952341 0.6059104568
-0.0323937662 1.2414155053 0.1568800015 -0.5070840420 -0.0082319657 0.6330030088
-0.1258951976 1.1141553648 0.0961539327 -0.4942731894 0.0040853097 0.5591281257
-0.1406719357 1.3076929615 0.1682856226 -0.5137895454 0.0289196298 0.6099437280
-0.2307690962 1.0400269816 0.0743396526 -0.4617955578 -0.0000881924 0.5965950675
-0.1121447291 0.7857989698 0.0961539327 -0.5095654663 -0.0117841597 0.6039225712
0.1642137936 0.9526988225 0.0961539327 -0.5041019636 0.0018262317 0.5600793570
0.2963852059 0.8510543871 0.0739000370 -0.5190780480 0.0165190467 0.5675462838
-0.0680244379 0.8233397194 0.0961539327 -0.5075250422 -0.0084428504 0.6328615472
0.2963846290 0.7546405312 0.0398192122 -0.5143183918 0.0265573979 0.5741894409
-0.0864129086 0.8122413677 0.0912125841 -0.5099458511 -0.0081296579 0.6320346622
0.1480441702 1.0559763741 0.1346154904 -0.4968239984 -0.0015880008 0.6343125864
0.1344328941 0.9715492165 0.1346154904 -0.4921004576 0.0000000000 0.6335093552
0.0215418762 0.8768295923 0.1183692515 -0.4888337252 0.0041411559 0.5599651261
0.1290298145 0.7726842710 0.0961539327 -0.5000000000 0.0010919621 0.5578698174
-0.1756472609 0.7307695962 -0.0845546577 -0.4963320366 0.0378663266 0.5961541827
-0.2244453622 1.1401111854 0.0576923750 -0.5187517017 0.0087408890 0.5666229756
-0.2412656014 0.3225067382 -0.4886518597 -0.5000000000 0.0145383534 0.5605695880
0.1825218028 1.2405143510 0.1541462309 -0.5136840068 0.0158505848 0.5643378976
0.3614281230 0.7460434499 -0.2648897478 -0.5258427822 0.0276068215 0.5959123749
0.4230773846 0.5087835236 -0.0186297016 -0.4619959041 -0.0054956181 0.5961541827
0.3627146237 0.7307695962 -0.1220847149 -0.5000000000 0.0384615577 0.5961541827
-0.2256587474 0.7307695962 -0.0692224577 -0.5066906187 -0.0376379034 0.5961541827
0.2961121673 1.1071797459 0.1112820172 -0.4892584946 -0.0067782342 0.6324334316
0.0182790284 0.9371695455 0.1245241007 -0.5110918902 0.0059674261 0.6320658160
-0.2000583500 0.7307695962 -0.1015453585 -0.4997219614 0.0383940961 0.5958761441
-0.0916761420 1.2053418719 0.1346154904 -0.5098033511 -0.0076074269 0.6324991239
-0.2219292840 0.6923080385 -0.2315834619 -0.5000000000 0.0384615577 0.5961541827
-0.2928730118 0.0000000000 0.0216425877 -0.5000000000 -0.0384615577 0.5961541827
0.2471706044 1.0781404237 0.0961539327 -0.5116496597 0.0047869639 0.5615314346
-0.1773038771 0.6538464808 -0.3224167766 -0.5037477711 -0.0137621223 0.5927100656
-0.2112021248 0.6538464808 -0.1698437772 -0.5113775442 -0.0343915172 0.5961541827
0.2216565147 0.6923080385 -0.1397395699 -0.5067874649 0.0363792105 0.6015163392
-0.1399258584 0.7307695962 -0.2621103618 -0.5062252723 -0.0369919800 0.5961541827
-0.1017154547 1.1923680577 0.1346154904 -0.5107262746 -0.0071508882 0.6323313546
0.4120889176 0.7460670653 -0.1620884272 -0.5050991564 -0.0237219734 0.5675180145
0.3656902790 0.7757059263 -0.0127559679 -0.5143875841 0.0219592033 0.5718147090
0.2614641884 0.9134277259 0.0961539327 -0.4964454982 0.0031773093 0.6336831245
-0.0822233296 1.2763072151 0.1346154519 -0.4903634183 0.0041630405 0.5605563187
-0.1436719757 1.0351445945 0.0961539327 -0.4843089152 0.0000000000 0.5624435120
0.1296864687 0.9592605950 0.0961539327 -0.5034591940 0.0064756571 0.5594335489
-0.1316105466 0.8667854719 0.0799278092 -0.5085620043 -0.0083017734 0.6323550854
0.3076927115 0.9903703798 0.0897884680 -0.5294216301 0.0069026573 0.5727297864
0.2057589683 0.7057795067 -0.0442207529 -0.5097452356 0.0355844409 0.5855993313
-0.1126988063 0.7307695962 -0.2841065651 -0.4936561891 0.0377239419 0.5929822580
-0.2901622412 0.0242972045 0.1730770481 -0.5000000000 0.0000000000 0.6346157404
-0.0362127681 1.1427063406 0.1346154904 -0.5038265404 -0.0075711192 0.6334342783
0.4162195735 0.7692311538 -0.1490993053 -0.5047198870 0.0293007070 0.6146822689
0.4041094521 0.7307695962 -0.4052184334 -0.4954053054 -0.0373467110 0.6007488773
0.3767523230 1.0370385954 0.0576923750 -0.5018141163 0.0044876561 0.5592705104
0.1084663042 0.9779208736 0.1043449368 -0.5019791933 0.0079900040 0.5592060873
-0.0269560327 0.9279686178 0.0961539327 -0.4958555364 -0.0082889657 0.5591143565
0.3446476146 0.7307695962 -0.2216551878 -0.4993261920 -0.0383024807 0.5961541827
-0.0548279313 0.6560450588 -0.0961538558 -0.5000000000 0.0000000000 0.5576926250
-0.2307690962 0.4218352494 -0.4295079455 -0.4615999423 0.0008655389 0.5961541827
0.3972752179 0.5250411471 0.0025368474 -0.5000000000 0.0164927775 0.6307789692
0.3115389442 0.9692933308 0.0616004539 -0.5292103992 0.0078165808 0.5727044787
-0.1010042236 1.0997861268 0.1105341707 -0.5105037745 -0.0074080806 0.6323448162
0.4230773846 0.4337890246 0.0251869357 -0.4620801733 -0.0046062715 0.5961541827
0.4950211514 0.0000000000 -0.4233510194 -0.5000000000 -0.0384615577 0.5961541827
-0.1951407322 1.2251034202 0.1051228603 -0.5370963262 0.0100804281 0.5961541827
0.3976179488 1.0661627254 0.0576923750 -0.4856029543 0.0037585019 0.5642572437
-0.2692306538 0.7393899466 -0.2974547257 -0.5252213588 0.0183185861 0.5890201407
0.3330868781 0.7307695962 -0.4040376251 -0.5051326180 0.0374106341 0.5961541827
