-0.4289348579 0.4746369493 0.5000010000 -0.5000000000 0.0000000000 1.0457030914
-0.3278296557 0.8405336811 -0.5000010000 -0.5000000000 0.0000000000 -0.5000010000
-0.4425498851 0.1741033482 -0.5000010000 -0.5000000000 0.0000000000 -0.5000010000
0.0066020132 0.1854553709 -0.5000010000 -0.5000000000 0.0000000000 1.5000030000
-0.4995619991 0.3601157202 0.5000010000 -0.5000000000 0.0000000000 0.8605547211
0.0119870240 1.0000020000 0.3867917736 -0.5000000000 1.0000020000 0.5000010000
-0.2573225146 0.8927447855 0.5000010000 -0.5000000000 0.0000000000 1.5000030000
0.0441770884 1.0000020000 0.0179310359 -0.5000000000 1.0000020000 0.5000010000
0.0209500419 0.0932501865 -0.5000010000 -0.5000000000 0.0000000000 -0.5000010000
-0.2185904372 1.0000020000 0.2502985006 -0.5000000000 1.0000020000 0.5000010000
-0.2564035128 0.3845857692 -0.5000010000 -0.5000000000 0.0000000000 -0.5000010000
-0.3587477175 0.7240954482 0.5000010000 -0.5000000000 0.0000000000 -0.3653467307
0.4476348953 1.0000020000 -0.4022408045 -0.5000000000 -1.0000020000 0.5000010000
0.0117330235 1.0000020000 0.0680571361 -0.5000000000 -1.0000020000 0.5000010000
0.3500397001 1.0000020000 0.0738311477 -0.5000000000 -1.0000020000 0.5000010000
-0.4127148254 0.3051336103 0.5000010000 -0.5000000000 0.0000000000 0.1075822152
-0.3396446793 0.1028772058 -0.5000010000 -0.5000000000 0.0000000000 -0.5000010000
0.4972319945 0.9357108714 -0.5000010000 -0.5000000000 0.0000000000 1.5000030000
0.4956049912 0.5339100678 -0.5000010000 -0.5000000000 0.0000000000 1.5000030000
-0.2397584795 0.2891985784 0.5000010000 -0.5000000000 0.0000000000 1.0494410989
0.1359582719 1.0000020000 -0.3898417797 -0.5000000000 -1.0000020000 0.5000010000
0.0160130320 0.9796099592 -0.5000010000 -0.5000000000 0.0000000000 1.5000030000
0.2531085062 0.8496836994 -0.5000010000 -0.5000000000 0.0000000000 -0.5000010000
0.2477784956 1.0000020000 -0.4393918788 -0.5000000000 -1.0000020000 0.5000010000
0.2349394699 0.8416686833 -0.5000010000 -0.5000000000 0.0000000000 1.5000030000
0.4960479921 0.1180892362 -0.5000010000 -0.5000000000 0.0000000000 -0.5000010000
0.4660669321 1.0000020000 0.2206114412 -0.5000000000 -1.0000020000 0.5000010000
-0.2611235222 0.0002120004 -0.5000010000 -0.5000000000 0.0000000000 1.5000030000
-0.4552119104 0.9882989766 0.5000010000 -0.5000000000 0.0000000000 -0.5000010000
-0.0582441165 0.0429130858 -0.5000010000 -0.5000000000 0.0000000000 -0.5000010000
0.2922445845 0.4025928052 0.5000010000 -0.5000000000 0.0000000000 -0.5000010000
-0.2069764140 0.3099376199 0.5000010000 -0.5000000000 0.0000000000 1.1029622059
-0.3751997504 0.5607811216 0.5000010000 -0.5000000000 0.0000000000 -0.1855803712
0.2485334971 0.8191296383 0.5000010000 -0.5000000000 0.0000000000 -0.5000010000
0.1712863426 0.8900467801 0.5000010000 -0.5000000000 0.0000000000 1.5000030000
-0.0030580061 0.5329190658 0.5000010000 -0.5000000000 0.0000000000 1.5000030000
-0.1574033148 0.0251160502 0.5000010000 -0.5000000000 0.0000000000 0.8677127354
-0.0739011478 0.1363952728 -0.5000010000 -0.5000000000 0.0000000000 -0.5000010000
-0.2148654297 0.4585259171 0.5000010000 -0.5000000000 0.0000000000 1.2436614873
0.2934455869 0.7512305025 0.5000010000 -0.5000000000 0.0000000000 -0.5000010000
0.1575313151 1.0000020000 -0.2212204424 -0.5000000000 -1.0000020000 0.5000010000
0.3817597635 0.9900029800 0.5000010000 -0.5000000000 0.0000000000 1.5000030000
-0.1028682057 1.0000020000 0.4218758438 -0.5000000000 1.0000020000 0.5000010000
0.4559199118 0.1200412401 -0.5000010000 -0.5000000000 0.0000000000 1.5000030000
0.1863683727 0.4319468639 0.5000010000 -0.5000000000 0.0000000000 -0.5000010000
-0.1455312911 0.2373614747 -0.5000010000 -0.5000000000 0.0000000000 1.5000030000
-0.1126232252 1.0000020000 0.0207190414 -0.5000000000 -1.0000020000 0.5000010000
-0.3583067166 0.5128860258 -0.5000010000 -0.5000000000 0.0000000000 1.5000030000
0.3191856384 0.3722957446 -0.5000010000 -0.5000000000 0.0000000000 1.5000030000
0.1113662227 0.0014500029 -0.5000010000 -0.5000000000 0.0000000000 1.5000030000
0.1216202432 1.0000020000 -0.3689417379 -0.5000000000 -1.0000020000 0.5000010000
-0.0632171264 0.5039540079 0.5000010000 -0.5000000000 0.0000000000 -0.4407348815
0.3363306727 0.9908819818 -0.5000010000 -0.5000000000 0.0000000000 -0.5000010000
0.3444146888 0.8202376405 -0.5000010000 -0.5000000000 0.0000000000 -0.5000010000
-0.2648625297 1.0000020000 -0.4435908872 -0.5000000000 -1.0000020000 0.5000010000
-0.0505461011 1.0000020000 0.1843673687 -0.5000000000 -1.0000020000 0.5000010000
-0.2346074692 0.0239090478 -0.5000010000 -0.5000000000 0.0000000000 1.5000030000
0.4345988692 1.0000020000 -0.4897089794 -0.5000000000 1.0000020000 0.5000010000
-0.3345436691 1.0000020000 0.0982521965 -0.5000000000 1.0000020000 0.5000010000
0.2344824690 0.8359986720 0.5000010000 -0.5000000000 0.0000000000 -0.5000010000
-0.0745161490 1.0000020000 0.3750427501 -0.5000000000 -1.0000020000 0.5000010000
0.1177012354 1.0000020000 -0.4008808018 -0.5000000000 1.0000020000 0.5000010000
0.1777923556 1.0000020000 0.1650733301 -0.5000000000 1.0000020000 0.5000010000
0.1777523555 1.0000020000 -0.3474186948 -0.5000000000 1.0000020000 0.5000010000
0.2394334789 1.0000020000 -0.1549003098 -0.5000000000 1.0000020000 0.5000010000
-0.0143590287 1.0000020000 0.1365132730 -0.5000000000 -1.0000020000 0.5000010000
-0.1188012376 1.0000020000 -0.2590705181 -0.5000000000 -1.0000020000 0.5000010000
-0.1144732289 1.0000020000 -0.4200748401 -0.5000000000 1.0000020000 0.5000010000
-0.3233316467 0.0446300893 -0.5000010000 -0.5000000000 0.0000000000 -0.5000010000
-0.1087242174 0.8078416157 -0.5000010000 -0.5000000000 0.0000000000 -0.5000010000
0.3922447845 1.0000020000 0.0767741535 -0.5000000000 1.0000020000 0.5000010000
0.1905113810 0.0411410823 0.5000010000 -0.5000000000 0.0000000000 -0.2316514633
0.3594547189 0.6243412487 0.5000010000 -0.5000000000 0.0000000000 1.5000030000
-0.2486924974 0.8244166488 -0.5000010000 -0.5000000000 0.0000000000 -0.5000010000
0.4892909786 0.3971607943 -0.5000010000 -0.5000000000 0.0000000000 1.5000030000
0.0839601679 0.9527729055 -0.5000010000 -0.5000000000 0.0000000000 -0.5000010000
0.0961521923 0.6188122376 -0.5000010000 -0.5000000000 0.0000000000 1.5000030000
0.0831101662 1.0000020000 -0.0248350497 -0.5000000000 1.0000020000 0.5000010000
0.0882751766 0.9105318211 -0.5000010000 -0.5000000000 0.0000000000 1.5000030000
-0.3970997942 1.0000020000 0.1763313527 -0.5000000000 1.0000020000 0.5000010000
0.0983441967 1.0000020000 -0.0815021630 -0.5000000000 1.0000020000 0.5000010000
-0.4550719101 0.5144390289 -0.5000010000 -0.5000000000 0.0000000000 1.5000030000
-0.0415620831 1.0000020000 -0.4828629657 -0.5000000000 1.0000020000 0.5000010000
-0.4832219664 1.0000020000 0.4540379081 -0.5000000000 -1.0000020000 0.5000010000
0.3576567153 1.0000020000 -0.4487458975 -0.5000000000 -1.0000020000 0.5000010000
0.2638135276 1.0000020000 -0.1203382407 -0.5000000000 -1.0000020000 0.5000010000
-0.0484280969 0.6173932348 0.5000010000 -0.5000000000 0.0000000000 -0.5000010000
-0.2257044514 1.0000020000 0.2663405327 -0.5000000000 -1.0000020000 0.5000010000
0.0863291727 1.0000020000 0.3183706367 -0.5000000000 1.0000020000 0.5000010000
-0.1400552801 0.2090454181 0.5000010000 -0.5000000000 0.0000000000 1.0689911380
-0.4005528011 0.0077700155 0.5000010000 -0.5000000000 0.0000000000 0.6072182144
-0.3192966386 0.7872135744 0.5000010000 -0.5000000000 0.0000000000 -0.4679159358
0.3005046010 0.5440050880 0.5000010000 -0.5000000000 0.0000000000 1.5000030000
-0.1758713517 1.0000020000 0.1653393307 -0.5000000000 1.0000020000 0.5000010000
0.3358476717 1.0000020000 0.4905009810 -0.5000000000 1.0000020000 0.5000010000
0.1294882590 1.0000020000 -0.3936167872 -0.5000000000 1.0000020000 0.5000010000
-0.3352956706 0.8269136538 -0.5000010000 -0.5000000000 0.0000000000 1.5000030000
0.2374264749 0.7270214540 -0.5000010000 -0.5000000000 0.0000000000 1.5000030000
-0.2523235046 0.0367680735 -0.5000010000 -0.5000000000 0.0000000000 -0.5000010000
-0.3349246698 0.2730015460 -0.5000010000 -0.5000000000 0.0000000000 -0.5000010000
-0.1183192366 0.7318784638 0.5000010000 -0.5000000000 0.0000000000 1.5000030000
-0.3546177092 0.3813857628 0.5000010000 -0.5000000000 0.0000000000 1.0267690535
0.0591041182 1.0000020000 0.0371670743 -0.5000000000 1.0000020000 0.5000010000
0.0805181610 0.3528927058 -0.5000010000 -0.5000000000 0.0000000000 -0.5000010000
0.3666397333 0.4036178072 0.5000010000 -0.5000000000 0.0000000000 -0.5000010000
0.3592697185 1.0000020000 -0.0275780552 -0.5000000000 -1.0000020000 0.5000010000
0.3046986094 1.0000020000 -0.1737223474 -0.5000000000 1.0000020000 0.5000010000
0.1254202508 0.5157130314 -0.5000010000 -0.5000000000 0.0000000000 -0.5000010000
-0.0242800486 0.8761907524 0.5000010000 -0.5000000000 0.0000000000 -0.5000010000
0.1599163198 0.5281250563 0.5000010000 -0.5000000000 0.0000000000 -0.5000010000
0.2214274429 1.0000020000 0.4238308477 -0.5000000000 -1.0000020000 0.5000010000
0.1980773962 1.0000020000 -0.2021624043 -0.5000000000 -1.0000020000 0.5000010000
0.2385294771 0.2454134908 -0.5000010000 -0.5000000000 0.0000000000 -0.5000010000
-0.0579951160 1.0000020000 -0.4540879082 -0.5000000000 -1.0000020000 0.5000010000
-0.4581139162 1.0000020000 0.3295526591 -0.5000000000 1.0000020000 0.5000010000
-0.0046250093 0.4801769604 -0.5000010000 -0.5000000000 0.0000000000 1.5000030000
0.3051036102 0.9081678163 -0.5000010000 -0.5000000000 0.0000000000 -0.5000010000
-0.3032956066 0.7837355675 -0.5000010000 -0.5000000000 0.0000000000 1.5000030000
-0.2015354031 0.9716459433 -0.5000010000 -0.5000000000 0.0000000000 -0.5000010000
0.2501385003 0.2699305399 -0.5000010000 -0.5000000000 0.0000000000 -0.5000010000
0.0800961602 0.5776451553 -0.5000010000 -0.5000000000 0.0000000000 -0.5000010000
0.0659841320 0.9370728741 -0.5000010000 -0.5000000000 0.0000000000 -0.5000010000
0.1817543635 0.0858411717 -0.5000010000 -0.5000000000 0.0000000000 1.5000030000
-0.2137194274 0.9074788150 0.5000010000 -0.5000000000 0.0000000000 1.5000030000
0.2481844964 1.0000020000 -0.0481060962 -0.5000000000 1.0000020000 0.5000010000
0.4970159940 1.0000020000 -0.4334808670 -0.5000000000 -1.0000020000 0.5000010000
-0.0254650509 1.0000020000 -0.1570083140 -0.5000000000 1.0000020000 0.5000010000
-0.2711685423 0.9672939346 -0.5000010000 -0.5000000000 0.0000000000 1.5000030000
0.4873069746 0.9511059022 0.5000010000 -0.5000000000 0.0000000000 1.5000030000
-0.0049180098 0.7928335857 0.5000010000 -0.5000000000 0.0000000000 1.5000030000
-0.4722519445 1.0000020000 -0.4765289531 -0.5000000000 -1.0000020000 0.5000010000
-0.1578243156 0.0959231918 0.5000010000 -0.5000000000 0.0000000000 0.0619021238
-0.0015280031 1.0000020000 0.4329508659 -0.5000000000 -1.0000020000 0.5000010000
-0.2320104640 1.0000020000 0.2062734125 -0.5000000000 1.0000020000 0.5000010000
-0.3419106838 0.4603329207 -0.5000010000 -0.5000000000 0.0000000000 1.5000030000
-0.0836531673 1.0000020000 -0.2371804744 -0.5000000000 -1.0000020000 0.5000010000
0.4062208124 0.2207114414 -0.5000010000 -0.5000000000 0.0000000000 1.5000030000
0.2595595191 0.0209780420 -0.5000010000 -0.5000000000 0.0000000000 1.5000030000
-0.0201100402 0.5891811784 -0.5000010000 -0.5000000000 0.0000000000 -0.5000010000
-0.4314178628 1.0000020000 0.3299756600 -0.5000000000 1.0000020000 0.5000010000
0.2695145390 1.0000020000 -0.4433938868 -0.5000000000 -1.0000020000 0.5000010000
0.1580523161 1.0000020000 -0.3274766550 -0.5000000000 -1.0000020000 0.5000010000
0.2451814904 1.0000020000 0.4171318343 -0.5000000000 -1.0000020000 0.5000010000
-0.2276874554 1.0000020000 -0.1421532843 -0.5000000000 1.0000020000 0.5000010000
-0.3404566809 1.0000020000 -0.3782427565 -0.5000000000 -1.0000020000 0.5000010000
-0.1437762876 0.9194618389 -0.5000010000 -0.5000000000 0.0000000000 -0.5000010000
-0.3295906592 0.0701871404 -0.5000010000 -0.5000000000 0.0000000000 1.5000030000
-0.2766965534 0.1185122370 0.5000010000 -0.5000000000 0.0000000000 0.1581853164
-0.2019764040 0.9822859646 -0.5000010000 -0.5000000000 0.0000000000 -0.5000010000
0.3733777468 0.2588275177 -0.5000010000 -0.5000000000 0.0000000000 1.5000030000
-0.1109202218 0.4244918490 -0.5000010000 -0.5000000000 0.0000000000 1.5000030000
0.0388160776 0.6403352807 -0.5000010000 -0.5000000000 0.0000000000 1.5000030000
-0.2295264591 0.5318210636 -0.5000010000 -0.5000000000 0.0000000000 -0.5000010000
0.0762811526 0.3507497015 0.5000010000 -0.5000000000 0.0000000000 -0.4270298541
-0.1920823842 1.0000020000 0.4711379423 -0.5000000000 -1.0000020000 0.5000010000
-0.3832207664 1.0000020000 0.4043698087 -0.5000000000 1.0000020000 0.5000010000
-0.1122212244 0.5349160698 0.5000010000 -0.5000000000 0.0000000000 -0.4226938454
0.1110252221 1.0000020000 0.2081224162 -0.5000000000 1.0000020000 0.5000010000
0.2697095394 1.0000020000 0.0025880052 -0.5000000000 1.0000020000 0.5000010000
0.0384330769 1.0000020000 0.2868675737 -0.5000000000 -1.0000020000 0.5000010000
-0.4610639221 0.2067084134 -0.5000010000 -0.5000000000 0.0000000000 -0.5000010000
-0.4237328475 1.0000020000 0.0954781910 -0.5000000000 1.0000020000 0.5000010000
-0.2157654315 0.2595315191 -0.5000010000 -0.5000000000 0.0000000000 1.5000030000
0.4410118820 0.3204096408 -0.5000010000 -0.5000000000 0.0000000000 1.5000030000
-0.4388608777 1.0000020000 0.1119152238 -0.5000000000 -1.0000020000 0.5000010000
0.0796401593 0.8122176244 0.5000010000 -0.5000000000 0.0000000000 -0.5000010000
-0.4448088896 1.0000020000 -0.3704167408 -0.5000000000 -1.0000020000 0.5000010000
-0.2840765682 0.8774867550 0.5000010000 -0.5000000000 0.0000000000 -0.5000010000
-0.1583283167 1.0000020000 0.1893603787 -0.5000000000 -1.0000020000 0.5000010000
-0.1947263895 0.0457530915 -0.5000010000 -0.5000000000 0.0000000000 1.5000030000
0.3660667321 0.0125120250 0.5000010000 -0.5000000000 0.0000000000 -0.3785787572
0.2031514063 0.4763799528 0.5000010000 -0.5000000000 0.0000000000 -0.5000010000
0.4272838546 0.9751659503 -0.5000010000 -0.5000000000 0.0000000000 1.5000030000
-0.2783385567 1.0000020000 -0.1452892906 -0.5000000000 1.0000020000 0.5000010000
-0.1041932084 1.0000020000 0.3919127838 -0.5000000000 -1.0000020000 0.5000010000
-0.4846069692 0.8462166924 0.5000010000 -0.5000000000 0.0000000000 -0.3616077232
0.1231272463 0.5237370475 -0.5000010000 -0.5000000000 0.0000000000 1.5000030000
-0.4367648735 1.0000020000 0.3712627425 -0.5000000000 -1.0000020000 0.5000010000
0.1053612107 0.4419048838 -0.5000010000 -0.5000000000 0.0000000000 -0.5000010000
0.4930989862 0.0395120790 -0.5000010000 -0.5000000000 0.0000000000 1.5000030000
-0.0044530089 0.4213848428 0.5000010000 -0.5000000000 0.0000000000 -0.4169308339
-0.0694341389 0.1381282763 0.5000010000 -0.5000000000 0.0000000000 1.0686961374
0.3048276097 0.4299598599 -0.5000010000 -0.5000000000 0.0000000000 1.5000030000
0.2371164742 0.6283202566 -0.5000010000 -0.5000000000 0.0000000000 -0.5000010000
0.4021328043 1.0000020000 -0.3354566709 -0.5000000000 -1.0000020000 0.5000010000
0.0286370573 1.0000020000 0.2270134540 -0.5000000000 -1.0000020000 0.5000010000
0.0126390253 0.5510311021 0.5000010000 -0.5000000000 0.0000000000 1.5000030000
-0.2136814274 0.0922561845 0.5000010000 -0.5000000000 0.0000000000 0.8785757572
-0.4660209320 0.0049770100 0.5000010000 -0.5000000000 0.0000000000 0.4610449221
-0.4243038486 0.4566379133 -0.5000010000 -0.5000000000 0.0000000000 -0.5000010000
0.0988951978 0.8857407715 -0.5000010000 -0.5000000000 0.0000000000 1.5000030000
-0.3686077372 0.8163116326 0.5000010000 -0.5000000000 0.0000000000 -0.4477018954
0.0360710721 0.3973487947 0.5000010000 -0.5000000000 0.0000000000 -0.4334188668
0.1180602361 0.9812529625 -0.5000010000 -0.5000000000 0.0000000000 -0.5000010000
0.4257028514 0.0185720371 -0.5000010000 -0.5000000000 0.0000000000 -0.5000010000
0.1903853808 0.4541999084 -0.5000010000 -0.5000000000 0.0000000000 -0.5000010000
-0.4947299895 0.8146676293 -0.5000010000 -0.5000000000 0.0000000000 -0.5000010000
-0.1467772936 0.8649347299 0.5000010000 -0.5000000000 0.0000000000 1.5000030000
-0.2531885064 0.6256122512 0.5000010000 -0.5000000000 0.0000000000 1.3724247448
0.0708121416 0.6657293315 -0.5000010000 -0.5000000000 0.0000000000 -0.5000010000
-0.0944051888 1.0000020000 -0.0688991378 -0.5000000000 -1.0000020000 0.5000010000
-0.0864631729 1.0000020000 -0.3110816222 -0.5000000000 1.0000020000 0.5000010000
0.1118322237 0.6286732573 0.5000010000 -0.5000000000 0.0000000000 1.5000030000
0.0649461299 1.0000020000 -0.0263220526 -0.5000000000 -1.0000020000 0.5000010000
0.3324086648 0.7857075714 -0.5000010000 -0.5000000000 0.0000000000 1.5000030000
-0.1957713915 0.2245374491 0.5000010000 -0.5000000000 0.0000000000 1.0287670575
0.2974075948 0.8155456311 0.5000010000 -0.5000000000 0.0000000000 -0.5000010000
-0.0707761416 1.0000020000 -0.3292216584 -0.5000000000 -1.0000020000 0.5000010000
0.3422836846 0.6990963982 -0.5000010000 -0.5000000000 0.0000000000 -0.5000010000
-0.3817767636 0.7046904094 0.5000010000 -0.5000000000 0.0000000000 -0.3229126458
0.4543579087 1.0000020000 -0.3926807854 -0.5000000000 -1.0000020000 0.5000010000
0.0004350009 0.6574123148 -0.5000010000 -0.5000000000 0.0000000000 -0.5000010000
-0.2135284271 0.4479528959 -0.5000010000 -0.5000000000 0.0000000000 -0.5000010000
0.4675669351 0.8888347777 -0.5000010000 -0.5000000000 0.0000000000 -0.5000010000
-0.0948851898 1.0000020000 -0.3768347537 -0.5000000000 -1.0000020000 0.5000010000
0.4125628251 0.9590779182 -0.5000010000 -0.5000000000 0.0000000000 1.5000030000
0.1223722447 0.4527029054 0.5000010000 -0.5000000000 0.0000000000 -0.5000010000
0.1232372465 0.3767967536 0.5000010000 -0.5000000000 0.0000000000 1.5000030000
-0.0757121514 0.7078404157 -0.5000010000 -0.5000000000 0.0000000000 -0.5000010000
0.4340878682 0.5614851230 0.5000010000 -0.5000000000 0.0000000000 1.5000030000
0.1808123616 0.6934633869 0.5000010000 -0.5000000000 0.0000000000 1.5000030000
-0.1894933790 0.0129100258 -0.5000010000 -0.5000000000 0.0000000000 1.5000030000
-0.4286808574 0.0387900776 -0.5000010000 -0.5000000000 0.0000000000 -0.5000010000
-0.0559011118 0.1484882970 0.5000010000 -0.5000000000 0.0000000000 1.0925881852
0.2044344089 0.7124334249 -0.5000010000 -0.5000000000 0.0000000000 -0.5000010000
0.1097042194 1.0000020000 0.4952419905 -0.5000000000 1.0000020000 0.5000010000
0.2299874600 0.9219848440 -0.5000010000 -0.5000000000 0.0000000000 -0.5000010000
-0.0714551429 0.6278512557 -0.5000010000 -0.5000000000 0.0000000000 1.5000030000
-0.2855135710 1.0000020000 0.4059858120 -0.5000000000 1.0000020000 0.5000010000
-0.2178834358 1.0000020000 0.0266100532 -0.5000000000 -1.0000020000 0.5000010000
0.1411512823 0.5538671077 -0.5000010000 -0.5000000000 0.0000000000 1.5000030000
0.1634583269 0.7001724003 -0.5000010000 -0.5000000000 0.0000000000 1.5000030000
0.3117936236 0.5585791172 -0.5000010000 -0.5000000000 0.0000000000 -0.5000010000
-0.0158420317 1.0000020000 0.4556969114 -0.5000000000 -1.0000020000 0.5000010000
-0.2189224378 1.0000020000 -0.2236464473 -0.5000000000 -1.0000020000 0.5000010000
-0.4197768396 0.6820403641 0.5000010000 -0.5000000000 0.0000000000 1.2622645245
-0.4587589175 1.0000020000 0.3214266429 -0.5000000000 1.0000020000 0.5000010000
0.2556535113 1.0000020000 0.3951757904 -0.5000000000 -1.0000020000 0.5000010000
0.1315572631 1.0000020000 -0.1201102402 -0.5000000000 1.0000020000 0.5000010000
0.2544365089 0.3317906636 0.5000010000 -0.5000000000 0.0000000000 -0.5000010000
-0.4266418533 1.0000020000 -0.3827847656 -0.5000000000 1.0000020000 0.5000010000
0.2959365919 1.0000020000 -0.1450062900 -0.5000000000 -1.0000020000 0.5000010000
-0.3571497143 0.2316944634 0.5000010000 -0.5000000000 0.0000000000 0.1254552509
-0.2626595253 0.5228890458 0.5000010000 -0.5000000000 0.0000000000 -0.2602285205
0.0990711981 1.0000020000 0.4970229940 -0.5000000000 1.0000020000 0.5000010000
-0.3951657903 0.2370574741 -0.5000010000 -0.5000000000 0.0000000000 1.5000030000
0.4194088388 1.0000020000 0.2464594929 -0.5000000000 1.0000020000 0.5000010000
-0.4548559097 0.1912273825 0.5000010000 -0.5000000000 0.0000000000 0.2636285273
0.2102434205 0.5671271343 0.5000010000 -0.5000000000 0.0000000000 -0.5000010000
-0.0447600895 1.0000020000 0.4988379977 -0.5000000000 1.0000020000 0.5000010000
-0.1390252781 1.0000020000 0.4201488403 -0.5000000000 1.0000020000 0.5000010000
0.0564541129 0.8228366457 0.5000010000 -0.5000000000 0.0000000000 -0.5000010000
0.0973741947 0.0884191768 0.5000010000 -0.5000000000 0.0000000000 1.1857943716
-0.0733491467 1.0000020000 0.3253786508 -0.5000000000 1.0000020000 0.5000010000
0.2018654037 0.5157860316 -0.5000010000 -0.5000000000 0.0000000000 1.5000030000
0.0876521753 1.0000020000 -0.4676109352 -0.5000000000 1.0000020000 0.5000010000
-0.1695863392 1.0000020000 -0.3637567275 -0.5000000000 1.0000020000 0.5000010000
-0.4630819262 0.2492004984 0.5000010000 -0.5000000000 0.0000000000 0.2138814278
0.3885417771 1.0000020000 -0.0716031432 -0.5000000000 1.0000020000 0.5000010000
-0.4606839214 1.0000020000 -0.3916387833 -0.5000000000 -1.0000020000 0.5000010000
-0.2643875288 0.6522863046 0.5000010000 -0.5000000000 0.0000000000 1.3878997758
-0.4409888820 0.0803091606 0.5000010000 -0.5000000000 0.0000000000 0.6393202786
-0.2417524835 0.7975635951 -0.5000010000 -0.5000000000 0.0000000000 1.5000030000
-0.0570491141 0.6371152742 0.5000010000 -0.5000000000 0.0000000000 1.5000030000
0.0902571805 1.0000020000 0.2013684027 -0.5000000000 -1.0000020000 0.5000010000
-0.2599245198 0.2692465385 -0.5000010000 -0.5000000000 0.0000000000 -0.5000010000
-0.4641779284 0.0872051744 -0.5000010000 -0.5000000000 0.0000000000 -0.5000010000
-0.1083162166 1.0000020000 0.0569611139 -0.5000000000 -1.0000020000 0.5000010000
-0.2163964328 1.0000020000 0.4768369537 -0.5000000000 1.0000020000 0.5000010000
-0.0757161514 0.6627363255 -0.5000010000 -0.5000000000 0.0000000000 -0.5000010000
-0.0662441325 1.0000020000 -0.2787605575 -0.5000000000 1.0000020000 0.5000010000
-0.3222586445 1.0000020000 -0.1686873374 -0.5000000000 -1.0000020000 0.5000010000
0.2316604633 0.1237852476 0.5000010000 -0.5000000000 0.0000000000 1.3554467109
-0.3003416007 1.0000020000 0.3472616945 -0.5000000000 1.0000020000 0.5000010000
-0.0275950552 0.6319862640 -0.5000010000 -0.5000000000 0.0000000000 -0.5000010000
-0.2637055274 0.5647491295 -0.5000010000 -0.5000000000 0.0000000000 -0.5000010000
0.3344486689 1.0000020000 -0.0369150738 -0.5000000000 -1.0000020000 0.5000010000
-0.3243596487 0.3821117642 -0.5000010000 -0.5000000000 0.0000000000 1.5000030000
0.2765275531 0.9536269073 0.5000010000 -0.5000000000 0.0000000000 1.5000030000
-0.4918789838 0.6119122238 -0.5000010000 -0.5000000000 0.0000000000 1.5000030000
-0.0868891738 1.0000020000 0.1720303441 -0.5000000000 1.0000020000 0.5000010000
0.0187730375 0.2809945620 -0.5000010000 -0.5000000000 0.0000000000 1.5000030000
0.3215946432 1.0000020000 0.1314202628 -0.5000000000 1.0000020000 0.5000010000
0.4697719395 0.9417488835 0.5000010000 -0.5000000000 0.0000000000 -0.5000010000
-0.1193002386 0.1894713789 0.5000010000 -0.5000000000 0.0000000000 -0.0701711403
0.4400208800 0.8906717813 -0.5000010000 -0.5000000000 0.0000000000 -0.5000010000
0.2148084296 0.9308848618 0.5000010000 -0.5000000000 0.0000000000 -0.5000010000
-0.3979777960 1.0000020000 -0.3096506193 -0.5000000000 -1.0000020000 0.5000010000
0.1366882734 0.0161690323 0.5000010000 -0.5000000000 0.0000000000 1.1528573057
-0.1004312009 0.5006020012 0.5000010000 -0.5000000000 0.0000000000 -0.4001698003
0.0725321451 1.0000020000 0.0109580219 -0.5000000000 1.0000020000 0.5000010000
0.3305626611 0.2661315323 0.5000010000 -0.5000000000 0.0000000000 1.5000030000
0.2561945124 0.9752349505 -0.5000010000 -0.5000000000 0.0000000000 1.5000030000
0.3613817228 1.0000020000 0.3718787438 -0.5000000000 -1.0000020000 0.5000010000
0.4843119686 1.0000020000 -0.0040350081 -0.5000000000 -1.0000020000 0.5000010000
0.2515875032 1.0000020000 -0.0846721693 -0.5000000000 -1.0000020000 0.5000010000
-0.4916979834 1.0000020000 0.4199028398 -0.5000000000 -1.0000020000 0.5000010000
0.4701379403 0.4201018402 0.5000010000 -0.5000000000 0.0000000000 1.5000030000
0.3169516339 0.0739021478 0.5000010000 -0.5000000000 0.0000000000 -0.3908517817
-0.0639771280 0.3526467053 -0.5000010000 -0.5000000000 0.0000000000 1.5000030000
0.1821553643 1.0000020000 -0.1125202250 -0.5000000000 -1.0000020000 0.5000010000
0.3344596689 0.4582449165 0.5000010000 -0.5000000000 0.0000000000 1.5000030000
-0.0067350135 0.7281684563 -0.5000010000 -0.5000000000 0.0000000000 1.5000030000
0.1521233042 0.5315180630 0.5000010000 -0.5000000000 0.0000000000 1.5000030000
0.2180784362 1.0000020000 -0.4020188040 -0.5000000000 -1.0000020000 0.5000010000
-0.2265734531 0.7273064546 -0.5000010000 -0.5000000000 0.0000000000 1.5000030000
0.1306632613 1.0000020000 -0.2721695443 -0.5000000000 1.0000020000 0.5000010000
-0.4656919314 0.1196942394 -0.5000010000 -0.5000000000 0.0000000000 1.5000030000
0.1759893520 0.8184706369 -0.5000010000 -0.5000000000 0.0000000000 1.5000030000
-0.4896149792 0.0760621521 -0.5000010000 -0.5000000000 0.0000000000 -0.5000010000
-0.1026892054 0.9643459287 0.5000010000 -0.5000000000 0.0000000000 1.5000030000
0.4360908722 1.0000020000 0.4252078504 -0.5000000000 1.0000020000 0.5000010000
-0.0685751372 0.1285032570 0.5000010000 -0.5000000000 0.0000000000 -0.0599271199
-0.0900271801 1.0000020000 0.0189470379 -0.5000000000 -1.0000020000 0.5000010000
-0.2981365963 0.2118524237 -0.5000010000 -0.5000000000 0.0000000000 1.5000030000
-0.1838923678 1.0000020000 0.1650393301 -0.5000000000 -1.0000020000 0.5000010000
0.2450574901 0.7200394401 0.5000010000 -0.5000000000 0.0000000000 -0.5000010000
-0.1268322537 0.4860979722 -0.5000010000 -0.5000000000 0.0000000000 -0.5000010000
-0.2126504253 1.0000020000 -0.0288810578 -0.5000000000 1.0000020000 0.5000010000
-0.4601359203 1.0000020000 -0.0180210360 -0.5000000000 -1.0000020000 0.5000010000
-0.2818605637 0.3419776840 0.5000010000 -0.5000000000 0.0000000000 -0.0601161202
0.2512855026 0.3550507101 -0.5000010000 -0.5000000000 0.0000000000 1.5000030000
0.3295066590 1.0000020000 -0.2358744717 -0.5000000000 -1.0000020000 0.5000010000
0.1871973744 0.5990391981 0.5000010000 -0.5000000000 0.0000000000 1.5000030000
0.4543369087 1.0000020000 0.2840285681 -0.5000000000 1.0000020000 0.5000010000
-0.3999667999 0.4650279301 0.5000010000 -0.5000000000 0.0000000000 -0.0650601301
-0.2663515327 0.7094784190 -0.5000010000 -0.5000000000 0.0000000000 -0.5000010000
-0.3920077840 1.0000020000 0.1225482451 -0.5000000000 -1.0000020000 0.5000010000
0.0031700063 0.3370216740 0.5000010000 -0.5000000000 0.0000000000 1.3401936804
-0.4983549967 1.0000020000 0.2461854924 -0.5000000000 1.0000020000 0.5000010000
0.1035132070 0.5394490789 0.5000010000 -0.5000000000 0.0000000000 -0.5000010000
-0.4518249036 0.7365434731 -0.5000010000 -0.5000000000 0.0000000000 1.5000030000
-0.4413868828 0.7119064238 -0.5000010000 -0.5000000000 0.0000000000 1.5000030000
0.2346434693 0.5126070252 -0.5000010000 -0.5000000000 0.0000000000 -0.5000010000
0.3989967980 1.0000020000 -0.0007430015 -0.5000000000 1.0000020000 0.5000010000
-0.0282010564 1.0000020000 -0.2969135938 -0.5000000000 -1.0000020000 0.5000010000
-0.2950295901 0.8827767656 -0.5000010000 -0.5000000000 0.0000000000 -0.5000010000
-0.0548211096 1.0000020000 0.3628417257 -0.5000000000 1.0000020000 0.5000010000
0.4959019918 1.0000020000 -0.1547043094 -0.5000000000 1.0000020000 0.5000010000
-0.3816177632 0.9352268705 0.5000010000 -0.5000000000 0.0000000000 -0.5000010000
-0.4490938982 0.8996887994 0.5000010000 -0.5000000000 0.0000000000 1.4505959012
-0.2473104946 0.3215136430 -0.5000010000 -0.5000000000 0.0000000000 1.5000030000
-0.0797951596 1.0000020000 0.0272550545 -0.5000000000 -1.0000020000 0.5000010000
-0.4731729463 0.8639127278 0.5000010000 -0.5000000000 0.0000000000 1.3907407815
-0.4277828556 0.7443264887 -0.5000010000 -0.5000000000 0.0000000000 -0.5000010000
0.4217248434 0.6433132866 -0.5000010000 -0.5000000000 0.0000000000 1.5000030000
-0.4302618605 1.0000020000 -0.0588721177 -0.5000000000 -1.0000020000 0.5000010000
0.3684197368 0.9318398637 0.5000010000 -0.5000000000 0.0000000000 1.5000030000
-0.0891121782 0.4134228268 0.5000010000 -0.5000000000 0.0000000000 1.3243116486
-0.3432256865 0.6648243296 0.5000010000 -0.5000000000 0.0000000000 1.3215996432
0.0433800868 0.9429398859 -0.5000010000 -0.5000000000 0.0000000000 -0.5000010000
0.0870241740 0.2142624285 -0.5000010000 -0.5000000000 0.0000000000 -0.5000010000
-0.4044758090 0.3245896492 -0.5000010000 -0.5000000000 0.0000000000 -0.5000010000
-0.0207520415 0.2534275069 -0.5000010000 -0.5000000000 0.0000000000 -0.5000010000
0.4332798666 1.0000020000 -0.1894273789 -0.5000000000 -1.0000020000 0.5000010000
0.4620209240 1.0000020000 -0.0693061386 -0.5000000000 -1.0000020000 0.5000010000
-0.3357246714 1.0000020000 -0.2593945188 -0.5000000000 -1.0000020000 0.5000010000
0.1014392029 0.1988423977 -0.5000010000 -0.5000000000 0.0000000000 -0.5000010000
0.2653005306 1.0000020000 0.1559073118 -0.5000000000 -1.0000020000 0.5000010000
0.1714053428 1.0000020000 -0.3021116042 -0.5000000000 -1.0000020000 0.5000010000
-0.1213872428 0.5572191144 0.5000010000 -0.5000000000 0.0000000000 1.4358328717
0.4132838266 0.9051488103 0.5000010000 -0.5000000000 0.0000000000 1.5000030000
0.4696129392 0.4114268229 0.5000010000 -0.5000000000 0.0000000000 -0.5000010000
0.2930285861 0.5689901380 0.5000010000 -0.5000000000 0.0000000000 1.5000030000
-0.1847593695 1.0000020000 0.4959219918 -0.5000000000 -1.0000020000 0.5000010000
-0.0817471635 0.2351014702 -0.5000010000 -0.5000000000 0.0000000000 1.5000030000
-0.3584917170 1.0000020000 0.0111400223 -0.5000000000 -1.0000020000 0.5000010000
-0.1174072348 0.6420172840 -0.5000010000 -0.5000000000 0.0000000000 1.5000030000
0.2312224624 0.6497842996 -0.5000010000 -0.5000000000 0.0000000000 1.5000030000
0.1384542769 0.3527807056 0.5000010000 -0.5000000000 0.0000000000 1.4912349825
0.2594575189 0.4987339975 -0.5000010000 -0.5000000000 0.0000000000 1.5000030000
-0.3240936482 0.1112032224 0.5000010000 -0.5000000000 0.0000000000 0.2128904258
-0.0875441751 0.7541895084 0.5000010000 -0.5000000000 0.0000000000 1.5000030000
0.0188580377 0.6131402263 0.5000010000 -0.5000000000 0.0000000000 -0.5000010000
-0.4959209918 0.8992907986 -0.5000010000 -0.5000000000 0.0000000000 -0.5000010000
-0.2262264525 1.0000020000 -0.3676007352 -0.5000000000 -1.0000020000 0.5000010000
0.2349584699 0.3803547607 0.5000010000 -0.5000000000 0.0000000000 1.5000030000
0.4104468209 0.7673695347 -0.5000010000 -0.5000000000 0.0000000000 1.5000030000
-0.4598299197 0.4206928414 0.5000010000 -0.5000000000 0.0000000000 0.0391380783
0.1284002568 1.0000020000 -0.4884369769 -0.5000000000 1.0000020000 0.5000010000
0.4844849690 1.0000020000 0.1042782086 -0.5000000000 -1.0000020000 0.5000010000
0.0331160662 0.3427776856 -0.5000010000 -0.5000000000 0.0000000000 1.5000030000
0.1313372627 0.3939067878 0.5000010000 -0.5000000000 0.0000000000 1.5000030000
0.4999529999 0.2074174148 0.5000010000 -0.5000000000 0.0000000000 1.5000030000
0.0584481169 0.8810417621 -0.5000010000 -0.5000000000 0.0000000000 -0.5000010000
-0.3598387197 1.0000020000 -0.1419862840 -0.5000000000 1.0000020000 0.5000010000
-0.2715135430 0.5112920226 0.5000010000 -0.5000000000 0.0000000000 1.2397784796
-0.2111884224 1.0000020000 0.0881071762 -0.5000000000 1.0000020000 0.5000010000
0.0131380263 0.1854333709 0.5000010000 -0.5000000000 0.0000000000 1.1985723971
0.4338138676 0.1347762696 0.5000010000 -0.5000000000 0.0000000000 -0.5000010000
0.0327850656 0.4857189714 -0.5000010000 -0.5000000000 0.0000000000 1.5000030000
-0.1360282721 0.8476456953 -0.5000010000 -0.5000000000 0.0000000000 -0.5000010000
-0.4611199222 0.3829897660 -0.5000010000 -0.5000000000 0.0000000000 -0.5000010000
0.3698977398 0.8220046440 0.5000010000 -0.5000000000 0.0000000000 1.5000030000
-0.3214536429 0.0651421303 -0.5000010000 -0.5000000000 0.0000000000 -0.5000010000
0.0366530733 1.0000020000 0.3237646475 -0.5000000000 -1.0000020000 0.5000010000
-0.3891747783 0.7943915888 -0.5000010000 -0.5000000000 0.0000000000 1.5000030000
-0.4379238758 1.0000020000 0.3361496723 -0.5000000000 1.0000020000 0.5000010000
-0.0389990780 1.0000020000 -0.1886813774 -0.5000000000 1.0000020000 0.5000010000
0.4482108964 0.3936367873 -0.5000010000 -0.5000000000 0.0000000000 1.5000030000
-0.1100252201 0.4043278087 -0.5000010000 -0.5000000000 0.0000000000 -0.5000010000
0.2110724221 0.2002354005 -0.5000010000 -0.5000000000 0.0000000000 1.5000030000
0.3919697839 1.0000020000 -0.2480174960 -0.5000000000 1.0000020000 0.5000010000
0.2687085374 0.8212806426 0.5000010000 -0.5000000000 0.0000000000 1.5000030000
0.2630665261 0.9398968798 0.5000010000 -0.5000000000 0.0000000000 1.5000030000
0.2571555143 0.5413480827 0.5000010000 -0.5000000000 0.0000000000 1.5000030000
0.3860827722 1.0000020000 0.4530029060 -0.5000000000 1.0000020000 0.5000010000
-0.4717839436 0.9949659899 0.5000010000 -0.5000000000 0.0000000000 -0.5000010000
-0.4589409179 0.0904781810 0.5000010000 -0.5000000000 0.0000000000 0.3684637369
-0.1511323023 0.0317960636 0.5000010000 -0.5000000000 0.0000000000 0.1193372387
0.4334198668 0.9805079610 0.5000010000 -0.5000000000 0.0000000000 -0.5000010000
-0.2760155520 0.7676185352 0.5000010000 -0.5000000000 0.0000000000 1.4916039832
-0.2258654517 0.7910295821 -0.5000010000 -0.5000000000 0.0000000000 1.5000030000
0.1184582369 1.0000020000 -0.3311246622 -0.5000000000 -1.0000020000 0.5000010000
0.4062748125 0.6494402989 0.5000010000 -0.5000000000 0.0000000000 -0.5000010000
0.1521213042 0.2133024266 -0.5000010000 -0.5000000000 0.0000000000 1.5000030000
-0.2369784740 0.0996331993 0.5000010000 -0.5000000000 0.0000000000 0.8626567253
0.1232092464 0.9780739561 0.5000010000 -0.5000000000 0.0000000000 -0.5000010000
-0.0313960628 0.6863653727 0.5000010000 -0.5000000000 0.0000000000 1.5000030000
0.4756149512 0.7531825064 -0.5000010000 -0.5000000000 0.0000000000 1.5000030000
0.0537751076 1.0000020000 -0.4757749515 -0.5000000000 1.0000020000 0.5000010000
-0.1767643535 0.8279356559 0.5000010000 -0.5000000000 0.0000000000 -0.5000010000
0.3264656529 0.2459614919 0.5000010000 -0.5000000000 0.0000000000 1.5000030000
0.4428528857 0.6074002148 0.5000010000 -0.5000000000 0.0000000000 -0.5000010000
0.0646011292 0.9848639697 -0.5000010000 -0.5000000000 0.0000000000 1.5000030000
-0.2239824480 1.0000020000 0.4740799482 -0.5000000000 -1.0000020000 0.5000010000
0.2503715007 1.0000020000 0.1405022810 -0.5000000000 1.0000020000 0.5000010000
0.1816453633 1.0000020000 0.4903249806 -0.5000000000 -1.0000020000 0.5000010000
0.0818491637 0.2224934450 -0.5000010000 -0.5000000000 0.0000000000 1.5000030000
0.0367190734 1.0000020000 -0.1922203844 -0.5000000000 -1.0000020000 0.5000010000
-0.4860199720 0.0985471971 0.5000010000 -0.5000000000 0.0000000000 0.6125282251
-0.2189444379 0.5318420637 -0.5000010000 -0.5000000000 0.0000000000 -0.5000010000
-0.1371442743 0.5426350853 -0.5000010000 -0.5000000000 0.0000000000 1.5000030000
0.3134526269 0.9490158980 -0.5000010000 -0.5000000000 0.0000000000 -0.5000010000
0.2252664505 0.2339544679 0.5000010000 -0.5000000000 0.0000000000 1.4592219184
-0.0185200370 0.7110084220 0.5000010000 -0.5000000000 0.0000000000 1.5000030000
0.0216430433 0.2534345069 -0.5000010000 -0.5000000000 0.0000000000 -0.5000010000
0.2377484755 0.4930479861 0.5000010000 -0.5000000000 0.0000000000 1.5000030000
0.1933603867 0.8264496529 -0.5000010000 -0.5000000000 0.0000000000 1.5000030000
-0.2353874708 1.0000020000 0.0954411909 -0.5000000000 -1.0000020000 0.5000010000
0.3820277641 0.6694123388 -0.5000010000 -0.5000000000 0.0000000000 -0.5000010000
-0.4363268727 0.5934231868 0.5000010000 -0.5000000000 0.0000000000 -0.1570943142
0.4719419439 0.4594399189 -0.5000010000 -0.5000000000 0.0000000000 1.5000030000
-0.4470558941 0.3185096370 0.5000010000 -0.5000000000 0.0000000000 0.1285462571
-0.3388186776 1.0000020000 -0.0791961584 -0.5000000000 1.0000020000 0.5000010000
0.3481936964 0.7005094010 0.5000010000 -0.5000000000 0.0000000000 1.5000030000
0.2384854770 0.9028648057 -0.5000010000 -0.5000000000 0.0000000000 1.5000030000
0.0120010240 1.0000020000 0.0881211762 -0.5000000000 -1.0000020000 0.5000010000
-0.3066916134 0.2156444313 -0.5000010000 -0.5000000000 0.0000000000 1.5000030000
0.1854463709 1.0000020000 -0.1714563429 -0.5000000000 1.0000020000 0.5000010000
0.1232812466 0.4003328007 -0.5000010000 -0.5000000000 0.0000000000 1.5000030000
0.2598095196 1.0000020000 -0.1549473099 -0.5000000000 -1.0000020000 0.5000010000
-0.1703003406 1.0000020000 0.0638351277 -0.5000000000 -1.0000020000 0.5000010000
-0.1129362259 1.0000020000 -0.0864031728 -0.5000000000 -1.0000020000 0.5000010000
0.0865741731 0.2422024844 -0.5000010000 -0.5000000000 0.0000000000 -0.5000010000
-0.1318792638 0.7243904488 0.5000010000 -0.5000000000 0.0000000000 1.5000030000
0.0063800128 0.2764165528 -0.5000010000 -0.5000000000 0.0000000000 -0.5000010000
0.1201722403 0.7498994998 -0.5000010000 -0.5000000000 0.0000000000 -0.5000010000
-0.1079842160 1.0000020000 0.1173272347 -0.5000000000 1.0000020000 0.5000010000
-0.0529371059 0.2361824724 0.5000010000 -0.5000000000 0.0000000000 -0.1832443665
-0.0694351389 1.0000020000 0.3112426225 -0.5000000000 1.0000020000 0.5000010000
-0.3083186166 1.0000020000 0.0938381877 -0.5000000000 1.0000020000 0.5000010000
-0.3863597727 1.0000020000 0.4199178398 -0.5000000000 -1.0000020000 0.5000010000
0.4371958744 1.0000020000 -0.3795697591 -0.5000000000 1.0000020000 0.5000010000
-0.4361298723 1.0000020000 -0.2275374551 -0.5000000000 1.0000020000 0.5000010000
-0.4542739085 0.2805045610 0.5000010000 -0.5000000000 0.0000000000 0.8262306525
-0.3373806748 1.0000020000 -0.4749249498 -0.5000000000 1.0000020000 0.5000010000
-0.0074090148 1.0000020000 0.1103852208 -0.5000000000 1.0000020000 0.5000010000
0.3611637223 1.0000020000 -0.0495860992 -0.5000000000 -1.0000020000 0.5000010000
0.1704343409 0.0984791970 -0.5000010000 -0.5000000000 0.0000000000 -0.5000010000
0.3800887602 1.0000020000 -0.1628093256 -0.5000000000 1.0000020000 0.5000010000
-0.2378574757 0.6844363689 -0.5000010000 -0.5000000000 0.0000000000 1.5000030000
-0.0193180386 1.0000020000 -0.2208904418 -0.5000000000 -1.0000020000 0.5000010000
0.3765917532 0.3440436881 -0.5000010000 -0.5000000000 0.0000000000 1.5000030000
-0.3179606359 1.0000020000 -0.3124486249 -0.5000000000 -1.0000020000 0.5000010000
0.1926913854 0.7225124450 0.5000010000 -0.5000000000 0.0000000000 1.5000030000
-0.0272660545 0.7070974142 0.5000010000 -0.5000000000 0.0000000000 1.5000030000
-0.3612427225 0.3271956544 0.5000010000 -0.5000000000 0.0000000000 0.9659539319
0.0442460885 0.5070690141 0.5000010000 -0.5000000000 0.0000000000 1.5000030000
0.0624951250 1.0000020000 0.4267468535 -0.5000000000 -1.0000020000 0.5000010000
-0.1016062032 1.0000020000 -0.4744139488 -0.5000000000 1.0000020000 0.5000010000
-0.3120226240 0.0495510991 0.5000010000 -0.5000000000 0.0000000000 0.7375284751
0.4752869506 1.0000020000 -0.1335472671 -0.5000000000 -1.0000020000 0.5000010000
-0.2547615095 0.3210716421 -0.5000010000 -0.5000000000 0.0000000000 -0.5000010000
-0.3491696983 0.6186212372 0.5000010000 -0.5000000000 0.0000000000 -0.2694515389
0.4232198464 0.2464804930 -0.5000010000 -0.5000000000 0.0000000000 1.5000030000
-0.0768451537 0.4471348943 -0.5000010000 -0.5000000000 0.0000000000 1.5000030000
0.2367234734 0.0446500893 0.5000010000 -0.5000000000 0.0000000000 1.2813745627
-0.0076500153 0.7720115440 0.5000010000 -0.5000000000 0.0000000000 -0.5000010000
-0.4767329535 1.0000020000 0.4477148954 -0.5000000000 1.0000020000 0.5000010000
0.2655285311 0.3449116898 -0.5000010000 -0.5000000000 0.0000000000 1.5000030000
-0.0226000452 0.5468480937 0.5000010000 -0.5000000000 0.0000000000 1.5000030000
-0.1387092774 1.0000020000 0.0892271785 -0.5000000000 -1.0000020000 0.5000010000
-0.2400584801 0.7687115374 -0.5000010000 -0.5000000000 0.0000000000 -0.5000010000
-0.4233978468 0.3404516809 0.5000010000 -0.5000000000 0.0000000000 0.0829471659
0.3517957036 1.0000020000 0.1998983998 -0.5000000000 -1.0000020000 0.5000010000
0.2021374043 1.0000020000 -0.2583665167 -0.5000000000 1.0000020000 0.5000010000
0.2030434061 0.5370860742 -0.5000010000 -0.5000000000 0.0000000000 -0.5000010000
-0.0501181002 0.5134000268 -0.5000010000 -0.5000000000 0.0000000000 -0.5000010000
-0.4125678251 1.0000020000 0.0339250679 -0.5000000000 -1.0000020000 0.5000010000
-0.2829435659 0.1119552239 0.5000010000 -0.5000000000 0.0000000000 0.8290126580
0.4573159146 0.6011782024 0.5000010000 -0.5000000000 0.0000000000 1.5000030000
0.2086814174 0.4219778440 -0.5000010000 -0.5000000000 0.0000000000 -0.5000010000
-0.4353188706 1.0000020000 0.1229392459 -0.5000000000 1.0000020000 0.5000010000
-0.2865765732 1.0000020000 -0.0810101620 -0.5000000000 -1.0000020000 0.5000010000
-0.0608771218 1.0000020000 -0.4904759810 -0.5000000000 -1.0000020000 0.5000010000
-0.3889487779 0.8336896674 -0.5000010000 -0.5000000000 0.0000000000 -0.5000010000
0.2526895054 0.5797241594 -0.5000010000 -0.5000000000 0.0000000000 -0.5000010000
-0.4639209278 0.1925113850 0.5000010000 -0.5000000000 0.0000000000 0.7285914572
-0.0473140946 0.4818199636 0.5000010000 -0.5000000000 0.0000000000 -0.4345038690
-0.3012066024 0.6155982312 -0.5000010000 -0.5000000000 0.0000000000 -0.5000010000
0.0333860668 0.7224894450 -0.5000010000 -0.5000000000 0.0000000000 -0.5000010000
0.1301502603 1.0000020000 0.4826039652 -0.5000000000 -1.0000020000 0.5000010000
0.2416724833 0.0960691921 -0.5000010000 -0.5000000000 0.0000000000 1.5000030000
0.4373288747 0.1209562419 -0.5000010000 -0.5000000000 0.0000000000 1.5000030000
-0.4281378563 1.0000020000 -0.1900923802 -0.5000000000 -1.0000020000 0.5000010000
0.4642599285 1.0000020000 0.4273838548 -0.5000000000 1.0000020000 0.5000010000
-0.2957235914 0.4855549711 0.5000010000 -0.5000000000 0.0000000000 -0.1898303797
0.4729499459 0.7779025558 0.5000010000 -0.5000000000 0.0000000000 -0.5000010000
-0.1569463139 1.0000020000 0.3778437557 -0.5000000000 1.0000020000 0.5000010000
0.2134164268 0.2445864892 0.5000010000 -0.5000000000 0.0000000000 1.4580039160
0.3272346545 1.0000020000 -0.0344350689 -0.5000000000 -1.0000020000 0.5000010000
0.2593495187 0.7584065168 -0.5000010000 -0.5000000000 0.0000000000 1.5000030000
0.3814477629 0.7316694633 0.5000010000 -0.5000000000 0.0000000000 1.5000030000
0.0981531963 0.7018894038 -0.5000010000 -0.5000000000 0.0000000000 1.5000030000
0.1000452001 1.0000020000 0.4274588549 -0.5000000000 -1.0000020000 0.5000010000
-0.2388564777 1.0000020000 0.2750915502 -0.5000000000 -1.0000020000 0.5000010000
0.3945317891 1.0000020000 0.0454040908 -0.5000000000 1.0000020000 0.5000010000
0.0371740743 0.2462474925 -0.5000010000 -0.5000000000 0.0000000000 -0.5000010000
-0.3509267019 1.0000020000 0.1227032454 -0.5000000000 -1.0000020000 0.5000010000
0.0174380349 0.7301804604 0.5000010000 -0.5000000000 0.0000000000 1.5000030000
0.0777001554 1.0000020000 -0.2157844316 -0.5000000000 1.0000020000 0.5000010000
0.2238984478 0.2774355549 -0.5000010000 -0.5000000000 0.0000000000 1.5000030000
-0.1559203118 1.0000020000 -0.3244346489 -0.5000000000 1.0000020000 0.5000010000
-0.3893337787 1.0000020000 0.1147762296 -0.5000000000 -1.0000020000 0.5000010000
0.4930719861 1.0000020000 0.1386762774 -0.5000000000 -1.0000020000 0.5000010000
-0.0058070116 0.9213368427 0.5000010000 -0.5000000000 0.0000000000 1.5000030000
0.0210250421 0.5216070432 0.5000010000 -0.5000000000 0.0000000000 1.5000030000
0.3166706333 1.0000020000 -0.2590335181 -0.5000000000 1.0000020000 0.5000010000
0.2106324213 0.4422408845 0.5000010000 -0.5000000000 0.0000000000 -0.5000010000
-0.4771279543 0.1189452379 0.5000010000 -0.5000000000 0.0000000000 0.3581837164
0.3784407569 0.8867047734 -0.5000010000 -0.5000000000 0.0000000000 1.5000030000
-0.1591963184 0.7071214142 -0.5000010000 -0.5000000000 0.0000000000 -0.5000010000
0.3158336317 0.7207134414 -0.5000010000 -0.5000000000 0.0000000000 -0.5000010000
0.1490002980 0.1752133504 -0.5000010000 -0.5000000000 0.0000000000 1.5000030000
-0.3612687225 1.0000020000 0.4936379873 -0.5000000000 -1.0000020000 0.5000010000
-0.4929689859 1.0000020000 -0.0254380509 -0.5000000000 1.0000020000 0.5000010000
0.1258262517 0.1316272633 -0.5000010000 -0.5000000000 0.0000000000 -0.5000010000
-0.4743969488 1.0000020000 0.2144254289 -0.5000000000 -1.0000020000 0.5000010000
-0.4391188782 0.3363626727 -0.5000010000 -0.5000000000 0.0000000000 -0.5000010000
-0.4086598173 0.4482828966 0.5000010000 -0.5000000000 0.0000000000 -0.0396220792
0.2864415729 0.7468754938 -0.5000010000 -0.5000000000 0.0000000000 -0.5000010000
0.4906419813 0.4678349357 0.5000010000 -0.5000000000 0.0000000000 1.5000030000
-0.2128564257 1.0000020000 -0.1331502663 -0.5000000000 1.0000020000 0.5000010000
0.4362388725 0.5047640095 0.5000010000 -0.5000000000 0.0000000000 -0.5000010000
-0.3784947570 0.5278680557 -0.5000010000 -0.5000000000 0.0000000000 1.5000030000
-0.4855829712 0.6576953154 0.5000010000 -0.5000000000 0.0000000000 1.1721133442
0.3837777676 0.5227000454 -0.5000010000 -0.5000000000 0.0000000000 1.5000030000
-0.4106408213 1.0000020000 0.1373552747 -0.5000000000 -1.0000020000 0.5000010000
0.3868267737 0.8792057584 -0.5000010000 -0.5000000000 0.0000000000 1.5000030000
-0.0784191568 0.6301912604 0.5000010000 -0.5000000000 0.0000000000 1.5000030000
-0.1341352683 1.0000020000 -0.3982307965 -0.5000000000 -1.0000020000 0.5000010000
-0.0886901774 0.5576001152 -0.5000010000 -0.5000000000 0.0000000000 -0.5000010000
0.2616655233 0.6330422661 -0.5000010000 -0.5000000000 0.0000000000 1.5000030000
0.1288942578 0.9041888084 -0.5000010000 -0.5000000000 0.0000000000 -0.5000010000
0.3144776290 0.6208922418 -0.5000010000 -0.5000000000 0.0000000000 -0.5000010000
-0.3919257839 0.8860047720 -0.5000010000 -0.5000000000 0.0000000000 -0.5000010000
0.1205542411 0.4795229590 0.5000010000 -0.5000000000 0.0000000000 1.5000030000
-0.0773151546 0.5791951584 0.5000010000 -0.5000000000 0.0000000000 -0.5000010000
-0.1174692349 0.4417368835 -0.5000010000 -0.5000000000 0.0000000000 -0.5000010000
-0.1153852308 0.0777521555 0.5000010000 -0.5000000000 0.0000000000 0.9623669247
-0.3658867318 0.4990739981 0.5000010000 -0.5000000000 0.0000000000 1.1331882664
0.3739037478 0.6409392819 0.5000010000 -0.5000000000 0.0000000000 -0.5000010000
0.0384030768 1.0000020000 0.4293648587 -0.5000000000 -1.0000020000 0.5000010000
-0.2598715197 0.3923527847 -0.5000010000 -0.5000000000 0.0000000000 -0.5000010000
-0.1796873594 0.4221758444 -0.5000010000 -0.5000000000 0.0000000000 1.5000030000
0.4024198048 1.0000020000 -0.0793311587 -0.5000000000 1.0000020000 0.5000010000
-0.0385700771 1.0000020000 0.3080066160 -0.5000000000 1.0000020000 0.5000010000
0.3758867518 0.2723435447 0.5000010000 -0.5000000000 0.0000000000 1.5000030000
-0.1694413389 1.0000020000 0.1921603843 -0.5000000000 -1.0000020000 0.5000010000
0.0628291257 0.0975741951 0.5000010000 -0.5000000000 0.0000000000 1.1604043208
0.2129164258 0.1039442079 -0.5000010000 -0.5000000000 0.0000000000 -0.5000010000
-0.3303796608 1.0000020000 -0.0900981802 -0.5000000000 1.0000020000 0.5000010000
0.2185534371 0.1014762030 0.5000010000 -0.5000000000 0.0000000000 -0.3200286401
-0.1818283637 1.0000020000 -0.2336084672 -0.5000000000 -1.0000020000 0.5000010000
0.1997003994 0.0851281703 0.5000010000 -0.5000000000 0.0000000000 -0.2848275697
-0.2509765020 0.8001856004 -0.5000010000 -0.5000000000 0.0000000000 1.5000030000
0.3788207576 0.6533943068 -0.5000010000 -0.5000000000 0.0000000000 -0.5000010000
-0.1921793844 1.0000020000 -0.4703429407 -0.5000000000 -1.0000020000 0.5000010000
-0.0742231484 1.0000020000 0.4873849748 -0.5000000000 1.0000020000 0.5000010000
0.1980553961 0.5801511603 0.5000010000 -0.5000000000 0.0000000000 1.5000030000
0.4307838616 0.7275554551 -0.5000010000 -0.5000000000 0.0000000000 1.5000030000
-0.1731303463 0.1151792304 -0.5000010000 -0.5000000000 0.0000000000 -0.5000010000
0.2093764188 1.0000020000 -0.4539049078 -0.5000000000 1.0000020000 0.5000010000
0.3740697481 0.0292140584 0.5000010000 -0.5000000000 0.0000000000 -0.4032828066
0.0169290339 0.5572071144 0.5000010000 -0.5000000000 0.0000000000 -0.5000010000
