-0.2382745012 1.4993186317 0.1965143477 -0.4661302141 0.0055431047 0.6719649293
-0.2894737064 0.0143819985 -0.6582710886 -0.4679557928 -0.0038891575 0.7516758156
0.4484432686 0.2002926631 0.2185673980 -0.4650922142 0.0212257872 0.7147437669
-0.3004201789 0.1831035070 0.0507524157 -0.5524431524 0.0000000000 0.7145667669
-0.2264605551 0.8971281687 -0.6578946150 -0.4878697908 0.0000000000 0.7576535518
-0.2892180748 1.6211031978 0.2108419778 -0.5409691010 0.0044008943 0.6813500862
-0.2368421330 1.0428150481 0.1650875089 -0.4686144770 0.0109380515 0.7042454522
-0.2537422891 0.9322650071 0.1842106122 -0.4964085793 -0.0031951049 0.7480426581
0.0137186828 0.9473683213 -0.3418989640 -0.5000000000 -0.0526315734 0.7105262936
-0.3058906520 0.2014482420 -0.0422457324 -0.4497325842 0.0000000000 0.7166917140
0.4937877375 0.1583830886 -0.5522902577 -0.4564707941 -0.0250826289 0.7204272400
0.4473683213 1.3433717007 0.1856154541 -0.4625496355 0.0036306312 0.6844737701
-0.3198715453 0.9473683213 -0.4671053719 -0.5000000000 0.0526315734 0.7105262936
0.0921119377 1.7554562363 0.2828914439 -0.5008102104 -0.0058437362 0.6593701411
-0.0628566776 1.7136407144 0.2868957593 -0.5000000000 -0.0058122099 0.7628359723
-0.2368421330 0.5602069937 0.1966966635 -0.4568203730 -0.0004340526 0.7138710301
0.1189266717 0.9473683213 -0.2985920212 -0.5000000000 0.0526315734 0.7105262936
0.3999040632 0.9365724277 0.0540685733 -0.5505945736 0.0090522622 0.7096252937
0.4473683213 0.8578018571 -0.6748053500 -0.5293732074 0.0003598947 0.6670897719
-0.2368421330 1.0364169962 0.1635544038 -0.4685703717 0.0106820515 0.7030232944
0.4408672694 0.2105262936 -0.1421153535 -0.4975435266 0.0367637330 0.7238713449
0.0436082586 1.6296565653 0.2775642339 -0.5000000000 -0.0058122099 0.7628359723
-0.3072870729 0.1892330327 -0.0659850457 -0.4493091106 0.0000000000 0.7164480825
0.4172243771 0.4926765271 0.1752575605 -0.4969971056 -0.0061068941 0.6676386666
0.4260199552 0.8534071207 -0.6578946150 -0.5330613649 0.0000000000 0.7481556581
0.3996745895 0.6874580329 0.1509098789 -0.5189445243 -0.0055920520 0.6662999825
0.4035925891 0.9595429516 0.1856428752 -0.5111623672 -0.0047883679 0.7544846574
-0.3052066521 0.9473683213 -0.7013515578 -0.5000000000 -0.0526315734 0.7105262936
0.4714621609 0.8532459102 -0.2298281863 -0.4560864257 -0.0193945243 0.7186611875
0.2712441820 1.7742938132 0.2555680784 -0.5032987891 0.0016397893 0.6600852463
-0.3063452309 0.1976981371 -0.0499733105 -0.4495244790 0.0000000000 0.7164950298
-0.2368421330 0.5386052065 0.1872112435 -0.4613481093 -0.0023387366 0.6970708740
-0.3053278626 0.8741975396 -0.1062336204 -0.4476655845 0.0000000000 0.7106862936
0.4408243220 0.2017842945 -0.5466465214 -0.5263207341 0.0253241552 0.7298687126
-0.1741157185 0.9473683213 -0.6025243050 -0.5000000000 0.0526315734 0.7105262936
0.4194362190 1.1725298766 0.1580685623 -0.5070361045 0.0051396837 0.6681092981
0.3322943861 1.8297074916 0.2680633402 -0.5021683156 0.0162298930 0.6620412461
0.3891452222 0.9473683213 -0.2210395557 -0.5000000000 -0.0526315734 0.7105262936
0.4099065884 0.9473683213 -0.2132734512 -0.5000000000 0.0526315734 0.7105262936
0.1308905125 0.8421051745 0.1319770914 -0.5000000000 -0.0524115208 0.7108823462
0.3226379660 0.9473683213 -0.1311056178 -0.5000000000 -0.0526315734 0.7105262936
0.4744470553 0.1578947202 -0.4914461588 -0.4830694755 -0.0317385756 0.7169450824
-0.0482459949 0.9473683213 -0.2574842361 -0.5000000000 -0.0526315734 0.7105262936
-0.0487129422 1.2826483387 0.2390077117 -0.5000000000 0.0058122099 0.6582166149
0.4999998947 0.0368362593 -0.6679401928 -0.4510326894 -0.0026125260 0.7107302936
-0.2368421330 0.3410661746 0.2461321846 -0.4676512139 0.0027773155 0.7488253949
-0.2935771270 0.8385717538 -0.6578946150 -0.4947436321 -0.0001982631 0.7603466568
-0.3092735464 0.0000000000 -0.6737611396 -0.4952441058 -0.0033181049 0.7260021341
0.2667059719 0.9473683213 -0.4406283747 -0.5000000000 0.0526315734 0.7105262936
-0.3030445997 0.8506544894 -0.0719844661 -0.5525149945 0.0000000000 0.7140272933
0.4242924290 0.2053765573 0.2638016564 -0.4894475801 0.0030903155 0.7519900787
-0.0449731532 1.4129066934 0.2534809207 -0.5000000000 0.0058122099 0.6582166149
0.0987657791 1.2161203457 0.2368421330 -0.5000000000 -0.0293049443 0.7477424476
-0.2894737064 1.1179440928 0.1902951905 -0.5445722058 -0.0006028420 0.7212510293
-0.1539448259 0.9473683213 -0.6115817777 -0.5000000000 0.0526315734 0.7105262936
0.4398707432 0.9235224291 -0.5454305215 -0.5405499431 0.0207264715 0.7101831358
-0.3133535460 0.9473683213 0.0259410499 -0.5000000000 0.0526315734 0.7105262936
0.4979175792 0.7803047600 -0.7105261884 -0.4653620036 0.0029185786 0.6730575607
0.1080329886 0.9473683213 -0.0331477334 -0.5000000000 -0.0526315734 0.7105262936
-0.2637019196 1.0679861507 0.1457693004 -0.4957792636 0.0048839995 0.6674306666
-0.2894737064 0.6666903509 0.2061040309 -0.5371069961 0.0039325785 0.7475865003
-0.2970100740 0.1888064012 0.1087240412 -0.4482419002 0.0000000000 0.7112485567
0.4430894270 0.2105262936 -0.5130742618 -0.5177167876 0.0386581012 0.7336011859
0.4999998947 0.0997529895 -0.6931481376 -0.4581760570 -0.0020314735 0.6893129274
-0.2368421330 1.6540087733 0.2355505015 -0.4660856878 0.0024246313 0.7050768205
0.4967214740 0.2105262936 -0.6102417252 -0.4685988454 0.0319467861 0.7371292382
0.4164251141 1.3947491690 0.1842120332 -0.5112939462 0.0057211573 0.6693857190
-0.2598006569 1.0301546810 0.1939501375 -0.5053829994 -0.0040546312 0.7503133421
0.2563057099 0.9473683213 0.1756669289 -0.5000000000 -0.0526315734 0.7105262936
0.4072816940 0.9473683213 -0.4701926347 -0.5000000000 -0.0526315734 0.7105262936
0.4392082696 0.8569720677 -0.5354945226 -0.5473531529 -0.0182707876 0.7155955036
-0.2242589764 0.9473683213 -0.2857382331 -0.5000000000 0.0526315734 0.7105262936
0.4434124796 1.6339250385 0.2123503987 -0.4646043721 0.0045535258 0.6807310336
0.0567995203 0.9473683213 -0.1469846161 -0.5000000000 -0.0526315734 0.7105262936
0.1111629357 0.9473683213 -0.6718143503 -0.5000000000 -0.0526315734 0.7105262936
0.2260577130 1.7542923417 0.2455672899 -0.5049172626 0.0039872627 0.6593539832
0.4388590591 0.7208469241 0.1993678211 -0.4730802134 0.0041301048 0.7488786054
-0.3010507052 0.1812343493 0.0400334695 -0.4486614791 0.0000000000 0.7132928723
-0.3426244903 0.9473684266 -0.4831266860 -0.5000000000 0.0526315734 0.7105262936
-0.3107535462 0.4010878525 -0.7105261884 -0.4962144215 0.0000098947 0.6717932977
0.4201416400 0.1709842452 -0.1950400847 -0.5396515221 -0.0220961556 0.7112978199
-0.2894737064 0.9112988514 -0.6665164562 -0.4816710546 0.0022503682 0.6626729302
-0.0425893639 0.9473683213 0.1089649359 -0.5000000000 -0.0526315734 0.7105262936
0.4502338473 0.1871318750 0.1881276118 -0.4677211613 0.0010123683 0.7146188721
-0.2946551795 0.9473683213 -0.0914998851 -0.5000000000 0.0526315734 0.7105262936
-0.3295325969 0.9473683213 0.1229579871 -0.5000000000 -0.0526315734 0.7105262936
-0.2368421330 0.3248303342 0.2193008717 -0.4552206363 -0.0012422104 0.7105591357
0.2842660227 0.9473683213 -0.5597816253 -0.5000000000 0.0526315734 0.7105262936
0.4424592166 0.9356311120 -0.5842577280 -0.5385680486 0.0290862075 0.7091561885
-0.3381515434 0.6892362959 -0.6578946150 -0.4542544785 0.0000000000 0.7280063971
-0.2368421330 1.4748625816 0.2120344514 -0.4663708456 0.0110288409 0.7001700316
-0.2855838120 1.4867746856 0.1950385584 -0.5318034703 0.0047160521 0.6769885077
0.0513345209 0.9473683213 0.1724125082 -0.5000000000 -0.0526315734 0.7105262936
-0.2633459723 0.0596863095 0.2820129703 -0.5070497887 0.0027730523 0.7525754997
0.4093609043 0.7365741330 0.1447703532 -0.5058063152 -0.0054563152 0.6660434036
0.4947851058 0.9090020096 -0.5796722548 -0.4523483734 0.0110414199 0.7170370298
0.4999998947 0.0082902097 -0.7076793992 -0.4620368461 -0.0020847893 0.6758875604
-0.0765142551 0.9473683213 -0.5384398907 -0.5000000000 0.0526315734 0.7105262936
0.4915448430 0.9473683213 -0.5818751493 -0.5000000000 0.0526315734 0.7105262936
0.1968273477 0.8422736482 -0.6578945097 -0.5097880516 0.0000000000 0.6610314567
-0.0639215196 0.8421051745 0.1435150902 -0.5000000000 -0.0460334688 0.7212022399
0.4432430060 0.1578947202 0.1734608765 -0.4855525805 -0.0455455742 0.7131279249
-0.3041237575 0.2104542936 -0.0122091566 -0.4501098474 0.0000000000 0.7167350824
-0.1164581456 1.2389075538 0.1842105596 -0.5000000000 0.0029211576 0.6733101397
-0.2894737064 0.8120422303 -0.6719115082 -0.4694705295 0.0004394736 0.6681741402
0.4355670594 0.1906014536 -0.4572737940 -0.5326366281 0.0071879466 0.7214524504
0.2993091790 0.9473683213 0.0426759955 -0.5000000000 -0.0526315734 0.7105262936
0.4095566411 0.8765483814 -0.0907188852 -0.5482444160 -0.0115982093 0.7129501881
0.0702420452 0.9160863246 -0.6578946150 -0.5000000000 0.0000000000 0.7631578670
-0.2391913432 0.1676604034 0.2685161823 -0.4759492657 0.0029777365 0.7541281838
0.4583525307 0.1578947202 -0.4439385848 -0.5053105784 -0.0365936804 0.7140539248
-0.2894737064 0.3648033827 0.1981891897 -0.5369883119 -0.0044629995 0.6833294018
-0.2555570784 0.9473683213 -0.1651436142 -0.5000000000 -0.0526315734 0.7105262936
0.0483968370 0.8421051745 0.1324637755 -0.5000000000 -0.0521424682 0.7113176620
0.2171031350 0.9473682161 -0.1269961445 -0.5000000000 -0.0526315734 0.7105262936
0.3268664393 0.9473683213 -0.3900812221 -0.5000000000 0.0526315734 0.7105262936
-0.2703673400 0.8021903892 0.1891998748 -0.5084434202 0.0037977364 0.7451702374
0.3612563830 0.9473683213 -0.2697122874 -0.5000000000 -0.0526315734 0.7105262936
0.4473683213 1.6087150938 0.2214791346 -0.4539785312 0.0026639471 0.6975878739
-0.2894737064 0.0314511020 -0.6683254033 -0.4649906879 -0.0033103681 0.7388548696
-0.2832092860 1.3434217007 0.2308050810 -0.5279132602 -0.0029118944 0.7481181844
0.4908932115 0.1760068762 -0.5030818944 -0.4579669518 -0.0032868418 0.7231572397
-0.2501701316 0.9473683213 -0.0038536838 -0.5000000000 0.0526315734 0.7105262936
-0.1688047191 0.9473683213 -0.6498028263 -0.5000000000 -0.0526315734 0.7105262936
0.4238635870 1.6416297219 0.2132568197 -0.4955585268 0.0054274731 0.6759265078
0.4473683213 0.9209759557 -0.6785455602 -0.5203526821 0.0005013157 0.6631456144
-0.2368421330 0.7535570786 0.1514448262 -0.4714012662 -0.0040509469 0.6782560865
0.3149643353 0.9473683213 -0.6253018289 -0.5000000000 0.0526315734 0.7105262936
-0.3021388629 0.9473684266 0.0879407802 -0.5000000000 0.0526315734 0.7105262936
-0.3421052798 0.4585095833 -0.6806301915 -0.5458933110 -0.0011344736 0.6951881900
0.2519784472 0.9473683213 -0.1292117232 -0.5000000000 0.0526315734 0.7105262936
-0.2884279170 0.0172124719 0.2346905542 -0.5357175752 -0.0068888940 0.6734249817
0.3947367479 0.6678326139 0.1995531895 -0.5430739428 0.0019192630 0.7337210807
-0.2521875524 0.0000000000 0.2733342344 -0.4937546849 -0.0000464737 0.7320042914
0.0745331500 0.9473683213 -0.1596015621 -0.5000000000 -0.0526315734 0.7105262936
-0.3148613353 0.1916770851 -0.1947478742 -0.5523727313 0.0000000000 0.7152525037
0.4473683213 0.1834915596 0.2601948147 -0.4628746881 0.0016545261 0.7387598696
0.4531265312 0.4793915285 -0.6578946150 -0.5209018925 0.0143760511 0.7294161337
0.4473683213 0.4525336892 -0.6753809815 -0.5431157849 -0.0012520525 0.7233652396
-0.3077551255 0.8466281214 -0.1426419850 -0.4476932687 0.0000000000 0.7112468199
0.4268581130 0.2881723907 0.2534521312 -0.4864984751 0.0032608944 0.7515022367
0.4111271146 0.8421051745 -0.0972644634 -0.5451087847 -0.0237520501 0.7145965564
-0.2310191862 0.9473683213 -0.3673883824 -0.5000000000 -0.0526315734 0.7105262936
0.4961802636 0.8324653861 -0.6578946150 -0.4568001098 -0.0122712092 0.7220760819
-0.3237826501 0.2034933996 -0.3464098583 -0.4531348997 0.0000000000 0.7283251865
0.3947367479 0.6792038759 0.1997464000 -0.5426403113 0.0021422629 0.7356240805
0.3947367479 1.4886577380 0.2295380285 -0.5312399967 -0.0003663158 0.7258827131
0.4659101615 0.2105262936 -0.3372559119 -0.4814124230 0.0360682594 0.7297882916
-0.2894737064 0.6800134547 -0.6970850845 -0.4678546350 0.0009058420 0.6707864557
-0.2894737064 0.5357004173 0.1749804026 -0.5370362593 -0.0040958943 0.6806788757
0.1393263538 0.9473683213 -0.2024885576 -0.5000000000 0.0526315734 0.7105262936
0.1039394627 0.8493551211 0.1842105596 -0.5019400524 -0.0205469978 0.7570979729
0.1199448821 0.9473683213 -0.2555490257 -0.5000000000 0.0526315734 0.7105262936
0.4473683213 0.0575507834 0.2449818689 -0.4630294776 -0.0040857890 0.6952070847
0.4473683213 0.9218992187 0.1404782484 -0.4688378454 0.0017236314 0.6785614549
0.0223786819 0.9342647438 -0.6578946150 -0.4959761057 0.0001078947 0.6591342464
0.1102558305 0.9473683213 -0.4717668451 -0.5000000000 -0.0526315734 0.7105262936
0.4009240104 0.8781474339 0.0387695749 -0.5483464160 -0.0110677883 0.7123683461
0.4241340080 0.9473683213 0.0690149401 -0.5029742102 0.0198740505 0.7125726092
-0.3086438096 0.9473683213 0.0588713096 -0.5000000000 0.0526315734 0.7105262936
-0.2894737064 0.6421364061 0.1954867689 -0.5370426277 0.0014970525 0.7283236602
0.3963135372 0.9473683213 -0.5141831564 -0.5000000000 -0.0526315734 0.7105262936
0.4209237452 0.3200502821 0.1968358740 -0.4958542110 -0.0060974204 0.6713017714
0.4015100630 0.8848585911 0.1315789861 -0.5360499962 -0.0074049992 0.7127167671
0.3947367479 1.3188645980 0.2186189244 -0.5284708917 -0.0024475261 0.7405656589
0.4179759560 0.1033600944 0.2239220817 -0.5068846835 -0.0056544205 0.6782041391
-0.3112684936 0.3203073347 -0.6578946150 -0.4704296347 -0.0012595788 0.7476610792
-0.3421052798 0.0100572621 -0.7027491366 -0.5393606801 -0.0021556840 0.6800187179
0.1654018773 0.9473683213 0.0657477826 -0.5000000000 0.0526315734 0.7105262936
0.2924340218 0.8692925401 -0.6578946150 -0.5177266823 0.0000000000 0.6635755091
0.4728912660 0.9129091671 -0.2512647104 -0.4523161629 0.0118584198 0.7180273981
0.4262624288 0.9230273239 -0.6578946150 -0.5123696303 0.0000000000 0.6605380357
0.2923572324 0.9473683213 0.0573626782 -0.5000000000 -0.0526315734 0.7105262936
-0.2924878639 0.1587926675 0.1856016120 -0.4477722687 0.0000000000 0.7089606096
0.3191985453 0.9473683213 -0.4607063199 -0.5000000000 -0.0526315734 0.7105262936
-0.2894737064 0.4564320572 0.2200736610 -0.5370628908 0.0012614736 0.7302807126
0.1740593501 0.9473683213 -0.4273735866 -0.5000000000 -0.0526315734 0.7105262936
-0.2330115544 0.9473683213 -0.5474275213 -0.5000000000 0.0526315734 0.7105262936
-0.2368421330 1.4814000020 0.2151780300 -0.4665614772 0.0117697882 0.7038328733
-0.2563138678 0.5752820447 0.2175634508 -0.4923165798 0.0034174207 0.7478640265
-0.2415640798 1.8291041759 0.2353126068 -0.4702671610 0.0063184730 0.6744724553
-0.2894737064 0.0266718919 -0.7011259788 -0.4558777415 -0.0017075261 0.6975371897
-0.2368421330 0.6434495112 0.1765794551 -0.4633667407 -0.0020920524 0.6976303476
0.4030122207 0.0746233079 0.2275142392 -0.5315513651 -0.0048979995 0.6828402965
0.0136504196 1.2177915034 0.2368421330 -0.5000000000 -0.0269414182 0.7477424476
0.4115548514 0.8899133800 -0.1206928820 -0.5487481528 -0.0069903677 0.7124541355
0.4978461055 0.6144057774 -0.6578946150 -0.4604802147 0.0146239458 0.7322131335
0.0783309918 1.4193073769 0.2541921311 -0.5000000000 0.0058122099 0.6582166149
0.4109104831 0.9473683213 -0.2595834464 -0.5000000000 -0.0526315734 0.7105262936
-0.2674912876 0.9473683213 -0.6365331962 -0.5000000000 0.0526315734 0.7105262936
0.0733980449 1.2235954501 0.2368421330 -0.5000000000 -0.0187334191 0.7477424476
-0.2894737064 0.0741586238 0.2567459203 -0.5370440487 -0.0016154735 0.7146835037
0.4618575303 0.8658831720 -0.0857604120 -0.4572492677 -0.0166298404 0.7175973981
-0.3339434385 0.8825072229 -0.5354668384 -0.4478544265 0.0008008420 0.7153149247
-0.3006004947 0.9371826908 -0.0353225226 -0.5525149945 0.0000000000 0.7140272933
0.4473683213 1.4667258456 0.2181818191 -0.4549761626 0.0009385788 0.7121556619
-0.2368421330 0.2118222409 0.2572445519 -0.4686415822 0.0020977893 0.7450127111
-0.2894737064 1.2583778675 0.1748851921 -0.5350152595 0.0038313154 0.6813057704
0.4873084224 0.0117047356 -0.6578946150 -0.4728932134 -0.0051547363 0.7216717135
-0.3080455465 0.1759871394 -0.0788790443 -0.4493879001 0.0000000000 0.7168318193
0.4217076398 1.5693664138 0.2047551890 -0.5008091578 0.0056060520 0.6735287712
-0.2368421330 0.6911688220 0.1885555591 -0.4571658992 0.0006901052 0.7219136082
-0.1597157727 0.9473683213 -0.4318744282 -0.5000000000 0.0526315734 0.7105262936
-0.2027279260 0.9473683213 0.1630160881 -0.5000000000 -0.0526315734 0.7105262936
0.2627142881 0.9473683213 -0.4089954833 -0.5000000000 0.0526315734 0.7105262936
-0.3349501226 0.1702135084 -0.7105261884 -0.5286611022 -0.0012573683 0.6721470345
-0.3242966501 0.9473683213 -0.4379649013 -0.5000000000 -0.0526315734 0.7105262936
0.4473683213 0.7662006562 0.1796710864 -0.4629232671 0.0019220524 0.7278559234
-0.3421052798 0.8336083859 -0.6820231914 -0.5455513110 0.0004509473 0.6934779796
0.4938860533 0.2078909781 -0.5539589943 -0.4670593719 0.0294807864 0.7348045016
0.4486371107 0.8421051745 -0.3474466476 -0.5114650514 -0.0284880496 0.7163805035
0.4473683213 1.6633204565 0.2366219751 -0.4578357413 0.0014783683 0.7106190831
0.3947367479 0.3679225929 0.2105135568 -0.5444760479 -0.0017886314 0.7047256627
0.3947367479 0.2418327114 0.2312385546 -0.5420077324 -0.0010093683 0.7145384511
0.3947367479 1.4697701611 0.2223943450 -0.5309033125 0.0003826842 0.7191670296
0.4473683213 0.8244684395 0.1424300376 -0.4628872144 -0.0024527892 0.6855994015
0.3158473352 0.9473683213 -0.6358097225 -0.5000000000 -0.0526315734 0.7105262936
0.3953458005 1.1827487702 0.2119023461 -0.5255585763 -0.0044594732 0.7553182889
-0.1397698274 1.2569072887 0.1842105596 -0.5013651578 0.0282111023 0.6734757712
-0.2651334984 1.3799966968 0.1824764545 -0.4965366846 0.0057594204 0.6690285612
-0.1704952978 0.9473683213 0.1101588831 -0.5000000000 0.0526315734 0.7105262936
0.4422317429 0.9006011157 -0.5808463599 -0.5422219956 0.0084332623 0.7120310829
-0.2368421330 1.1169661456 0.1533766681 -0.4664048456 0.0049449468 0.6732872449
-0.2813849704 0.3666071193 0.1910162957 -0.5278633655 -0.0058077889 0.6719604556
0.4501893737 0.2105262936 -0.0037075259 -0.4755253710 0.0374788382 0.7210744504
0.4667223719 0.9213631135 -0.1587331938 -0.4525474787 0.0146854195 0.7177106087
-0.2904785484 0.1681937718 0.2197595032 -0.5525317839 0.0000000000 0.7137041354
0.4030710628 0.1578947202 0.1650235616 -0.5324469966 -0.0379532065 0.7126709776
0.4297733232 0.7886349696 0.1908942957 -0.4888725275 0.0038455259 0.7457435531
-0.2368421330 1.7240209238 0.2602078673 -0.4648464774 -0.0000505263 0.7274039761
0.4999998947 0.4976178424 -0.6671691403 -0.4517455840 -0.0012237367 0.7152946089
0.4801738968 0.1585571412 -0.3208532820 -0.4622615829 -0.0310065231 0.7183441349
-0.0372874698 1.4918380009 0.2622510250 -0.5000000000 -0.0058122099 0.7628359723
0.0319789966 1.4135766933 0.2535553417 -0.5000000000 -0.0058122099 0.7628359723
-0.1298808284 1.2426929218 0.1842105596 -0.5000000000 0.0082745254 0.6733101397
-0.2694612348 0.9130308513 0.1315789861 -0.5067295256 0.0017773156 0.6693056664
0.4849642647 0.3119045987 -0.6578946150 -0.4806731073 0.0297163127 0.7366676067
0.3947367479 0.3592915938 0.2142408196 -0.5458497846 -0.0013561051 0.7087551886
0.3947367479 1.2546510785 0.1971264529 -0.4779126339 0.0294407337 0.7030725049
-0.3421052798 0.8384971223 -0.6602744042 -0.5518779419 -0.0002941579 0.7094470832
0.2649505511 0.9473683213 -0.1217406714 -0.5000000000 -0.0526315734 0.7105262936
0.0483755739 1.5798908337 0.2720347082 -0.5000000000 -0.0058122099 0.7628359723
0.4326947966 0.1635218249 -0.4084439570 -0.5382571539 -0.0307102073 0.7115435040
0.2366768172 1.7645213406 0.2506818683 -0.5048582626 0.0050700521 0.6596368779
-0.3421052798 0.4330163755 -0.6821000861 -0.5454628900 -0.0011892630 0.6941409796
-0.2368421330 1.4066108519 0.2235857133 -0.4701013716 -0.0012602104 0.7320258177
0.4470115319 0.9473683213 -0.5461386794 -0.5249151553 0.0361636804 0.7092968201
0.4697218453 0.0521144156 -0.6578946150 -0.5080465781 -0.0113945777 0.7254808710
0.0181558928 0.9473683213 -0.2674258666 -0.5000000000 0.0526315734 0.7105262936
-0.2894737064 0.8570649098 -0.7056619257 -0.4722186871 0.0019835787 0.6666758246
0.0565065730 0.9473683213 -0.2735677080 -0.5000000000 -0.0526315734 0.7105262936
0.4473683213 0.8754815394 0.1350428279 -0.4473684266 0.0000000000 0.7105262936
0.4341254806 0.9473683213 0.0361997857 -0.4878501065 0.0225117871 0.7137199775
0.2248493448 0.9473683213 0.0268086288 -0.5000000000 -0.0526315734 0.7105262936
-0.3069104940 0.9473683213 0.0455278373 -0.5000000000 0.0526315734 0.7105262936
0.4473683213 0.5857547278 0.1850939279 -0.4629610565 -0.0013935788 0.7037475575
-0.3261083867 0.9145533774 -0.4179409560 -0.4476719002 0.0013454735 0.7121595566
0.4401644800 0.2094709253 -0.5354303121 -0.5241652080 0.0364305225 0.7333291333
0.0108668936 1.8376984908 0.2872704434 -0.4997267369 0.0187469980 0.6618279303
-0.2646898142 1.6449453532 0.2662784457 -0.4981931581 -0.0031705260 0.7551502363
0.0135299986 0.8421051745 0.1621472461 -0.5000000000 -0.0357338383 0.7378673434
-0.3306778599 0.9254691657 -0.6578946150 -0.4590118464 0.0020125261 0.7237538186
0.3341787543 1.7691568138 0.2529996049 -0.4966096846 -0.0030587365 0.6607260357
0.4326981123 0.9068853782 -0.4378414276 -0.5443086795 0.0074815255 0.7116419777
-0.2942040217 0.9226551134 0.0606240989 -0.4475389003 0.0000000000 0.7081176097
0.2764263393 1.7443970269 0.2894737064 -0.5000000000 -0.0278471550 0.7539739206
-0.2401667116 0.9473683213 -0.0715567293 -0.5000000000 -0.0526315734 0.7105262936
0.4652375826 0.1848279805 -0.0669355193 -0.4618842672 0.0041662101 0.7168505035
0.4755304236 0.1578947202 -0.6088430412 -0.4893212643 -0.0301606284 0.7169264508
0.4185600086 0.8818638545 0.1842105596 -0.5042349996 0.0009368946 0.7381576591
0.4516462156 0.8808883810 0.0674104666 -0.4583410570 -0.0127895776 0.7164856088
-0.2468371845 0.4525600576 0.2329037123 -0.4806840020 0.0031555260 0.7489918685
0.1257840394 0.9473683213 -0.2595666043 -0.5000000000 -0.0526315734 0.7105262936
-0.2949616005 0.2104268200 0.1435479323 -0.5525398892 0.0000000000 0.7136255565
0.1161310404 0.9473683213 -0.6680281402 -0.5000000000 0.0526315734 0.7105262936
0.4751851079 0.9208267452 -0.2856728647 -0.4525917418 0.0147135774 0.7172489245
-0.2492533948 0.1506811420 0.2706385505 -0.4907920536 0.0031577891 0.7551954468
-0.1175859876 0.9473683213 -0.3590106991 -0.5000000000 -0.0526315734 0.7105262936
-0.0879344644 0.9473683213 0.0940364112 -0.5000000000 -0.0526315734 0.7105262936
-0.3251392289 0.1629581407 -0.3694718032 -0.4511630051 0.0000000000 0.7254801342
0.3603956463 1.2368787119 0.2368421330 -0.4889906327 -0.0058990520 0.7509288683
0.4184289033 0.9473683213 -0.1463086162 -0.5000000000 -0.0526315734 0.7105262936
0.4448851637 0.6320506177 0.2104673463 -0.4657520036 0.0038835259 0.7481006055
0.4473683213 0.3710272241 -0.6665551930 -0.5444298374 -0.0026408945 0.7289931864
0.2669104982 0.9473683213 0.0905718852 -0.5000000000 -0.0526315734 0.7105262936
-0.3063226520 0.9473683213 -0.4119668514 -0.5000000000 0.0526315734 0.7105262936
0.3898295379 0.9473683213 -0.3040661259 -0.5000000000 0.0526315734 0.7105262936
-0.2894737064 1.0268068919 0.1669821403 -0.5371225750 0.0013103683 0.7017569788
0.4516422682 0.7716295504 -0.6578946150 -0.5359351541 -0.0153827352 0.7195411348
-0.2894737064 0.8596548042 -0.6861784015 -0.4712648451 0.0012104736 0.6668970877
0.5000000000 0.8768227498 -0.6685254559 -0.4526542155 0.0003718421 0.7163075562
0.2392825538 0.9473683213 0.1710814557 -0.5000000000 0.0526315734 0.7105262936
-0.3213535451 0.9473683213 -0.2957713899 -0.5000000000 0.0526315734 0.7105262936
0.4289790601 0.9473683213 -0.0105696831 -0.5000000000 -0.0526315734 0.7105262936
0.4128350618 0.7293110811 0.1983097686 -0.5136678933 0.0033484733 0.7441210796
0.1192761980 0.8482944370 -0.6578945097 -0.5020068419 0.0000000000 0.7622472356
-0.2644327616 0.4231454291 0.2365805014 -0.5082631570 0.0036406312 0.7523330261
-0.3391351748 0.9473683213 -0.5473674687 -0.5000000000 -0.0526315734 0.7105262936
0.4414117956 0.2105262936 -0.2051185047 -0.5007025789 0.0371284698 0.7255421342
-0.0630733618 1.7925944955 0.2894737064 -0.5000000000 -0.0084696307 0.7616604461
-0.2823533913 0.4188375875 0.1844874016 -0.5289706812 -0.0055748415 0.6721344029
-0.1687222454 0.9473683213 -0.3907634326 -0.5000000000 -0.0526315734 0.7105262936
0.4493583738 0.2105262936 -0.5279612076 -0.5098725253 0.0394844169 0.7344723964
0.1582199307 0.9216485346 0.1842105596 -0.5070708940 0.0111178936 0.7557666047
0.4126831671 1.2757263920 0.1702093505 -0.5148605774 0.0052813679 0.6692644032
0.2050585574 1.3523325419 0.2467503951 -0.5000000000 -0.0058122099 0.7628359723
-0.0606120463 1.2915980219 0.2400021326 -0.5000000000 0.0058122099 0.6582166149
-0.0589050991 1.4424160061 0.2567597098 -0.5000000000 0.0058122099 0.6582166149
-0.3029633892 0.9367929014 -0.0707666768 -0.4475452160 0.0005455789 0.7087919254
0.3947367479 0.9541313732 0.1387443012 -0.5324669440 0.0058413152 0.6795094022
-0.2988708633 0.1640865090 0.0770904129 -0.5524569945 0.0000000000 0.7144323458
-0.2894737064 1.0479154160 0.1609451410 -0.5341613122 0.0025119471 0.6906801905
0.4473683213 1.0793458864 0.1730262449 -0.4616134777 0.0012709999 0.7029124523
-0.2894737064 0.6310631441 -0.6855795594 -0.4661740562 0.0002403684 0.6720540345
0.4927572113 0.8582196465 -0.5492548369 -0.4506736894 -0.0069452098 0.7212729241
0.4285430075 1.7947747058 0.2839054438 -0.4974181582 -0.0027211576 0.7545597100
-0.1182981454 0.9096410621 0.1842105596 -0.4824062124 0.0043827364 0.7530360786
-0.2894737064 1.4574187940 0.2326663439 -0.5383242065 -0.0011021051 0.7327923965
-0.2894737064 1.8025133366 0.2675120771 -0.5322023650 -0.0004795789 0.7334113965
0.0294636811 0.9473683213 -0.4742470027 -0.5000000000 -0.0526315734 0.7105262936
0.4999998947 0.0295735232 -0.6792747706 -0.4541731101 -0.0024593682 0.7007998210
-0.2998590737 0.8424479113 -0.6578946150 -0.4909440010 0.0000000000 0.7573709729
0.4282938497 0.2105262936 -0.1646076143 -0.5190843138 0.0336047859 0.7230736081
0.4999998947 0.3208793346 -0.6741426132 -0.4533308996 -0.0016531577 0.7077296097
-0.2613343935 0.6000040947 0.1618416145 -0.5052949994 -0.0056275784 0.6679990349
-0.0062570520 0.9473683213 0.1400717747 -0.5000000000 0.0526315734 0.7105262936
0.4436273217 1.1011560420 0.1496716685 -0.4776481076 0.0051429995 0.6671747719
-0.1189061454 0.9473683213 -0.4727242134 -0.5000000000 -0.0526315734 0.7105262936
0.0879004118 0.9473683213 -0.0838635701 -0.5000000000 -0.0526315734 0.7105262936
0.4473683213 1.4454653215 0.2378451855 -0.4643057932 -0.0019615787 0.7413217114
0.4418029535 1.2147861879 0.1630398776 -0.4776998971 0.0050975784 0.6696110348
0.1727302450 0.8421051745 0.1318341966 -0.5000000000 -0.0524904682 0.7107545568
0.0709375715 1.7528036050 0.2894737064 -0.5000000000 -0.0079485781 0.7623992882
-0.3421052798 0.2354962910 -0.6980922949 -0.5408360483 -0.0015269472 0.6821241914
-0.1126950408 0.9473683213 -0.0616575198 -0.5000000000 0.0526315734 0.7105262936
-0.3285630180 0.8971769582 -0.4547607942 -0.4477708476 0.0009308420 0.7137511880
0.4913006851 0.8820559072 -0.5274066813 -0.4514421630 0.0014354735 0.7194284506
0.0703178873 0.9473683213 -0.3775141182 -0.5000000000 -0.0526315734 0.7105262936
0.4885602117 0.8811921704 -0.4863006330 -0.4513938999 0.0010599999 0.7196620295
0.4386713222 0.4818850019 0.2292380811 -0.4728997397 0.0035923154 0.7492766053
-0.2368421330 1.4480782160 0.2041473469 -0.4660505825 0.0095105253 0.6928049797
-0.1322060913 0.9473683213 -0.4257183236 -0.5000000000 0.0526315734 0.7105262936
0.2214721872 1.6895676116 0.2842210227 -0.5000000000 -0.0058122099 0.7628359723
-0.2550168153 0.7044903469 0.1487808264 -0.4981926318 -0.0054529994 0.6667424035
0.1361642488 0.9307750073 0.1842105596 -0.5051035784 0.0154546300 0.7562770783
0.0198397874 1.2105261884 0.1960936636 -0.5000000000 -0.0372161540 0.6901153484
-0.0787784128 1.2918399693 0.2400290274 -0.5000000000 0.0058122099 0.6582166149
0.4473683213 0.1894129274 -0.7070634519 -0.5424897850 -0.0009034736 0.6816869282
-0.3314071230 0.7846346016 -0.6578945097 -0.4597506358 0.0000000000 0.7308278704
0.3947367479 0.4766021077 0.2048587153 -0.5446555216 -0.0006809473 0.7129733986
0.0410613641 1.7575117624 0.2705307084 -0.4976504213 -0.0031574734 0.6590468780
-0.2894737064 0.5997965158 0.1897495590 -0.5370384698 -0.0003564736 0.7127831881
0.4473683213 0.6572518256 -0.6956814005 -0.5327319966 0.0001901052 0.6713012451
0.4138596406 0.8564094888 -0.1552641416 -0.5474508897 -0.0185242086 0.7141284511
0.1461841951 1.2166447667 0.1842105596 -0.5000000000 -0.0285632075 0.6733101397
0.4300042179 0.0076159466 0.2885217591 -0.4828406860 0.0025447366 0.7509457104
0.4462619530 0.9473683213 -0.2551454468 -0.4958239478 0.0304892073 0.7123647145
0.4939002112 0.0603783094 -0.7105262936 -0.4711764241 -0.0018164209 0.6734331923
-0.2894737064 0.8722939082 -0.6847914542 -0.4714726346 0.0012069999 0.6666323509
0.4191184822 0.5469985740 0.1684672981 -0.4948442111 -0.0058332625 0.6679920349
-0.1422816692 0.9473683213 -0.6260864604 -0.5000000000 -0.0526315734 0.7105262936
-0.2600443937 0.1783191391 0.2145522406 -0.4952484742 -0.0057570520 0.6760862446
0.0636266775 1.8028482313 0.2818134440 -0.4990498422 0.0051017889 0.6592966148
-0.2368421330 0.9675195824 0.1730320870 -0.4704938978 0.0158238931 0.7296398706
0.4999998947 0.6083855149 -0.6782607707 -0.4550028995 -0.0006191052 0.7063419783
0.4334064281 1.3768193814 0.2347341858 -0.4829273702 -0.0033399996 0.7521300261
0.4397562695 0.9291190075 0.1315789861 -0.4816664756 0.0034286312 0.6665972456
-0.2372358698 0.0000000000 0.2593982359 -0.4637490038 -0.0012729472 0.7171660298
0.3961044320 0.9018667998 0.1110630409 -0.5492798895 -0.0029097892 0.7109952409
-0.3238777027 0.8857876436 -0.3844809595 -0.5525149945 0.0000000000 0.7140272933
0.2394110801 0.9473683213 -0.2850271805 -0.5000000000 0.0526315734 0.7105262936
0.1590121938 1.8189538612 0.2894737064 -0.5000000000 -0.0019029998 0.7630003407
-0.3234772817 0.2672291298 -0.7105261884 -0.5134829459 -0.0007128947 0.6717692451
0.4473683213 1.6633198775 0.2554570784 -0.4662185299 -0.0009931052 0.7358397646
0.3947367479 1.0267376814 0.1522197208 -0.5323284176 0.0075544203 0.6873747698
0.0762023078 0.9473683213 -0.5340251017 -0.5000000000 0.0526315734 0.7105262936
0.4444231637 0.8421051745 -0.0995763579 -0.4921862113 -0.0322878387 0.7157437668
0.2312179757 0.9473683213 -0.6082473570 -0.5000000000 -0.0526315734 0.7105262936
-0.0463115741 0.9473683213 -0.0475721529 -0.5000000000 0.0526315734 0.7105262936
0.0994590948 0.9473683213 -0.6145904616 -0.5000000000 -0.0526315734 0.7105262936
-0.2368421330 0.4796395285 0.1777659287 -0.4667437403 -0.0049265784 0.6747144027
-0.0964518846 0.8807501704 -0.6578946150 -0.4956843162 0.0000000000 0.7611995515
-0.0918468324 0.9473683213 -0.4813860020 -0.5000000000 0.0526315734 0.7105262936
-0.3156822826 0.8781143286 -0.2615493935 -0.5525149945 0.0000000000 0.7140272933
0.0450400479 1.2851880226 0.2392899748 -0.5000000000 -0.0058122099 0.7628359723
0.0587652043 0.9473683213 -0.2072615571 -0.5000000000 -0.0526315734 0.7105262936
-0.2894737064 1.5472665213 0.2438310796 -0.5357991015 -0.0012145788 0.7357552910
0.1077487781 1.7676483929 0.2894737064 -0.5000000000 -0.0061203151 0.7626513408
-0.3191634401 0.9473683213 -0.6532510365 -0.5000000000 0.0526315734 0.7105262936
0.1255420394 1.2105261884 0.2205153452 -0.5000000000 -0.0372161540 0.7246528711
-0.2267422919 0.9473683213 -0.6953088742 -0.5000000000 0.0526315734 0.7105262936
-0.2971275477 0.9473683213 -0.2988546528 -0.5000000000 0.0526315734 0.7105262936
0.4290292706 1.6841660859 0.2182610823 -0.4862589488 0.0051464205 0.6783348233
-0.2368421330 0.2494818158 0.2203424505 -0.4541672680 -0.0024137366 0.7009761894
-0.3690467506 0.9473683213 -0.5837983596 -0.5000000000 0.0526315734 0.7105262936
0.4250690079 0.9323940071 -0.3234041239 -0.5438803112 0.0187298401 0.7096516095
-0.3302852810 0.2599311832 -0.7105261884 -0.5231023660 -0.0008228947 0.6713700346
0.4586120570 0.1626397724 0.0456978373 -0.4704506347 -0.0343058385 0.7151604510
-0.2956946531 0.9473683213 -0.1770499814 -0.5000000000 0.0526315734 0.7105262936
-0.3025951260 0.6715148767 -0.7105261884 -0.4892278432 0.0012373157 0.6676511929
-0.2940587585 0.2055314520 0.1588964570 -0.4479353739 0.0000000000 0.7097553990
-0.2632875512 1.4324560071 0.2412797114 -0.5000964210 -0.0038852101 0.7573036571
0.4478173739 0.2968323898 -0.7105261884 -0.5392224169 -0.0005447894 0.6791036654
0.3489929106 0.9473683213 -0.4048264311 -0.5000000000 0.0526315734 0.7105262936
0.4113024830 0.9473683213 -0.6416878798 -0.5000000000 0.0526315734 0.7105262936
-0.0390798906 0.8421051745 0.1760745078 -0.5000000000 -0.0280350497 0.7503242894
0.4351592700 1.5892749906 0.2597289727 -0.4859955278 -0.0033269996 0.7565240783
-0.3548545416 0.9473683213 -0.2271028182 -0.5000000000 0.0526315734 0.7105262936
0.4473683213 1.8095831779 0.2337205543 -0.4535992154 0.0040760522 0.6871912961
0.4473683213 0.5284569970 0.1786547707 -0.4629675828 -0.0036986312 0.6845850332
0.3947367479 0.3872362750 0.2299280811 -0.5381442591 0.0013148946 0.7338093964
0.4571236887 0.9331083755 -0.0147507879 -0.4528612681 0.0185866823 0.7173319245
0.1772520340 0.9473683213 -0.2019314524 -0.5000000000 0.0526315734 0.7105262936
0.4690071085 0.0469691530 -0.7105261884 -0.5110540515 -0.0015235788 0.6796810337
-0.2214119767 0.9473683213 -0.3561972783 -0.5000000000 0.0526315734 0.7105262936
0.3947367479 1.6385116696 0.2215580293 -0.5352412594 0.0085528938 0.6859847699
0.3947367479 0.0817962019 0.2332493965 -0.5460072057 -0.0034883154 0.6940891375
0.3999329579 1.3825439071 0.1827761387 -0.5292501548 0.0052898942 0.6710650346
0.3947367479 0.3468774372 0.2249308184 -0.5416011009 -0.0000774210 0.7212837662
-0.3421052798 0.5525534155 -0.6649487721 -0.5503371526 -0.0010911051 0.7079846097
-0.3212924925 0.9473683213 -0.4021935892 -0.5000000000 0.0526315734 0.7105262936
0.0216140504 0.9473683213 -0.2500776053 -0.5000000000 -0.0526315734 0.7105262936
0.2028579260 0.9473683213 -0.6655758247 -0.5000000000 -0.0526315734 0.7105262936
0.4957376847 0.8835498544 -0.5939603059 -0.4515233735 0.0020771050 0.7190425559
0.4598287411 0.2638965512 -0.7105261884 -0.5208517873 -0.0007961052 0.6769781393
0.4355977963 1.3539757522 0.1794151916 -0.4840895806 0.0052212100 0.6715795609
-0.2516742367 1.6086575675 0.2093777148 -0.4808371073 0.0061098941 0.6714270346
0.4671538456 0.9473683213 -0.6244388290 -0.5000000000 0.0526315734 0.7105262936
-0.2977519160 0.9473683213 -0.6648641405 -0.4830856860 0.0035255786 0.6675250876
-0.2485095528 1.8421050693 0.2577554992 -0.4764227920 0.0029302102 0.7052242416
-0.0984988317 0.9473683213 0.1244915658 -0.5000000000 -0.0526315734 0.7105262936
0.4425102166 0.8546592258 -0.5850225700 -0.5468491003 -0.0183728402 0.7157938720
0.4313704809 1.1686819822 0.2102474516 -0.4803357389 -0.0033699996 0.7479580792
0.4958059478 0.1730144028 -0.5865958330 -0.4576576360 -0.0069063151 0.7243826606
0.0703095189 0.8685571717 0.1842105596 -0.4992295264 -0.0118077882 0.7574014992
0.4566220572 0.9473683213 -0.5328725229 -0.5000000000 -0.0526315734 0.7105262936
0.4473683213 1.5700689926 0.2307488178 -0.4577582676 0.0008452631 0.7151957668
0.4034140628 0.1593237727 0.0893282538 -0.5374561013 -0.0355394699 0.7124364513
-0.2453410794 0.0000000000 0.2700898663 -0.4814102125 -0.0001708421 0.7294092390
0.4153694300 0.2152089773 0.2625725513 -0.4997362106 0.0032182102 0.7536541838
0.4188556928 0.8423628587 -0.2302059758 -0.5468879951 -0.0233503133 0.7150677142
0.4473683213 0.1150223563 0.2362329751 -0.4630442670 -0.0042213680 0.6929982428
0.1607558778 1.8214406504 0.2791416022 -0.5012717893 0.0177883665 0.6616301935
0.2296798706 1.2105261884 0.1996769263 -0.5000000000 -0.0372161540 0.6951829795
0.2107285041 0.9473683213 -0.0539366259 -0.5000000000 -0.0526315734 0.7105262936
-0.2894737064 0.8539682785 0.1780551392 -0.4635825828 -0.0035538417 0.7398360800
0.4473683213 1.6596638779 0.2639675512 -0.4701055821 -0.0021648419 0.7477231845
0.0193001559 0.9473683213 -0.0040237891 -0.5000000000 0.0526315734 0.7105262936
-0.2894737064 1.5980980949 0.2449878163 -0.5366668909 -0.0006011578 0.7305226073
0.4323187440 0.8421051745 -0.0927615166 -0.5107915778 -0.0292882601 0.7153169247
0.3870290645 0.9473683213 -0.6951310847 -0.5000000000 0.0526315734 0.7105262936
0.3947367479 1.1621265092 0.1851621384 -0.5313488388 0.0131242618 0.7140032406
0.4757933183 0.3421014903 -0.7105261884 -0.4937381586 -0.0007895789 0.6714006135
-0.2266888182 0.9473683213 -0.1143579880 -0.5000000000 0.0526315734 0.7105262936
-0.3407969641 0.3868766435 -0.7105261884 -0.5356284173 -0.0003665263 0.6731209291
0.4005664315 0.2105262936 0.2315032388 -0.5380797855 0.0250502605 0.7099153463
0.4473683213 1.5475718371 0.2083576096 -0.4579441623 0.0035852628 0.6879437171
0.4608918462 0.2131792933 -0.7105261884 -0.5202827347 -0.0009518420 0.6778686655
0.4443773743 0.0958914636 0.2248556605 -0.4664564772 -0.0066581572 0.6730254028
0.4035149575 0.2068241361 0.0876137803 -0.5437696270 0.0208722610 0.7120777145
-0.0994427790 0.9473683213 0.0834609912 -0.5000000000 0.0526315734 0.7105262936
0.4473683213 0.3199422821 -0.7001903473 -0.5399578379 -0.0006674736 0.6788448759
0.4390075854 0.8421051745 -0.0705716768 -0.4977554213 -0.0313955756 0.7155102931
0.4498664263 0.8636865407 0.0941075164 -0.4603560042 -0.0234958923 0.7160485562
0.4998145790 0.3248653342 -0.7105261884 -0.4630625828 0.0000461053 0.6733368765
-0.3258194920 0.1863322435 -0.3810357494 -0.5523250471 0.0000000000 0.7157162931
0.2265249762 0.9473683213 -0.4540174259 -0.5000000000 0.0526315734 0.7105262936
-0.2894737064 0.6981839791 -0.6625398250 -0.4604275305 -0.0004493157 0.7405386589
0.3134236512 0.9473683213 -0.0274939971 -0.5000000000 0.0526315734 0.7105262936
0.4999998947 0.1905599273 -0.7062066625 -0.4617768461 -0.0011595262 0.6777670866
-0.2089049254 0.9473683213 -0.0212635241 -0.5000000000 -0.0526315734 0.7105262936
-0.3493289106 0.9473683213 -0.2961762320 -0.5000000000 -0.0526315734 0.7105262936
-0.0973026740 1.7466856582 0.2894737064 -0.5000000000 -0.0163256825 0.7602710779
0.4480263739 0.1578947202 -0.0733424133 -0.4965015793 -0.0434347323 0.7128341355
-0.2788331812 1.3010138104 0.1731843502 -0.5163802088 0.0052297363 0.6705155610
0.4473683213 0.6275450392 -0.6613043514 -0.5418297851 -0.0012511051 0.7382465539
-0.3312405967 0.9152811142 -0.4949246321 -0.5525149945 0.0000000000 0.7140272933
-0.3390760696 0.1598197727 -0.6063980941 -0.5520985208 0.0000000000 0.7179210297
-0.2086436622 0.9473683213 -0.0743382553 -0.5000000000 -0.0526315734 0.7105262936
-0.2894737064 0.2520360787 0.2388861854 -0.5370484698 -0.0004164736 0.7208215031
0.4013534314 0.7211510820 0.1466982477 -0.5152859984 -0.0057193678 0.6649151405
0.2355050805 1.4421266903 0.2567275519 -0.5000000000 0.0058122099 0.6582166149
0.0597962042 0.9473683213 -0.5235339449 -0.5000000000 0.0526315734 0.7105262936
-0.3421052798 0.0406609957 -0.6932731376 -0.5420239956 -0.0022091577 0.6879905592
-0.0784742549 0.9473683213 -0.4816947914 -0.5000000000 -0.0526315734 0.7105262936
0.4489045317 0.2105262936 -0.0363495751 -0.4788755285 0.0378075750 0.7218942924
0.0046472100 0.9473683213 -0.3718271714 -0.5000000000 0.0526315734 0.7105262936
0.0505460999 0.8749376447 0.1842105596 -0.4974666845 -0.0091831043 0.7569440256
-0.2894737064 0.0946569900 0.2277381866 -0.5369173119 -0.0061386309 0.6774539287
0.4718863714 0.8963740635 -0.2361930278 -0.4520126366 0.0055605257 0.7192445032
-0.3076718097 0.9355648489 -0.1413924062 -0.4475522160 0.0008179473 0.7092060306
0.4473683213 0.6169065666 0.1973860845 -0.4629634250 0.0012085262 0.7265618183
-0.2368421330 0.1456975636 0.2496332895 -0.4632341618 -0.0001031053 0.7252620816
-0.2368421330 1.5085326307 0.2381722907 -0.4684003717 -0.0013393156 0.7345226595
-0.2894737064 0.5753801500 -0.7075635571 -0.4660824773 0.0008943683 0.6729926660
-0.0638119407 0.9473683213 -0.4302349021 -0.5000000000 0.0526315734 0.7105262936
-0.3439657533 0.9473683213 -0.4333242175 -0.5000000000 -0.0526315734 0.7105262936
0.2022515050 0.9473683213 -0.2465618688 -0.5000000000 -0.0526315734 0.7105262936
0.4259824288 0.8886740644 -0.3371055961 -0.5480978897 -0.0064643151 0.7132238197
-0.0733528344 0.9473683213 -0.4244425869 -0.5000000000 0.0526315734 0.7105262936
-0.0273621550 0.9473683213 -0.6439461954 -0.5000000000 0.0526315734 0.7105262936
-0.2732498133 1.7002220316 0.2727816029 -0.5071478940 -0.0030746313 0.7561200783
0.4471654266 0.0541299943 0.2300758705 -0.4633208986 -0.0067186309 0.6735787712
-0.3051698100 0.8945761164 -0.1038626206 -0.4476637950 0.0000000000 0.7106498199
0.4306487968 0.8488142264 -0.4071027993 -0.5470802056 -0.0211006294 0.7154660300
0.4278954813 0.9273825340 -0.3658014878 -0.5435842059 0.0171656824 0.7100250832
0.3849528542 1.7661743404 0.2894737064 -0.4845353174 -0.0050836837 0.7576907097
0.4228509555 0.1802775073 -0.2410986062 -0.5413963641 -0.0113770514 0.7106109778
0.3580535939 1.7368419224 0.2528660260 -0.4919177903 -0.0182586823 0.6887679275
-0.2615142356 0.9473683213 -0.6331545123 -0.5000000000 0.0526315734 0.7105262936
-0.3682114349 0.9473683213 -0.5554099942 -0.5000000000 -0.0526315734 0.7105262936
0.2116922409 1.3005011263 0.2409913957 -0.5000000000 -0.0058122099 0.7628359723
0.4473683213 1.7413557114 0.2577114466 -0.4650992668 -0.0001142105 0.7284473970
-0.0773634655 1.7882493907 0.2625459197 -0.4936929480 0.0089817359 0.6599088253
0.1882085065 1.6723984555 0.2823133387 -0.5000000000 0.0058122099 0.6582166149
-0.2368421330 1.6037920417 0.2228676608 -0.4669503193 0.0033725260 0.6961072425
-0.1633447196 0.8517535419 0.1842105596 -0.4974181582 -0.0195576295 0.7569314466
0.4536011101 0.8421051745 -0.5691145717 -0.5258876289 -0.0236168923 0.7172515034
-0.2519827629 1.8421050693 0.2519274472 -0.4804802652 0.0038539996 0.6976696634
0.3958006425 0.1892489274 0.2368421330 -0.5413656799 -0.0007411052 0.7107021883
-0.0099177884 0.9164893772 -0.6578946150 -0.4926211587 0.0000000000 0.6602593516
-0.2434031323 0.9473683213 0.1023125682 -0.5000000000 -0.0526315734 0.7105262936
0.4999998947 0.7246728185 -0.6680181928 -0.4524389524 -0.0005204210 0.7164737141
0.4426079008 0.0457667847 0.2837528649 -0.4683135823 0.0024901050 0.7485895001
0.3744335395 0.8519932787 0.1842105596 -0.5026459997 -0.0194587348 0.7569148151
-0.3080315992 1.7894734958 0.2799311284 -0.5000000000 0.0526315734 0.7105262936
0.0525996260 0.9473683213 -0.5409867852 -0.5000000000 -0.0526315734 0.7105262936
0.1825735597 1.8307649652 0.2838036543 -0.5006979473 0.0215322609 0.6628771934
-0.2575934992 1.5672130982 0.2571334992 -0.4912981588 -0.0033596839 0.7547089206
-0.2890573380 0.5806946757 0.1642552985 -0.5365820488 -0.0047219995 0.6733933502
-0.3083997570 0.0791209917 -0.7105261884 -0.4853452121 -0.0012913157 0.6796068232
0.4010954315 0.9473683213 -0.4918283166 -0.5000000000 -0.0526315734 0.7105262936
0.1236017238 1.2506011841 0.1842105596 -0.5000000000 0.0194585243 0.6733101397
0.1976695055 0.9473683213 -0.1365774593 -0.5000000000 0.0526315734 0.7105262936
0.4137716933 0.2035617680 0.2368421330 -0.5153192615 0.0203991031 0.7116933988
-0.3199715979 0.2336550280 -0.7105262936 -0.5071655782 -0.0008053157 0.6733626660
-0.2256309762 0.9473683213 0.0783186760 -0.5000000000 0.0526315734 0.7105262936
0.3947367479 1.2410594483 0.1802744021 -0.5330015228 0.0090481569 0.6926486113
-0.1986082423 1.2626196039 0.1842105596 -0.5111715251 0.0350996805 0.6746655079
-0.2544450258 0.5409772062 0.1692199296 -0.4969380530 -0.0059942625 0.6672235087
0.4327565334 0.8621028040 -0.4387173749 -0.5475805213 -0.0165188930 0.7149799247
-0.2894737064 0.3930442744 -0.6772676656 -0.4591434254 -0.0011601051 0.7245363974
0.4198192716 0.2050808731 0.2368421330 -0.5059353678 0.0237094186 0.7122507145
0.2080048202 0.9473683213 -0.4374595329 -0.5000000000 -0.0526315734 0.7105262936
-0.2894737064 1.0694238874 0.1881282434 -0.5448042584 -0.0010575262 0.7248392921
-0.2538001838 0.9473683213 -0.7041014522 -0.5000000000 -0.0526315734 0.7105262936
0.3008963367 1.7622118671 0.2495270790 -0.5001284210 -0.0052256837 0.6601317200
0.4718382135 0.8247759132 -0.7105261884 -0.4964117899 0.0017994735 0.6686550349
-0.2470109214 1.8349464911 0.2886314959 -0.4746601606 -0.0023235787 0.7496901316
-0.2511815525 0.9473683213 -0.6168459877 -0.5000000000 -0.0526315734 0.7105262936
0.4874405276 0.2249218184 -0.6578946150 -0.4804069494 0.0330342070 0.7380205539
0.4759306867 0.0763964130 -0.6578946150 -0.4970450003 -0.0141118406 0.7246730290
0.0712203609 0.9473683213 -0.1801772968 -0.5000000000 0.0526315734 0.7105262936
-0.2894737064 0.6266521972 -0.6639435091 -0.4606984778 -0.0007174210 0.7393705538
0.4116244304 0.1889793485 0.2368421330 -0.5160162615 0.0030243155 0.7124484513
-0.0999422526 0.9473683213 0.0401653642 -0.5000000000 0.0526315734 0.7105262936
0.1290213022 1.2335827123 0.1842105069 -0.5000000000 -0.0046093153 0.6733101397
0.4999998947 0.0220413135 -0.6673618771 -0.4508419525 -0.0026664734 0.7111088199
-0.2122505040 0.9473683213 -0.3710264873 -0.5000000000 -0.0526315734 0.7105262936
0.4356823226 0.1835470333 -0.4592308464 -0.5348656805 -0.0031610523 0.7180098718
-0.0904193589 1.8402029642 0.2885227065 -0.4961561057 0.0199561032 0.6622185619
0.2788303917 0.9473683213 -0.6660982983 -0.5000000000 0.0526315734 0.7105262936
-0.2460228688 1.0363833646 0.1946829269 -0.4873263698 -0.0048003679 0.7562026572
0.4670686350 0.9154344826 -0.1639255091 -0.4523562155 0.0126005776 0.7181703455
0.4203377979 0.9223461134 -0.2524354997 -0.5462647846 0.0105363673 0.7105379252
0.4389174801 0.9127376934 -0.5311314178 -0.5419278377 0.0139383670 0.7110799251
0.1079202518 1.2192836085 0.2368421330 -0.5000000000 -0.0248312605 0.7477424476
0.2492517632 0.9473683213 -0.0566598361 -0.5000000000 -0.0526315734 0.7105262936
-0.2842331280 1.0677318350 0.1983709791 -0.5361797330 -0.0027508418 0.7410424483
0.2590291833 0.8615854356 -0.6578946150 -0.5149529458 0.0000000000 0.6626866145
-0.2894737064 0.4669312666 0.1995625579 -0.5370067329 -0.0019047893 0.7032381891
0.3752570131 1.7368419224 0.2530889734 -0.4898903169 -0.0159535773 0.6901491379
-0.2894737064 0.1837842964 -0.6949102426 -0.4561571625 -0.0012737893 0.7040523469
0.0014240525 0.9473683213 0.0017037367 -0.5000000000 -0.0526315734 0.7105262936
0.4030133260 0.1772377182 0.2146874511 -0.5285488917 -0.0050409995 0.6799277705
0.4563107941 0.1585989307 -0.7105261884 -0.5287736286 -0.0010434209 0.6801944021
0.4551502152 0.1578947202 -0.5387944696 -0.5168138403 -0.0364169962 0.7132838723
0.4415565325 0.3824700650 0.1890333485 -0.4695621611 -0.0056669994 0.6723987187
0.4668457403 0.8121578092 -0.7105261884 -0.5023536840 0.0014472104 0.6678104034
0.1911008220 1.4411461115 0.2566186046 -0.5000000000 -0.0058122099 0.7628359723
-0.2879494960 0.4514408472 0.2330436070 -0.5353733121 0.0034348944 0.7479413423
0.0062685783 1.2278995023 0.2368421330 -0.5000000000 -0.0125461566 0.7476266581
-0.1305482494 0.8421051745 0.1831668228 -0.5000000000 -0.0241145238 0.7566678677
0.1108325673 0.9473683213 -0.6021560945 -0.5000000000 0.0526315734 0.7105262936
0.4107591673 0.9133569039 -0.1087592517 -0.5496521000 0.0010820525 0.7113307146
0.4526898471 0.9473683213 -0.0312857862 -0.5000000000 0.0526315734 0.7105262936
-0.2689154980 0.9473683213 0.1172284087 -0.5000000000 -0.0526315734 0.7105262936
0.4249836921 0.9473683213 -0.5655796773 -0.5000000000 0.0526315734 0.7105262936
0.4397600063 0.8715146977 -0.6578945097 -0.5239703659 0.0000000000 0.6650960879
0.4611324251 0.8421051745 -0.4938473691 -0.5040836838 -0.0233582607 0.7178992402
0.4949218426 0.9473683213 -0.6836932965 -0.5000000000 0.0526315734 0.7105262936
0.4286136391 1.1079123571 0.1504665631 -0.4967322109 0.0051696837 0.6668661930
0.4987636317 0.1585011938 -0.6368767224 -0.4543074259 -0.0226272081 0.7211941346
-0.3022074419 0.8932504323 -0.0594273095 -0.4476300581 0.0000000000 0.7099657674
-0.2805095494 0.1144750932 0.2751643395 -0.5268323130 0.0027055260 0.7493665001
0.4473683213 1.5256342078 0.2304675021 -0.4588417412 0.0002133158 0.7207472926
