0.4610786484 0.7697234452 0.0879219523 0.0000121662 0.0007422220 -0.0001943247
0.4173631483 1.0102116673 -0.4749332571 -0.0002502678 -0.0012313948 -0.0003878586
0.4788448765 0.6689382838 0.1882439790 0.0008783575 -0.0000310733 -0.0001189517
0.2562032486 0.2945402943 0.1155704790 -0.0004982470 -0.0013958474 -0.0001568050
-0.0739254798 0.6081967339 0.0106222698 -0.0005310555 0.0013950782 -0.0001710421
-0.4769261614 0.6740184506 0.2484823759 -0.0018973539 -0.0000482069 -0.0000472681
0.3246495454 0.8520240087 -0.3390296712 -0.0019020735 0.0000010302 -0.0002573033
-0.4802326247 0.6080573033 0.1701833615 -0.0019030158 -0.0000396122 -0.0001055452
0.0006421418 0.6037998755 0.4014142687 -0.0005296847 0.0013940048 -0.0000960334
0.3837310047 0.4718227979 0.3110603370 -0.0004926396 0.0013957971 -0.0001522459
0.1038266284 0.8761109667 -0.4189588489 -0.0004737820 -0.0003955830 -0.0014848216
0.4079224185 0.7803513594 0.1149784195 -0.0005073387 0.0013897291 -0.0002886502
0.2705863756 0.4718228411 -0.0545894093 -0.0005065807 -0.0013959200 -0.0001584578
0.3168327363 0.7561503179 -0.0353224775 -0.0014207109 0.0010303187 -0.0002457701
-0.2059398106 0.6506685621 -0.1979692794 -0.0007632481 0.0004818917 0.0010997276
-0.1204637272 0.2945402943 0.3130894307 -0.0005147943 -0.0013958502 -0.0001498296
-0.1163057172 0.2945402943 0.4100616968 -0.0005146128 -0.0013958195 -0.0001450360
-0.4738804557 0.5910843770 0.2606594701 -0.0018859785 -0.0000384173 0.0000402732
-0.3135632958 0.2973956196 0.5047077338 -0.0005178709 -0.0013276271 0.0001541765
-0.2126625602 1.0150737207 -0.4307906889 -0.0005104642 -0.0012976845 0.0003539879
0.4886656442 0.5458409762 -0.1359412347 0.0008685205 0.0000183480 -0.0001697173
-0.1275991766 0.4885739479 0.1129958032 -0.0005111705 0.0013959228 -0.0001572824
0.4685212559 1.0773994465 -0.4186916604 -0.0019055996 -0.0000036503 -0.0001518579
0.0063617751 0.2945402943 0.0500785903 -0.0005092469 -0.0013959074 -0.0001597434
-0.3250889674 0.3128190043 -0.2822647294 0.0008778857 0.0001382664 -0.0001383872
0.0438352587 0.4885739479 0.1523944901 -0.0005099407 -0.0013959242 -0.0001582763
-0.1604798194 0.5987790509 0.3201985209 -0.0005653184 0.0013930751 -0.0001071980
0.1544428922 1.0119140600 -0.4402698876 -0.0005091366 -0.0013358296 0.0002447134
-0.0102677884 0.4718228411 -0.1084870976 -0.0005099770 0.0013958544 -0.0001676123
-0.1216037321 0.5988716217 0.4419459530 -0.0005520879 0.0013928964 -0.0000829480
0.4246451098 0.2991632327 -0.3263063764 -0.0003828361 -0.0008887635 -0.0010234361
-0.3875829217 0.4718228411 0.4110988862 -0.0005258654 0.0013954984 -0.0001308324
0.4197632482 0.7922066732 0.3560372737 -0.0004955068 0.0013555554 0.0001509882
-0.2868894364 0.4692876560 -0.3539087720 -0.0005247556 -0.0006489211 -0.0013867425
-0.4188519434 0.2859198746 -0.0324075197 -0.0005162349 -0.0013958209 -0.0001501967
-0.4098558745 0.5792366472 -0.1142476120 -0.0014085468 0.0010660209 -0.0001680408
0.4664338433 1.0126940697 -0.4379298556 -0.0004670592 -0.0013286615 0.0002666797
-0.4314145071 0.2860994772 0.0103325552 -0.0005210257 -0.0013957567 -0.0001491721
0.3690828598 0.1207183056 -0.2269108143 0.0006119452 -0.0000778438 0.0003577276
-0.0981400046 0.2945402943 0.4376688860 -0.0005138186 -0.0013958111 -0.0001432897
-0.0523243651 0.6064521690 0.2374084146 -0.0005345983 0.0013946078 -0.0001283798
0.3681245234 0.7528042368 -0.1423577085 -0.0010372432 0.0010604093 -0.0000366451
-0.3895963810 0.7942816468 0.3472230228 -0.0004914879 0.0013864542 -0.0000051154
-0.4825732541 0.2855451622 -0.1224889109 -0.0005590410 -0.0013948521 -0.0001559046
0.4001990318 0.2954208637 -0.2896242877 -0.0004937563 -0.0013747787 -0.0002596052
-0.1920749572 0.4718227979 0.3068744769 -0.0005119047 -0.0013959200 -0.0001559116
-0.1241793544 0.5999766294 -0.2205105291 -0.0005339674 0.0013936725 -0.0002112336
0.1232796147 0.4885739479 -0.1004124946 -0.0005098625 -0.0013959074 -0.0001614883
-0.2444515389 0.4885739479 0.1114098810 -0.0005125050 0.0013959214 -0.0001573034
-0.2209440296 0.4885739479 -0.2393923306 -0.0005122342 0.0013959172 -0.0001605391
0.2383889449 0.6029061649 0.1284609149 -0.0004527049 0.0013938638 -0.0001623175
0.4935699146 0.2890342739 0.0888848408 0.0001059347 -0.0012299347 -0.0001387208
0.0873271135 1.0823720056 -0.4768408118 -0.0004957106 0.0012564880 -0.0007099098
0.2640160737 0.4718228411 0.1327659913 -0.0004979050 0.0013958460 -0.0001566724
-0.4574422051 0.2870216452 0.1274126181 -0.0005313598 -0.0013956129 -0.0001456320
-0.4577189795 0.2972907590 0.2709049203 -0.0005649346 -0.0013943272 -0.0001349281
-0.2324831007 1.0311341920 -0.3789237986 -0.0006843602 0.0006542298 0.0010506483
-0.2949003307 0.6922350489 -0.2227432729 -0.0007784623 0.0007370529 0.0009870373
-0.3308092889 0.3381985825 0.0949744530 0.0008850259 0.0000299217 -0.0001339063
-0.3315126623 0.4267972983 0.2062940951 0.0008857043 -0.0000001898 -0.0001330450
0.1074577365 0.4393970942 -0.3256793853 -0.0005069688 0.0003501568 -0.0014811391
0.1562178534 0.4885739479 -0.1885228612 -0.0005079529 0.0013959130 -0.0001618555
0.2777659698 0.4718228411 0.4475834599 -0.0005066728 -0.0013959018 -0.0001505806
-0.1619957932 0.3232617992 0.5323697061 -0.0005184000 -0.0005011094 0.0011168096
-0.0514580718 0.4885739479 0.1802551082 -0.0005097550 -0.0013959242 -0.0001579678
-0.4777079202 0.5928882004 0.2278960739 -0.0019048123 -0.0000121753 -0.0001250268
0.3191572204 0.1127438770 -0.2227530081 -0.0013671311 -0.0000336711 0.0007013486
0.3266807260 0.4999738648 -0.2940047454 -0.0019046406 -0.0000288259 -0.0001958630
0.4307296213 0.2945402943 -0.0069146328 -0.0003165533 -0.0012475108 -0.0001506867
0.4728779005 0.5182848653 -0.3264131326 0.0007508048 -0.0000471935 -0.0006971441
-0.3290716240 0.6077418060 0.1354580198 0.0008854949 -0.0000241551 -0.0001310530
0.3881183625 0.5908598312 0.1884651802 -0.0001079867 0.0012755214 -0.0001541193
0.4436531798 0.3216836300 0.4583103340 0.0007151292 -0.0005980243 -0.0001414024
0.3225235787 0.7510686170 0.0975462839 -0.0017578995 0.0004484341 -0.0001721058
0.4104732366 0.7763415660 -0.2121107787 -0.0003722480 0.0009378275 0.0003493129
-0.0943201980 0.4882125693 -0.2795906036 -0.0005100496 0.0013948982 -0.0001881184
0.3605190561 0.0053628110 -0.2259142881 0.0007258164 -0.0001925358 0.0003842180
0.0337160100 0.6053004704 0.3352206524 -0.0005165797 0.0013943314 -0.0001126659
-0.3487294750 0.7256153828 -0.3686152582 -0.0004776418 -0.0003200494 -0.0015154831
0.3264981626 0.3999867345 -0.2588669161 -0.0019048570 -0.0000316791 -0.0001699937
0.2847179709 0.4771466821 0.5297744990 -0.0005065444 -0.0013126488 0.0003055172
0.4407780449 0.4756617216 0.2737449950 -0.0002246093 -0.0013647364 -0.0001549080
0.4396785749 0.7654463781 -0.3710998759 -0.0002642787 -0.0003580828 -0.0013313717
0.4742866058 0.4319356138 0.3192210784 0.0008839161 0.0000009311 -0.0001111708
0.3478614089 0.1679287637 0.4302394839 -0.0004171870 -0.0002584556 -0.0015044525
0.3992801875 1.1555264620 -0.4422626439 -0.0005073094 0.0013698204 0.0001039190
0.2376774360 0.6421226081 -0.1951206211 -0.0003384987 0.0004346996 0.0011466907
0.2180865951 0.4885739479 -0.0693282182 -0.0005071907 0.0013959172 -0.0001596876
0.0111420036 0.4885739479 0.1428371210 -0.0005095833 0.0013959242 -0.0001569781
-0.4630997337 1.0853000921 -0.5355139475 -0.0005097299 0.0000750282 -0.0015491752
-0.4941191191 0.6048587479 -0.0457978603 -0.0019047007 -0.0000369809 -0.0001378162
-0.3324318276 0.6938134317 0.3113389428 0.0008835322 -0.0000017868 -0.0001005883
0.2824019014 0.4885739479 0.4621594396 -0.0005124855 -0.0013958767 -0.0001680017
-0.4572335924 0.2867709007 0.0976064567 -0.0005311881 -0.0013956185 -0.0001465827
-0.3894702410 0.5808788447 -0.2923374979 -0.0009198096 0.0011023778 -0.0008222050
-0.4523266795 0.5062804513 -0.1898634705 -0.0017223551 -0.0005121581 -0.0001788020
0.2574837060 1.0203701276 -0.4204167578 -0.0005035990 -0.0011975953 0.0005596580
0.0562163661 0.4718228411 -0.1360708241 -0.0005090612 -0.0013959200 -0.0001601385
0.0045460864 0.9912470512 -0.4665543382 -0.0005116842 -0.0006183224 -0.0013880714
0.4513226754 0.5206592342 0.0002619112 0.0007147983 0.0006638575 -0.0001705060
0.2143200919 0.4718228411 -0.2801592535 -0.0005005391 0.0013955780 -0.0001845476
0.0927006103 0.2945402943 -0.2556777315 -0.0005054486 -0.0013958013 -0.0001726948
-0.1087274816 1.0962839743 -0.5340185078 -0.0005096266 0.0002757623 -0.0015220649
-0.3287749982 0.7255110122 0.2364667149 0.0008853023 -0.0000345492 -0.0001261323
-0.3189446251 0.4885739479 0.2918935392 -0.0005132728 0.0013959102 -0.0001538443
-0.3594508129 0.2522770369 -0.2681751166 -0.0001388799 0.0001381296 -0.0011289080
0.3193723940 0.5986887387 0.3768342125 -0.0004358603 0.0013930081 -0.0001253953
-0.4869366717 0.3149953235 -0.1932218845 -0.0019056345 -0.0000002736 -0.0001544627
-0.4583733196 0.3610949054 0.2406977304 -0.0019044117 -0.0000394307 -0.0001525167
0.3979936159 0.5856571035 0.4076880105 0.0001360029 0.0011708717 -0.0001417988
0.4755963078 0.5558579175 0.2806207423 0.0008831274 -0.0000225219 -0.0001120475
-0.3442129313 0.4885739479 0.1653065364 -0.0005136385 0.0013959172 -0.0001565286
-0.4583733196 0.4091518416 -0.0580564486 -0.0019042051 0.0000455644 -0.0001632235
0.3873573946 1.0647573053 -0.4994245771 -0.0005151084 -0.0004199363 -0.0014882221
0.2021763533 0.4885739479 -0.2456524397 -0.0005074978 0.0013959060 -0.0001636409
0.4855567616 0.5219915154 -0.1999957320 0.0008731075 -0.0000691667 -0.0002277501
-0.1956278627 0.6026915022 -0.0063530199 -0.0005614322 0.0013940159 -0.0001687458
0.0958933936 0.4821549392 -0.3591205104 -0.0005024934 -0.0004868179 -0.0014653750
-0.4850561255 0.5733080103 -0.2367448949 -0.0019008479 0.0000026439 -0.0002467277
-0.3985440126 0.7028909528 -0.3547740700 -0.0003460604 -0.0002486325 -0.0014391818
0.3566094580 0.5969410190 -0.0983872355 -0.0004322379 0.0013921845 -0.0002100428
-0.1957469729 0.6010766104 0.1860377745 -0.0005671541 0.0013935930 -0.0001341394
-0.1218589813 0.5600440331 0.5219852944 -0.0005186345 0.0006450488 0.0010599633
-0.4574058678 0.4335727846 0.2983071373 -0.0018665109 0.0002431367 -0.0001455204
0.0164256293 0.4718228844 0.3823230016 -0.0005095219 -0.0013959186 -0.0001538345
0.2223763567 0.2945402943 0.1063672018 -0.0004997365 -0.0013958600 -0.0001572517
-0.3260476235 0.4105513882 -0.2997821937 0.0008850398 0.0000257046 -0.0001366227
-0.1680481733 0.4885739479 -0.0038847569 -0.0005116311 0.0013959214 -0.0001581200
-0.4261218078 1.0329542458 -0.3849419380 -0.0005145389 0.0008458792 0.0009511662
0.1970064704 1.1032736555 -0.3887721289 -0.0005097341 0.0003495607 0.0011929964
-0.0201447938 0.4823013145 -0.2327422166 -0.0005070399 -0.0009918274 0.0008044461
-0.1224063419 0.4885739479 0.2625608701 -0.0005111105 0.0013959200 -0.0001553770
-0.4848346884 0.5605467589 -0.2394100532 -0.0019010754 0.0000025685 -0.0002424953
0.4795905101 0.7807981505 -0.2709714836 0.0008722490 -0.0000595767 -0.0003257260
-0.3428481893 0.4885739479 0.0382164769 -0.0005097648 -0.0013959102 -0.0001601371
0.3648370182 1.1007617740 -0.4435926664 -0.0005378341 0.0011091466 0.0006878556
0.3314414547 0.6046008883 0.3014442218 -0.0019047663 -0.0000264179 -0.0001286213
-0.3181708552 0.7327581706 -0.1842626653 0.0008845094 -0.0000212167 -0.0002176241
-0.2351218034 0.3362494488 -0.3281549727 -0.0005171060 -0.0000937197 -0.0015492059
-0.3332183772 0.4490236035 0.1775650926 0.0008852981 -0.0000181233 -0.0001527973
0.0570513753 0.9605299576 -0.4516911900 -0.0004634257 -0.0005770896 -0.0014080904
-0.3425114976 0.6555048007 -0.3145416093 -0.0009728226 0.0001634782 -0.0005845013
-0.4779155530 0.3436769342 0.2319855928 -0.0019051753 0.0000207197 -0.0001349002
-0.4583733196 0.4188850219 0.3687026739 -0.0018994841 0.0001113809 -0.0001423614
-0.4220240879 1.0188153876 -0.4225981902 -0.0005096964 -0.0012044590 0.0005478456
0.3305001807 0.7210237565 0.3200229651 -0.0019032349 -0.0000169954 -0.0000925254
-0.3746982998 0.7515782861 -0.1017501850 -0.0001507621 0.0008400820 -0.0002430146
0.3401934669 0.4718228411 0.0838646123 -0.0004945492 0.0013958209 -0.0001583489
0.3333602773 0.4276413363 0.2671664055 -0.0019042246 -0.0000478426 -0.0001354404
-0.2881610115 0.4718228411 -0.0796087814 -0.0005129461 -0.0013959130 -0.0001605559
0.3282014277 0.2947549151 0.3093223315 -0.0018408901 -0.0002977076 -0.0000607276
0.4814417461 0.7717036759 0.1088825242 0.0000801547 0.0008702912 -0.0002134363
0.3282770003 0.4032891915 -0.1521404009 -0.0019046155 -0.0000372447 -0.0001676639
0.4475823724 0.3661569251 0.2408907534 0.0008844214 -0.0000423747 -0.0001508011
0.3991687452 0.7590500322 -0.0238996577 -0.0004811804 0.0008854900 -0.0002255125
-0.4183616147 1.0931487645 -0.4957109838 -0.0005035613 0.0002178160 -0.0015262178
-0.3895845380 0.7237429315 -0.3590736505 -0.0000619826 -0.0002236929 -0.0011983135
-0.4282031705 0.2871927703 0.1482668862 -0.0005201309 -0.0013957525 -0.0001448252
0.0191709179 0.5890564768 -0.2980609086 -0.0005109583 0.0010944936 -0.0010119518
-0.1664350598 0.5722755921 -0.1867551002 -0.0006256825 -0.0002585017 0.0011897383
0.3400961039 0.5799963378 -0.3142144616 0.0000010002 -0.0000218071 -0.0006119144
0.2516950316 0.8312934405 -0.4066476272 -0.0003777465 -0.0003495858 -0.0014949141
-0.4733521271 0.4241879030 -0.3339714218 -0.0015290850 -0.0000277608 -0.0010759215
-0.4519676447 0.4959407273 -0.0405968915 -0.0015073951 -0.0009324769 -0.0001717456
-0.1544456729 0.4718228411 0.2751798781 -0.0005114748 -0.0013959214 -0.0001560973
0.2861216075 0.5977272503 0.4638583383 -0.0004486247 0.0013927987 -0.0001066006
-0.1761040318 0.6012943831 -0.1308016616 -0.0005528165 0.0013938359 -0.0001909033
-0.4773386184 0.4650642232 0.1195315476 -0.0018919558 -0.0000648980 -0.0000394300
0.4379913057 0.2988950642 0.3236586002 -0.0008815054 -0.0010135732 -0.0000937273
-0.3929955408 0.5455852050 0.3818467314 -0.0005697352 -0.0000382512 0.0010653153
0.0211082993 0.4718228411 0.3356398391 -0.0005085992 0.0013958474 -0.0001467404
-0.4109703829 0.4718228411 -0.1447506935 -0.0005274944 0.0013957888 -0.0001636060
-0.2537424454 0.5800305449 -0.3008458583 -0.0005400145 0.0010903700 -0.0010108881
-0.4359693703 0.5461449725 -0.2765907359 -0.0016643027 0.0007246864 -0.0003305252
0.3400961039 1.0126539410 -0.4063049498 -0.0001610807 0.0002611400 0.0001747106
-0.2659654195 0.2945402943 -0.0789158886 -0.0005210732 -0.0013957608 -0.0001679389
-0.2639417588 0.5987268224 0.1546868860 -0.0005822831 0.0013931547 -0.0001383327
0.2035635669 0.4842282097 -0.2308906385 -0.0004289714 -0.0009288503 0.0008628781
-0.4905548396 0.7684583025 -0.0106874651 -0.0005351274 0.0013893186 -0.0002903476
0.3406384475 0.1336297223 0.4357127238 -0.0006559280 0.0008516025 -0.0012352692
-0.3425114976 0.9126489610 -0.3925270011 -0.0007458744 -0.0001197355 -0.0004244374
0.2221815246 0.6003958594 -0.0052124035 -0.0004512937 0.0013934785 -0.0001862046
-0.4223424399 0.5674307072 0.0860156372 -0.0014884147 0.0009730578 -0.0001650829
-0.1706548618 0.4868223098 -0.3029490337 -0.0005108034 0.0013882228 -0.0002924401
-0.0746080009 0.7736730002 -0.3924119810 -0.0005398526 -0.0003369890 -0.0014952533
-0.1604543982 1.1555688074 -0.4402972798 -0.0005085908 0.0013489359 0.0001788188
0.3477209983 0.0206058254 -0.2681751166 -0.0005262953 -0.0001326576 -0.0012436950
0.4782821272 0.4889711530 0.2128475510 0.0008852115 0.0000013150 -0.0001239393
-0.3306550768 0.5741687059 0.2773133856 0.0008854851 -0.0000151556 -0.0001282514
-0.0141940050 0.6462874651 -0.3716258188 -0.0005632846 -0.0001384870 -0.0014574587
0.2981435949 0.4718228411 -0.2622961091 -0.0004969851 0.0013955110 -0.0001862535
0.3400961039 1.0041798101 -0.4311734098 -0.0002128096 -0.0000962714 -0.0004684677
0.3487846419 0.5984088124 0.1328314685 -0.0004237744 0.0013929327 -0.0001653006
-0.4216478413 0.5552900564 -0.3463469692 -0.0005309801 -0.0000259935 -0.0015524612
0.3012690694 0.2945402734 0.3208342449 -0.0004965230 -0.0013956743 -0.0001419468
0.3296344584 0.4497409919 0.1347856694 -0.0019052841 -0.0000116336 -0.0001340612
-0.3425114976 0.5770809026 -0.3542090831 -0.0010932072 -0.0000485531 -0.0011880450
-0.3640493839 0.2989340426 0.3240416184 -0.0000214114 -0.0009131182 -0.0001185497
-0.3365950653 0.7236727262 0.3779108927 0.0008812471 0.0000021162 -0.0000435354
-0.0695153517 0.4885739479 -0.2672452376 -0.0005105060 0.0013959172 -0.0001617857
-0.4538341758 0.3193961449 0.2517681990 -0.0017733957 -0.0005491613 -0.0001533710
-0.3425114976 0.5005610665 -0.3463695051 -0.0008057722 -0.0003708095 -0.0011114101
0.0486148492 0.2945402943 0.2582877856 -0.0005073875 -0.0013958600 -0.0001498882
0.4026008780 0.5839825289 0.1922094253 0.0002366436 0.0011432142 -0.0001546511
-0.4833278747 0.7246942799 -0.2233891998 -0.0018919363 0.0000410793 -0.0003171047
-0.4813368228 0.3057150261 -0.2608631217 -0.0017484017 -0.0001608623 -0.0004742022
-0.0665931435 0.9397626682 -0.3431710766 -0.0006232452 0.0003703893 0.0011617235
-0.3839792799 0.7410091600 0.4002143479 -0.0003662176 0.0002018466 0.0012050739
-0.3415636837 0.7609192477 -0.0864416249 -0.0004685822 0.0013888817 -0.0002881700
0.3561794083 0.5963810392 -0.2431539354 -0.0004417064 0.0013917029 -0.0002387040
0.3593818835 0.5057002781 0.5332362814 -0.0004768405 -0.0006280269 0.0010716807
0.4767475807 0.3424667882 0.1655866861 0.0008799280 -0.0000557924 -0.0001267396
0.2483894854 1.0970668819 -0.3872505323 -0.0000850265 0.0002760219 0.0009566746
-0.4393286149 0.7689402807 -0.1794446171 -0.0005182772 0.0013292771 0.0002676820
0.3482407852 0.8175160028 -0.3983024896 -0.0005457224 -0.0005152962 -0.0014540498
0.4779992611 0.3354215561 -0.2823097996 0.0007167317 -0.0001220053 -0.0006077853
-0.3592845442 0.2853430670 -0.1700134396 -0.0004927373 -0.0013957287 -0.0001526884
0.1867496672 0.2945402943 0.1386677258 -0.0005013055 -0.0013958600 -0.0001556855
-0.3606997670 0.8457484787 -0.4094441644 -0.0004905541 -0.0005092267 -0.0014568724
-0.2560437752 1.1557293249 -0.4818763340 -0.0005090347 0.0013505356 -0.0004938889
-0.4583733196 0.4081520978 0.3312037454 -0.0019024365 0.0000669025 -0.0001457409
0.1382073663 0.4508839576 -0.2961665595 -0.0004637593 -0.0013933250 -0.0001606773
0.0305206890 0.3972647481 -0.3281999159 -0.0005085880 0.0000299147 -0.0015521820
0.4733902959 1.0778573143 -0.4988159466 -0.0019042442 -0.0000403199 -0.0001305253
0.2320663415 0.8183967216 -0.4034613405 -0.0003728999 -0.0003462928 -0.0014929361
-0.3974249033 0.4885739912 0.3286971670 -0.0005097341 -0.0013959256 -0.0001574081
0.0047954545 0.4726643246 -0.2891920645 -0.0005097104 -0.0013928727 -0.0002308728
-0.1626425604 0.4718228411 0.0424085363 -0.0005166397 0.0013958753 -0.0001589268
-0.4413057774 0.5440174717 0.0523474481 -0.0016805820 0.0007568653 -0.0001677574
0.4740130267 0.3333927611 0.3090021481 0.0008835169 0.0000029775 -0.0001141260
-0.4485629041 0.4551106709 0.0181406104 -0.0016006457 0.0008239102 -0.0001581186
-0.3312450899 0.3951680902 0.1396386605 0.0008857713 0.0000012033 -0.0001353413
0.4773607256 0.4833484290 0.1683689304 0.0008802030 -0.0000635174 -0.0001235694
-0.3425115186 0.5859989699 -0.2408088754 -0.0009786269 -0.0000467035 0.0004003131
0.4893688473 0.7176467473 0.1083476251 0.0008836397 -0.0000559780 -0.0001048347
-0.3495732157 0.2996214620 -0.3053765246 -0.0005135827 -0.0011767736 -0.0008724905
-0.0965583846 0.2945402943 0.1864771546 -0.0005137488 -0.0013958921 -0.0001553393
-0.4570329867 1.0100714271 -0.4757349093 -0.0005106247 -0.0013629831 -0.0004386857
-0.3280121137 0.5902227866 -0.0052179370 0.0008855731 -0.0000270544 -0.0001348820
-0.1259748064 0.2945402943 0.0722951672 -0.0005150386 -0.0013958809 -0.0001589101
-0.4245696238 0.4729943061 0.1819405236 -0.0006144327 -0.0013912939 -0.0001569628
0.1470833870 0.6467667617 -0.3716790273 -0.0003330392 -0.0001367728 -0.0014607949
0.2013550410 0.2945402943 0.2553223176 -0.0005006620 -0.0013958167 -0.0001500306
0.3706062027 0.2282576654 0.4345209817 0.0005289574 -0.0001391291 -0.0010702289
-0.4108067986 0.7676838290 -0.0176610039 -0.0005131443 0.0013895448 -0.0002905989
0.3181763705 0.8181689805 -0.2496736923 -0.0016859019 0.0004906958 0.0003087990
-0.0327127458 0.2945402943 0.0891380463 -0.0005109597 -0.0013959130 -0.0001580907
0.0301809626 0.2945402943 -0.0888424102 -0.0005082000 -0.0013958600 -0.0001659749
-0.4813721383 0.7802308002 0.1122511090 -0.0005446546 0.0013892642 -0.0002880527
0.2797780443 0.4885739479 -0.0539974307 -0.0005102268 -0.0013959242 -0.0001584592
-0.1565962302 1.1229076083 -0.3962649617 -0.0005101361 0.0007233393 0.0010356058
-0.1305413214 0.6225609476 -0.3700776829 -0.0006839107 -0.0000112456 -0.0015097766
0.2739736518 0.4718228411 0.1854736838 -0.0004974681 0.0013958390 -0.0001553644
0.3215559133 0.8414790795 -0.3013876058 -0.0019020540 -0.0000002820 -0.0002576271
0.3312136927 0.4991158954 0.1426857831 -0.0019044759 -0.0000369809 -0.0001484881
0.3894450627 0.6438895819 -0.3450931377 -0.0009009213 -0.0001594217 -0.0014061430
-0.4914986053 0.6336131185 -0.1259678617 -0.0017145128 0.0005536869 -0.0002285374
0.3281853676 0.6133520909 0.1570447034 -0.0019050720 -0.0000251574 -0.0001315820
0.1644040802 0.4937306254 0.5289114164 -0.0005028647 -0.0008934845 0.0008859444
-0.4016054812 0.7567622274 0.3832579493 0.0000656595 0.0003014292 0.0007083059
-0.3788162970 0.3394790608 0.3879553965 -0.0004149033 -0.0000580119 0.0012285338
-0.2088279387 0.7717570965 -0.3919386492 -0.0006353395 -0.0003384491 -0.0014989302
0.3293219846 0.5815817910 0.0580578278 -0.0019047537 -0.0000253905 -0.0001568022
0.3604352182 1.1069689734 -0.4752552302 -0.0005475036 0.0013738099 0.0000206911
-0.2250718261 0.5704946452 0.5133901368 -0.0005241331 0.0008166904 0.0009460906
0.4908774505 0.6859205391 -0.1684824178 0.0008802811 0.0000038053 -0.0002762641
0.3761203809 0.2621345258 0.4521790478 0.0006425564 -0.0006668043 -0.0004284479
-0.4132037451 0.5792436324 0.3443206660 -0.0013212917 0.0011331803 -0.0001519346
0.3128102917 0.9844765051 -0.4632782070 -0.0003025480 -0.0006006919 -0.0013969997
-0.1296260228 0.6023663339 0.2496279827 -0.0005541706 0.0013938093 -0.0001231018
0.4874040806 0.4057185570 -0.1387333092 0.0008855131 -0.0000140165 -0.0001465464
-0.3283546613 0.5792934753 0.0212740194 0.0008855773 -0.0000248210 -0.0001344549
0.4097062187 0.2858971266 -0.0375935172 -0.0005067147 -0.0013958711 -0.0001502428
0.3898418001 0.4885739479 -0.0478755866 -0.0005106596 -0.0013959242 -0.0001584564
0.0532907616 0.6008630980 -0.2487559982 -0.0004880288 0.0013937465 -0.0002267604
-0.4110018219 0.4723158960 0.3978182528 -0.0005588972 -0.0013937340 -0.0001556701
-0.1299480168 0.4718228411 0.2169770506 -0.0005111956 -0.0013959228 -0.0001566557
0.3871015368 0.4718228411 -0.2209446689 -0.0004931644 0.0013954663 -0.0001860343
0.0063966747 0.4885739479 0.1139654396 -0.0005097774 -0.0013959256 -0.0001575993
-0.3494944268 0.7683321192 0.3751275609 -0.0004618008 0.0009050023 0.0008927105
0.2881897020 0.9863806522 -0.3573347502 -0.0002732085 0.0004739851 0.0011269914
0.0643265052 0.4718228411 -0.0368490338 -0.0005066952 0.0013958600 -0.0001642411
0.2750715668 1.0444576817 -0.5244801373 -0.0003024852 -0.0006815020 -0.0013336680
-0.2086290807 0.5965657118 0.4498993799 -0.0005624819 0.0013922948 -0.0000781753
0.0403674963 0.4242838827 0.5358780091 -0.0005077309 0.0001017574 0.0012342683
0.4544112375 0.5084839491 0.0745195034 0.0007571423 -0.0004903942 -0.0001709430
0.1346058323 0.4718228411 -0.1797960902 -0.0005036576 0.0013957720 -0.0001722914
-0.2227538387 0.2985193508 -0.3012436594 -0.0005154099 -0.0012467849 -0.0006895600
-0.4622120297 0.7684188536 -0.1775326108 -0.0005233960 0.0013355560 0.0002464262
0.2268329412 0.5990810008 -0.0446773815 -0.0004484404 0.0013932482 -0.0001938096
-0.1449178360 0.2945402943 0.3180330634 -0.0005158622 -0.0013958474 -0.0001501381
-0.4426762287 0.2858172713 -0.0572948247 -0.0005254592 -0.0013957064 -0.0001509072
-0.3338412783 0.3963532296 0.1725841203 0.0008852548 -0.0000194494 -0.0001552137
0.3229618072 0.6115100554 -0.1709371515 -0.0019021000 -0.0000635174 -0.0001279303
0.4731019773 0.6335414656 -0.3416805143 0.0008792132 0.0000047336 -0.0002934396
-0.4750502162 0.4286803154 0.2556586045 -0.0018958449 -0.0000224339 -0.0000523702
0.4475824157 0.3628060295 0.3521559627 0.0008836216 -0.0000546714 -0.0001450374
0.0220258132 0.2945402943 0.1306095878 -0.0005085573 -0.0013959088 -0.0001560763
-0.1323681273 0.6063362108 0.0699197388 -0.0005469564 0.0013946776 -0.0001589882
0.3276034048 0.6916933865 0.1804438276 -0.0019049659 -0.0000314055 -0.0001301317
0.0699137531 0.4885739479 0.3351001365 -0.0005089035 0.0013959200 -0.0001548717
0.3316552016 0.1108320620 -0.2681751166 -0.0010458477 -0.0000214833 -0.0011559066
-0.3228469797 0.7817082632 -0.3044657948 0.0008832182 -0.0000030082 -0.0002431346
0.0843083309 0.4718228411 -0.1549064260 -0.0005058157 0.0013958139 -0.0001700035
0.3654827957 0.5973002674 0.2478326368 -0.0004214404 0.0013927121 -0.0001475109
0.1398787876 0.4885739479 0.0641271363 -0.0005101291 -0.0013959256 -0.0001576914
-0.4934760246 0.7448028850 0.1284981471 -0.0018996167 -0.0000894328 -0.0000736455
-0.4140700635 1.1577490030 -0.4696360421 -0.0005095680 0.0013865729 -0.0003179325
0.3400961039 0.5516659237 -0.2755091783 -0.0001600505 -0.0003420897 -0.0000815674
-0.3272939365 0.5096042938 -0.3245340995 -0.0005076221 -0.0006356696 -0.0013803086
0.3277763405 0.5111767551 -0.1884520808 -0.0019045932 -0.0000301953 -0.0001861167
-0.1016267307 1.1483348559 -0.4239455934 -0.0005089231 0.0012017733 0.0005518868
0.0093280206 0.8804763010 -0.4204867076 -0.0005192487 -0.0004098228 -0.0014796804
0.3246551263 0.3217520038 -0.3391099509 -0.0014754117 -0.0000738375 -0.0009990018
0.1854322332 0.4885739479 0.1279043427 -0.0005104544 -0.0013959242 -0.0001578952
0.1590446586 0.6048559783 0.0577932162 -0.0004709190 0.0013943230 -0.0001722440
-0.4497595459 0.7592374743 -0.0222873385 -0.0013790579 0.0009184855 -0.0002494512
-0.0885821985 0.5888821145 -0.2942031776 -0.0005204004 0.0011519987 -0.0008830548
0.4624417711 0.7713310084 0.3887388584 -0.0003851184 0.0008579470 0.0009297471
-0.3264419096 0.5645351235 -0.2133861242 0.0008856876 -0.0000313720 -0.0001405411
0.0296211685 0.5908798111 -0.3700776829 -0.0004967604 0.0000000000 -0.0014474247
0.3506136841 0.4979879248 0.3790319186 -0.0006862349 -0.0000479179 0.0012253470
-0.3814428175 0.7717072536 0.0218791406 -0.0005024041 0.0013894541 -0.0002905221
0.4905498966 0.6901459318 0.0307279937 0.0008513771 0.0002215376 -0.0001414261
-0.4936065953 0.7131140360 0.0012794000 -0.0017391313 0.0006014973 -0.0002024909
-0.2578119202 0.4718228411 0.1648465063 -0.0005208038 0.0013958334 -0.0001544236
0.2398953328 0.4745056789 -0.3562520215 -0.0004942002 -0.0006138904 -0.0014059378
-0.4804186597 0.3328138876 0.0009749277 -0.0018985893 -0.0000843181 -0.0001213918
-0.1536464176 0.7743045923 -0.3925680260 -0.0006017018 -0.0003378587 -0.0014984263
-0.0667748176 1.0334991034 -0.4882800058 -0.0005435923 -0.0004894478 -0.0014548106
-0.4367264617 0.9836038813 -0.3535485241 -0.0005148976 0.0006740241 0.0010647694
0.4435238445 0.3211986254 -0.0413939510 0.0007691599 -0.0004997386 -0.0001613585
0.0351911320 0.5453000383 -0.1940094573 -0.0004213608 -0.0005021898 0.0011040913
-0.2798927252 0.2945402943 0.3823705440 -0.0005217628 -0.0013958195 -0.0001500501
-0.2051576916 0.5973665962 0.3524291802 -0.0005688222 0.0013926647 -0.0000988225
-0.4467819571 1.0564557918 -0.5300571935 -0.0005097285 -0.0004756756 -0.0014695879
0.3282338886 0.6657501643 0.2225339357 -0.0019049868 -0.0000284434 -0.0001295817
-0.4782949083 0.4789949797 0.1965063215 -0.0019053023 0.0000044432 -0.0001343851
-0.2505190104 0.4885739479 0.3668955701 -0.0005097550 -0.0013959242 -0.0001579929
-0.3250790424 0.6709668233 -0.3348192526 0.0008851990 -0.0000047880 -0.0002024113
-0.0446121430 0.4866728690 0.5114956187 -0.0005098290 0.0013837545 0.0000065420
0.3193375042 0.6964721562 -0.1064361828 -0.0015659095 0.0007367514 -0.0002301888
-0.4852038200 0.5252374415 -0.2377576948 -0.0019016841 0.0000022307 -0.0002310473
0.1808951121 0.4721378694 -0.2786634732 -0.0005083437 -0.0013950587 -0.0001838525
0.4376871824 0.2849557242 -0.2625902222 -0.0004955962 -0.0013957762 -0.0001556911
-0.1668847698 0.8340414987 -0.4073265467 -0.0006120945 -0.0003687770 -0.0014913657
0.2556327659 1.1219358961 -0.5247000402 -0.0005039298 0.0006904932 -0.0013693827
-0.1744371584 1.0725875752 -0.3858742879 -0.0005093097 -0.0002551584 0.0012146193
-0.4753173209 0.6374611157 -0.3053146907 -0.0018877192 -0.0000442341 -0.0003305321
0.3287510343 0.6187154644 0.0482799848 -0.0019048710 -0.0000206234 -0.0001573089
-0.0491118043 0.2945402943 0.0725183450 -0.0005116772 -0.0013959032 -0.0001589003
0.3280672793 0.3101772333 -0.1218344116 -0.0019048235 -0.0000397755 -0.0001436470
-0.3667336260 0.4607623212 -0.3127378082 -0.0005180008 0.0010885232 -0.0009625305
-0.0227771283 0.7612419019 -0.2682374405 -0.0004714201 0.0007523327 0.0010004703
0.0901894630 0.4718228411 0.3794338098 -0.0005055589 0.0013958292 -0.0001461709
-0.4583733196 0.3992135816 -0.2524573214 -0.0019049380 0.0000240951 -0.0001729991
-0.0887827065 0.2945403153 -0.1182448379 -0.0005134110 -0.0013958292 -0.0001681916
-0.2270361879 0.5182465681 0.5346419198 -0.0005324276 0.0003375139 0.0011950205
-0.1432768836 0.4885739479 -0.2718513913 -0.0005113478 0.0013959172 -0.0001614130
-0.3518128400 0.4701246237 -0.2926903349 -0.0005213747 0.0013552916 -0.0003466649
-0.0172791219 1.0286299783 -0.5119041978 -0.0005088114 -0.0010112615 -0.0011159301
0.4481572202 0.8872287852 -0.4267951674 -0.0004789176 -0.0005664875 -0.0014326210
0.1000400924 1.0316978793 -0.4877653518 -0.0004996108 -0.0005621923 -0.0014270177
0.4056844553 0.4723802230 -0.2291105654 -0.0004539250 -0.0013933780 -0.0001591669
0.1466861819 0.9806872958 -0.4614447341 -0.0004112571 -0.0006014401 -0.0013974004
0.3234856631 0.5505664104 -0.3033001872 -0.0019047286 -0.0000362592 -0.0001419398
0.3235802999 0.7816697524 -0.3256444118 -0.0019020875 0.0000023047 -0.0002569864
0.3802885197 1.1266114455 -0.3989133773 -0.0004728174 0.0008381877 0.0009531080
0.3675742984 0.4885739479 -0.1265101843 -0.0005102939 -0.0013959242 -0.0001589324
0.4777464715 0.5999502171 0.1771557682 0.0008805938 -0.0000672794 -0.0001203686
0.4310703807 0.5544317464 -0.0290973460 0.0005526351 0.0008917801 -0.0001737097
-0.4384707307 0.7747138958 -0.3828062166 -0.0005371459 -0.0004450169 -0.0014799763
-0.4796263798 0.7857362036 0.3529762309 -0.0017345080 -0.0004790119 -0.0001011606
0.4796789043 0.4099761984 0.0263927081 0.0008765317 -0.0001165207 -0.0001377632
-0.3418904280 0.1650389423 -0.2269061924 0.0005466033 -0.0000384940 0.0003644322
-0.3371220956 0.9192998847 -0.3199964676 -0.0002831670 0.0006196220 0.0010223068
0.1609163225 0.5718212602 -0.1868308431 -0.0003918565 -0.0002442158 0.0011924464
0.2008232618 0.4679289207 0.5086023355 -0.0005059609 0.0012923605 0.0002836542
-0.1929300300 0.2945402943 0.4736432781 -0.0005179617 -0.0013957943 -0.0001436735
0.4508371181 0.5010459859 0.3822740968 -0.0005699571 -0.0000448846 0.0012352064
0.0104813120 0.6015366083 -0.2526742845 -0.0004950057 0.0013940285 -0.0002257121
-0.3262187276 0.3755332008 -0.2575965121 0.0008829739 0.0000585954 -0.0001368768
-0.1848051373 0.3172062351 -0.3230767658 -0.0005141466 -0.0006042808 -0.0014051226
0.4687543224 0.7857072354 -0.3744963527 0.0008781342 0.0000076120 -0.0003068866
-0.0504280519 0.2945402734 -0.2460757165 -0.0005117275 -0.0013957943 -0.0001745430
-0.2297044983 0.4718228411 -0.2541761148 -0.0005195684 0.0013957957 -0.0001697829
0.4800332544 0.3130017170 -0.2846320475 0.0008818446 0.0000041710 -0.0002403847
-0.2040652082 0.2945402943 0.3316172674 -0.0005184475 -0.0013958404 -0.0001508081
-0.4583733196 0.4143027678 -0.1327361506 -0.0019042163 0.0000501849 -0.0001659176
0.4745837858 0.3376829052 0.2796677104 0.0008827868 -0.0000091964 -0.0001166554
-0.3765954604 0.7867317722 0.3129728332 -0.0005089928 0.0013935148 -0.0000845938
0.1157791769 0.4718228411 -0.1973051413 -0.0005044854 0.0013957720 -0.0001731318
-0.3245112231 0.7042355864 -0.2821856628 0.0006565645 0.0003923556 0.0002457297
-0.3661252523 0.7666628714 -0.3714800409 -0.0007596076 -0.0003150339 -0.0012019024
-0.1395864766 0.2945402943 0.3820152573 -0.0005156291 -0.0013958265 -0.0001469177
0.0509223198 0.6096611618 0.1815201015 -0.0005037302 0.0013952597 -0.0001463467
0.3297726536 0.5549566242 0.0692362336 -0.0019046671 -0.0000288747 -0.0001559619
-0.4892252847 0.4626472549 -0.0839123515 -0.0019031763 -0.0000348870 -0.0001223005
0.4826649706 0.2975553288 -0.2633407961 0.0008836188 0.0000066697 -0.0002102466
0.1464436371 0.4718228411 -0.1909450699 -0.0005031858 0.0013957469 -0.0001737711
0.3809465227 0.4718228411 -0.1000188352 -0.0004931533 0.0013956073 -0.0001748334
0.0152307310 0.4115647631 -0.3281999369 -0.0005090850 0.0000674986 -0.0015505809
-0.3297981502 0.5797019692 0.0008458813 0.0008848151 -0.0000205801 -0.0001773447
0.4433252001 0.3204536535 -0.0638566352 0.0007657789 -0.0005145828 -0.0001619727
-0.1899486289 0.2945402943 -0.2434685379 -0.0005175443 -0.0013956548 -0.0001798364
0.1719002159 0.6034826319 0.0295167239 -0.0004661784 0.0013940746 -0.0001779938
-0.1104539316 0.5935784953 0.4870252571 -0.0005407823 0.0012548757 0.0002527358
0.4752348022 0.7541252710 -0.0754314518 -0.0002970858 0.0012009511 -0.0002741563
0.3899486415 0.7745703332 0.1382427880 -0.0007844704 0.0012388351 -0.0002625813
-0.3425114767 0.6373950856 -0.1987192139 -0.0007416364 0.0004236508 0.0010778060
0.4043124712 0.5832283340 0.1773172446 0.0002776922 0.0011275365 -0.0001572391
0.1088272177 0.4508839576 -0.3153541454 -0.0004827173 -0.0013929774 -0.0002033898
-0.3370764070 0.2159496808 0.4454062445 0.0007435726 -0.0001649523 -0.0007284365
0.0546620909 0.4885739479 -0.1366915001 -0.0005090794 0.0013959186 -0.0001605000
0.4748569810 0.4886817259 0.3031087416 0.0008835951 -0.0000091740 -0.0001114332
-0.0917078964 0.3669942334 -0.3281999159 -0.0005125273 -0.0000313148 -0.0015522741
0.2263969699 0.5932396107 -0.2811535433 -0.0004696836 0.0012711424 -0.0005561221
0.3114337276 0.2945402943 -0.2333827970 -0.0004958251 -0.0013957971 -0.0001666868
-0.3354302045 0.5931044390 0.4753872484 -0.0005766603 0.0013913693 -0.0000682950
0.0039022743 0.5205726701 -0.3245558257 -0.0005080031 -0.0006615012 -0.0013557501
0.1898093044 0.5564832042 -0.3205906140 -0.0004912925 0.0005872310 -0.0014196514
0.3527714514 0.4885739479 -0.1954489204 -0.0005099909 -0.0013959242 -0.0001593512
0.4008644485 0.4885739479 0.0607727914 -0.0004985081 -0.0013952709 -0.0001580376
0.2233264697 0.5005866691 -0.3648369135 -0.0003120780 -0.0003039488 -0.0014946712
-0.1642510407 0.8180979223 -0.4033875561 -0.0006114398 -0.0003603051 -0.0014935964
0.1591252049 0.2945402943 0.3028168228 -0.0005025213 -0.0013958125 -0.0001477287
0.4257744010 0.2960142423 0.1563286146 -0.0004980446 -0.0013951480 -0.0001400832
0.4434931732 0.7551505741 0.3963223873 -0.0004298467 0.0004347945 0.0011621953
0.2420211502 0.5509717104 -0.1915787280 -0.0003242365 -0.0003724050 0.0011627564
-0.4926080451 0.6608965032 -0.0692638604 -0.0017338059 0.0005534719 -0.0002130580
-0.4906158010 0.7616900569 0.1839520440 -0.0018989494 -0.0000947903 -0.0000626889
0.3299764099 0.4993581206 0.2304988008 -0.0019051934 -0.0000141407 -0.0001314704
0.4772189094 0.7782723809 0.0905854117 -0.0004848657 0.0013893857 -0.0002894849
-0.4312440632 0.7789625907 0.0993384025 -0.0005207019 0.0013896355 -0.0002884841
-0.4789012802 0.6438368424 0.1802610716 -0.0019008633 -0.0000639180 -0.0000884926
-0.3942096484 1.0701248540 -0.4923631146 -0.0000787979 -0.0002985578 -0.0013348168
-0.4342959892 0.2889247273 0.3564433178 -0.0005226813 -0.0013956366 -0.0001368558
0.0508801614 0.2945402943 0.4063435457 -0.0005072870 -0.0013958097 -0.0001427104
-0.4668316025 0.9847489758 -0.3762502061 -0.0018502093 0.0001345937 -0.0001576049
0.0135079048 0.2945402943 -0.0009710749 -0.0005089328 -0.0013958907 -0.0001620691
0.3357622938 0.6728763378 -0.2103536881 -0.0002517810 0.0007389709 0.0009976017
-0.4218852533 0.5683512126 0.1468773302 -0.0014745601 0.0009884772 -0.0001621961
0.3294150873 0.2877818467 0.2150229112 -0.0005437291 -0.0013954105 -0.0001427425
-0.0403979623 0.9758888017 -0.3535524006 -0.0005970632 0.0004273040 0.0011522451
-0.0338513422 0.3685094394 -0.3281999159 -0.0005106694 -0.0000337521 -0.0015520298
-0.3321376935 0.3240913545 0.0492051247 0.0008719530 -0.0000763166 -0.0002018571
0.2623505725 0.4690666461 -0.3537508956 -0.0004938945 -0.0007433499 -0.0013340044
-0.4583733196 0.3485889157 0.3023512021 -0.0019036286 -0.0000625975 -0.0001503237
-0.2092220769 0.4718228411 -0.1550832605 -0.0005120443 -0.0013959116 -0.0001615372
0.2780855362 0.2945402943 0.0435452021 -0.0004972866 -0.0013958404 -0.0001588975
-0.2793508506 0.4885739479 0.4206644787 -0.0005127507 0.0013959032 -0.0001512506
0.2318736814 0.4525796610 -0.2770473250 -0.0004452172 -0.0013349404 0.0002322841
-0.4032485735 0.5824950990 -0.0943579955 -0.0012336918 0.0011431556 -0.0001743853
0.3051817134 0.4885739479 0.0704705766 -0.0005107685 -0.0013959242 -0.0001577040
-0.4572510150 0.3322093471 -0.1834931125 -0.0018603298 -0.0002697975 -0.0001751349
0.3768184721 0.7653108239 -0.0417882749 -0.0005148334 0.0013894317 -0.0002915202
-0.3402935994 0.5935938310 0.3911004029 -0.0005831319 0.0013916373 -0.0000858697
-0.4386369143 0.4745870446 0.2010580969 -0.0007437094 -0.0013722255 -0.0001571638
-0.4479001716 0.7429332437 -0.3729447661 -0.0005421042 -0.0003571671 -0.0015058163
0.3125522199 0.2945402943 -0.0526723023 -0.0004957720 -0.0013958223 -0.0001613041
0.3898231408 0.9564833578 -0.3395044506 -0.0005345257 0.0006470827 0.0010790232
-0.3810355590 0.1649884084 -0.2681751166 -0.0008503469 0.0000157642 -0.0013193779
-0.4572749146 0.4340640946 0.0356925485 -0.0018743658 0.0002124278 -0.0001592521
0.1729007469 0.4885739479 0.1092522630 -0.0005103958 -0.0013959256 -0.0001575686
0.3950559869 0.2880345092 0.2508467541 -0.0005130606 -0.0013957776 -0.0001404853
-0.2352150987 0.4718228411 -0.1568497122 -0.0005198085 0.0013958279 -0.0001649070
-0.3934557523 0.6866063182 0.4020934451 -0.0003966516 -0.0000378198 0.0012321032
0.3195594522 0.7928455060 -0.2590957431 -0.0019039315 -0.0000135991 -0.0002217686
-0.4878903639 0.4039319873 -0.2190402872 -0.0019037444 0.0000008878 -0.0001920954
0.1174161983 0.6055331530 0.0241700610 -0.0004802382 0.0013945059 -0.0001771827
0.3289611183 0.3949099319 -0.3281999369 -0.0004962690 0.0000172913 -0.0015528046
-0.0994944376 0.5668247178 -0.1879865452 -0.0005766897 -0.0003297288 0.0011781395
0.4820053483 0.3143794942 -0.2662636004 0.0008831484 0.0000015788 -0.0002159643
0.0753986280 1.0826568302 -0.4757019794 -0.0004949889 0.0013186820 -0.0005859740
-0.3118611377 0.4718228411 0.2884272843 -0.0005229800 0.0013957106 -0.0001448657
-0.4927627262 0.7391169410 0.0703270462 -0.0017877807 0.0004950175 -0.0001663797
0.3960969244 0.3102976012 0.3719981875 -0.0003476643 -0.0001333290 0.0010341387
0.3258704051 0.4885739479 0.1225729609 -0.0005109751 -0.0013959242 -0.0001578464
-0.0402541457 1.0887279646 -0.3854328641 -0.0005097341 0.0001075505 0.0012321744
0.1148292342 0.6078122667 0.1576216506 -0.0004856935 0.0013948814 -0.0001535455
0.3515416242 0.2870287169 0.1269703735 -0.0005331103 -0.0013955668 -0.0001455078
-0.1860186699 0.7809636961 -0.3942132052 -0.0006236974 -0.0003420520 -0.0014981792
0.1986386564 1.1299381860 -0.4015747876 -0.0005025911 0.0009108875 0.0008981518
-0.0413390953 0.6018815862 0.4086340348 -0.0005405966 0.0013936293 -0.0000928018
-0.3488931668 0.4885739479 0.0832269604 -0.0005136985 0.0013959186 -0.0001575407
-0.1784620418 0.5862839662 0.4994584437 -0.0005327710 0.0010856658 0.0006339338
-0.4785304875 0.3542870420 -0.2861535798 -0.0016754743 -0.0000804402 -0.0006892403
0.4776809105 0.7994470139 -0.2916106744 0.0008745941 -0.0000231375 -0.0003308965
-0.3290289394 0.6909065591 0.2257756672 0.0008853525 -0.0000308234 -0.0001271095
-0.0841411465 0.4885739479 0.1611685481 -0.0005106735 0.0013959228 -0.0001566682
0.0088307040 0.6059375150 -0.1087610606 -0.0005023692 0.0013947572 -0.0001985767
0.0829442492 1.0619598313 -0.4911728619 -0.0005087835 0.0001903107 -0.0015306819
0.3370331026 0.4885739479 -0.1089975346 -0.0005102422 -0.0013959242 -0.0001588151
0.4838469147 0.6329718568 -0.2112685721 0.0008729553 -0.0000140849 -0.0002722174
0.4487215887 0.4947832775 -0.1092990266 0.0005663458 -0.0008732129 -0.0001766188
-0.3531935151 0.4885739046 0.1069978782 -0.0005137474 0.0013959186 -0.0001573592
0.0903879260 0.5053219879 -0.2137364694 -0.0004259395 -0.0007931803 0.0009414394
-0.3311225723 0.4130455903 0.1461481517 0.0008857462 -0.0000006868 -0.0001348108
0.2396864214 0.2945402943 0.2114088543 -0.0004989743 -0.0013958209 -0.0001521594
0.0784989312 0.4718228411 0.4077732541 -0.0005060740 0.0013958209 -0.0001445390
-0.3150797162 1.0104993899 -0.3679084341 -0.0006307525 0.0006292079 0.0010816406
0.0566655973 0.6009019927 -0.2259757396 -0.0004860382 0.0013937996 -0.0002223926
0.3434327694 0.7552874921 0.3907222411 -0.0007523278 0.0003842355 0.0011577562
0.0410818444 0.6047736327 0.3491624003 -0.0005151126 0.0013942225 -0.0001103514
0.4124783887 0.2859837117 -0.0169221796 -0.0005056636 -0.0013958558 -0.0001497012
-0.2288904503 0.4885739046 -0.0540043908 -0.0005098848 -0.0013958935 -0.0001635362
0.4475823724 0.3906954023 -0.1761317646 0.0008853832 0.0000171657 -0.0001711551
-0.1941870791 0.4903470135 0.5256687693 -0.0005245393 -0.0011651707 0.0005676357
-0.2639746454 0.2945402943 -0.1779735656 -0.0005207717 -0.0013956520 -0.0001768365
0.0574165606 0.4885739479 0.3920366725 -0.0005101431 -0.0013959144 -0.0001624334
-0.0758896504 0.4885739479 -0.2182153552 -0.0005099909 -0.0013958558 -0.0001702589
0.0425028380 0.2945402734 0.2492964462 -0.0005076556 -0.0013958641 -0.0001503237
-0.4192171566 0.7730441357 -0.2064960632 -0.0005076611 0.0009621626 0.0003297825
-0.0185092492 0.4718228411 0.3713162849 -0.0005099239 -0.0013959200 -0.0001540732
-0.4752715681 0.3821380310 0.3527352411 -0.0019050636 0.0000234837 -0.0001288712
0.4259893624 0.7575508444 -0.0396412367 -0.0005382766 0.0010665890 -0.0002494303
-0.2653105685 0.4718228411 0.0448398114 -0.0005127437 -0.0013959200 -0.0001581563
0.2764655325 0.9613249637 -0.4520758708 -0.0003183359 -0.0005703501 -0.0014099944
-0.4607622144 0.3872568370 0.3784518725 -0.0005263428 -0.0000613342 0.0012367307
-0.4324936999 0.7866864451 0.2752366225 -0.0000897699 0.0009302336 -0.0001908126
-0.4055722047 1.1060171127 -0.4865109451 -0.0004576884 0.0013001092 -0.0005652794
-0.4583733196 0.4016634812 0.2645072329 -0.0019037472 0.0000447171 -0.0001495197
0.0146271746 0.5801663978 -0.1858155083 -0.0005411522 -0.0000866605 0.0012042420
0.4544733911 0.5031071998 0.4202305092 0.0005786286 -0.0007328330 -0.0001464305
0.2856196062 0.9263089065 -0.3395833888 -0.0004165142 0.0003664109 0.0011830853
-0.1551877372 0.4885739479 0.2259034041 -0.0005114860 0.0013959200 -0.0001558432
0.4482697709 0.3794908508 -0.3350230298 -0.0000966993 -0.0000404190 -0.0013668408
-0.2940336717 0.9461684701 -0.4452292412 -0.0006885494 -0.0005618559 -0.0014168833
-0.4653529474 1.0278314795 -0.4785023080 0.0008861105 0.0000024834 -0.0001439890
0.3287250059 0.4759505512 -0.1381226881 -0.0019044717 -0.0000353728 -0.0001809462
0.1986853892 0.5360939497 -0.3258475078 -0.0004856767 0.0003891156 -0.0014937960
-0.4583733196 0.4206306115 0.2149335580 -0.0019013183 0.0000968661 -0.0001515494
0.0666540394 0.8787883087 -0.4198959686 -0.0004913986 -0.0004032159 -0.0014821275
0.0248136567 0.6077481965 -0.0270927899 -0.0005021026 0.0013950294 -0.0001837422
-0.4375808533 0.5331721686 -0.3461818717 -0.0005450161 -0.0000136396 -0.0015524053
-0.3919718988 0.8520440304 -0.4119270777 -0.0005066826 -0.0005157596 -0.0014544825
0.3289063338 0.4793704585 -0.1154330083 -0.0019044773 -0.0000353099 -0.0001782981
-0.3131622771 0.2945403153 -0.2399466889 -0.0005226827 -0.0013955319 -0.0001844011
-0.4583733196 0.3728993964 -0.1200851480 -0.0019045150 -0.0000262964 -0.0001681902
-0.3330533230 0.3380327186 0.2801174623 0.0008857922 0.0000129486 -0.0001330589
-0.4437617256 0.5390394601 0.0756278767 -0.0016952727 0.0007303036 -0.0001669269
-0.2975912830 0.4885739479 0.1095486320 -0.0005131122 0.0013959200 -0.0001573271
0.4741049582 1.0416811662 -0.4565741600 0.0008851739 0.0000375155 -0.0001738646
0.4563759623 0.5142164975 0.2836276176 0.0007375589 0.0006258060 -0.0001421478
0.4691795577 0.5473071071 0.3843057031 -0.0004451781 -0.0000400254 0.0012108433
-0.3955566691 0.1838061174 -0.2336434456 -0.0016948316 0.0001229196 -0.0000541598
-0.0179371180 0.4718228411 -0.0857616388 -0.0005103134 0.0013958627 -0.0001663308
0.1475251737 0.4718228411 0.4456192460 -0.0005080855 -0.0013959102 -0.0001519095
0.3207564765 0.4885739479 -0.2523483080 -0.0005099030 -0.0013959130 -0.0001613948
0.4881795326 0.7667437262 0.1683825630 0.0008835057 -0.0000591021 -0.0000989146
-0.1649229109 0.7458008378 -0.2581208567 -0.0006187991 0.0007559816 0.0009905732
-0.1553652528 0.4718228411 0.1312887851 -0.0005114874 -0.0013959228 -0.0001572224
-0.1147682629 0.4718228411 -0.0379633774 -0.0005110239 -0.0013959200 -0.0001592186
-0.2993119078 1.0261002038 -0.5087418945 -0.0005097885 -0.0010638097 -0.0010572412
-0.0134657995 0.4885739479 0.3334833281 -0.0005098737 -0.0013959172 -0.0001612357
0.0705362438 0.2945402943 -0.1672990679 -0.0005064243 -0.0013958320 -0.0001688881
-0.2059073288 0.4885739479 0.2672704578 -0.0005097341 -0.0013959256 -0.0001574081
-0.2250416002 0.4885739479 -0.0258630116 -0.0005122816 0.0013959200 -0.0001582666
0.4827386266 0.4587708003 -0.2297100359 0.0008707065 -0.0001223068 -0.0002215048
-0.4561615983 0.3281240230 -0.2592527457 -0.0018060101 -0.0004076089 -0.0001767123
0.2353134403 0.5985610227 0.4609729364 -0.0004634675 0.0013929620 -0.0001029935
0.3089699846 0.9115345378 -0.4313571457 -0.0003625533 -0.0004596406 -0.0014645514
-0.1752115147 0.9034384418 -0.3329445204 -0.0005314575 0.0004188614 0.0011601112
-0.2823863327 0.9824378270 -0.3560082636 -0.0007768444 0.0004585448 0.0011232573
-0.3299991174 0.6244193000 0.0786795738 0.0008850817 -0.0000172173 -0.0001634022
-0.1025678665 0.4789987277 -0.3262004941 -0.0005110114 -0.0012363992 -0.0007868825
-0.4392642027 0.3733863608 0.3895695625 -0.0006102198 -0.0000614863 0.0012305719
0.2433725373 0.5982383685 -0.1971729946 -0.0004558360 0.0013926256 -0.0002247335
-0.0759659908 0.5663598215 -0.3698796765 -0.0005944444 -0.0000758658 -0.0014944214
-0.2528810462 0.4718228411 0.3895431083 -0.0005203012 0.0013956589 -0.0001380954
0.4776210992 0.5986364683 0.2681796743 0.0008849840 -0.0000116909 -0.0001151436
-0.4790004538 0.4367954100 0.0401927878 -0.0018927124 -0.0000843474 -0.0000600241
-0.3266153785 0.6079712082 -0.1402444266 0.0008855745 -0.0000342518 -0.0001377423
-0.3539559529 0.4718228411 -0.2565810279 -0.0005249985 0.0013957888 -0.0001671014
0.3209122450 0.7322515683 0.0638761880 -0.0018981035 -0.0001096444 -0.0001087517
0.3131012095 1.0317157708 -0.4877705069 -0.0004423960 -0.0005816375 -0.0014184691
-0.4193697927 0.8382486159 -0.3971653184 -0.0009726063 -0.0004225160 -0.0012512623
0.1951184043 0.7366845518 -0.3832478958 -0.0002939310 -0.0002313761 -0.0014718451
-0.3319861854 0.4276064047 0.2611338461 0.0008856820 0.0000016542 -0.0001316770
0.4625371533 0.5146402000 0.3924374986 -0.0003720414 -0.0000471348 0.0012294831
0.0267403578 0.6444820657 -0.1959071065 -0.0005072326 0.0004408556 0.0011412648
-0.4411474752 0.4749456969 0.4397913587 -0.0008070858 -0.0013582077 -0.0001546818
0.4502444625 0.5074921300 -0.2474849759 0.0007668747 -0.0005154134 -0.0002051808
0.4327032060 0.5549320434 0.3444102761 0.0005844021 0.0008527388 -0.0001532831
0.1440578844 0.4885739479 -0.0244249933 -0.0005080436 0.0013959200 -0.0001590525
0.3321271697 0.3210069034 -0.3240902887 -0.0004959647 -0.0006103336 -0.0013796763
0.1453114926 0.4829939100 -0.3594351143 -0.0004985402 -0.0004819559 -0.0014670557
-0.4480115707 0.4171948143 0.3903602245 -0.0006269723 -0.0000569580 0.0012300010
-0.3241999429 0.7793729160 -0.2016058093 -0.0004759345 0.0011811708 0.0005826042
-0.1135265829 0.2945402943 -0.2779658719 -0.0005142848 -0.0013956938 -0.0001799341
