-0.4207993732 1.6354371667 -0.4859816672 -0.0221948761 0.0023323396 -0.0121618783
-0.0786024370 1.0791730870 0.0067653291 -0.0209390349 0.0046516035 -0.0139534894
-0.3011247993 1.6086643011 -0.4762544661 -0.0211427056 0.0023633007 -0.0116462336
0.3986662960 1.6914581836 -0.5599247488 -0.0198798242 0.0021294922 -0.0158195378
-0.0056535157 1.0177889799 -0.5350333634 -0.0209465915 0.0014914940 -0.0160961899
-0.1164255930 1.0024215528 -0.3902664686 -0.0208514242 0.0046327086 -0.0139915512
-0.3979209921 0.9995627767 0.1914911728 -0.0205292143 0.0000907715 -0.0141921983
0.0864407642 1.0024215528 0.0291043678 -0.0208564828 0.0046408373 -0.0140341204
0.4095469261 0.9556458349 0.5605321418 -0.0209964218 0.0020045849 -0.0118689224
0.3979744763 0.0295243034 -0.4982648920 -0.0197932694 0.0018349129 -0.0126827910
-0.1641187010 1.0024215528 0.3941262823 -0.0207738400 0.0046302363 -0.0138185300
0.0253423960 1.6687448276 -0.4744627690 -0.0209209425 0.0023686105 -0.0116280923
-0.3538840621 1.0791730870 0.4730735895 -0.0209461263 0.0046515407 -0.0139414627
0.3895344915 0.2622939235 -0.4892163792 -0.0205026652 0.0022866817 -0.0128649387
0.0911915632 1.0791730870 -0.3037542487 -0.0209351346 0.0046516035 -0.0139535429
-0.0842109344 1.0033282256 0.2816827984 -0.0209506430 0.0000002023 -0.0139490727
0.0461842519 0.9788386461 0.5625851058 -0.0211226827 0.0027920720 -0.0122008495
-0.2971100405 1.0791730870 -0.1071194323 -0.0209441447 0.0046515942 -0.0139537964
-0.3719375068 0.1926336334 -0.5640230830 -0.0194786393 0.0023828886 -0.0154337102
-0.1017977019 1.0791730870 -0.1624043369 -0.0209395303 0.0046516035 -0.0139535196
0.1108175678 1.0032555442 -0.0696518010 -0.0209217891 0.0000001489 -0.0139516194
0.3532367815 1.4269648332 -0.5170064305 -0.0186205757 0.0023095979 -0.0138847712
-0.4038940314 0.9751384965 0.3234946410 -0.0201612070 0.0003523593 -0.0141174888
0.3656497513 1.0791730870 0.1596709240 -0.0209246661 0.0046515593 -0.0139542918
-0.2885518793 1.0044778543 -0.2961284884 -0.0209759547 0.0000003628 -0.0139547221
-0.3091578126 1.0024215528 0.1991176774 -0.0208385602 0.0046328994 -0.0138149319
-0.0010669835 1.0791730870 -0.0289264345 -0.0209372603 0.0046516081 -0.0139533940
0.2258288114 0.9378688493 -0.4666711347 -0.0209238288 0.0015157754 -0.0118715296
0.2781659687 1.0024215528 -0.0337024360 -0.0212792024 0.0000660226 -0.0141065343
-0.2180376888 1.0103692323 0.5450236105 -0.0209348159 0.0000774446 -0.0134255970
0.4791105280 0.2375781573 0.5037301897 -0.0189856758 0.0023299207 -0.0144705505
-0.0744486416 2.0377782750 -0.5638506433 -0.0209493871 0.0023333397 -0.0162789097
0.0872245555 1.8181252153 -0.4786263700 -0.0209097879 0.0024027393 -0.0116293506
-0.4005992020 0.9000861738 -0.4055630238 -0.0220699083 0.0007427455 -0.0140362624
0.2179402027 1.3630654109 -0.5012220077 -0.0209246056 0.0006505530 -0.0123848811
-0.4791207475 0.8479318201 0.4977085667 -0.0230287908 0.0023491947 -0.0145941344
0.1566892316 1.7180335907 -0.4764142000 -0.0208942748 0.0023745971 -0.0116286784
0.1455373616 0.9095433420 -0.5342658085 -0.0209437307 0.0011473889 -0.0159196148
-0.4279530581 0.1785998805 -0.5529534395 -0.0224719701 0.0023756088 -0.0153127800
-0.4116724296 0.9642209583 0.5076112985 -0.0209238823 0.0012114555 -0.0147781381
-0.1766822155 1.5270720733 -0.5550526823 -0.0209511431 0.0022775785 -0.0162786259
0.3524060904 1.6693479993 -0.5117219478 -0.0186505228 0.0023319861 -0.0136618987
-0.4092289445 1.7695859798 -0.5588546138 -0.0219207359 0.0024504183 -0.0158986617
-0.2369532835 1.0024215528 0.0241329593 -0.0208948446 0.0046389162 -0.0139057174
-0.1544424328 2.0042657712 -0.4864558010 -0.0209489917 0.0025811634 -0.0116485431
-0.1242233419 0.9000861738 -0.5083785696 -0.0209368626 0.0010260424 -0.0144971391
0.3794770658 1.0024214807 -0.4142230389 -0.0204755719 0.0046003939 -0.0140034825
-0.1376673383 0.9000862459 -0.4957563914 -0.0209334763 0.0010284729 -0.0138022726
-0.0660921834 1.9094016680 -0.4803443182 -0.0209366766 0.0024262486 -0.0116299437
0.2097653386 1.0024214807 0.4346136423 -0.0207573640 0.0046358415 -0.0139789965
-0.0357765648 1.0024215528 0.3245128548 -0.0207953514 0.0046344135 -0.0139009309
0.3535171084 0.3762777712 -0.5043612199 -0.0228303416 0.0022996481 -0.0133268015
0.4085462443 0.9689500040 -0.5398697985 -0.0193152330 0.0023420638 -0.0151765832
-0.1966336279 1.0024215528 0.3296369291 -0.0208913443 0.0000484930 -0.0142574115
0.1591553235 1.9219244437 -0.5623471877 -0.0209458705 0.0022840396 -0.0162787981
-0.0193263596 1.8389313956 -0.4783564767 -0.0209288526 0.0024091888 -0.0116293506
0.0352641715 1.4393632528 -0.4725420014 -0.0209188190 0.0022032644 -0.0116359349
0.2181839051 1.9596293280 -0.5630375189 -0.0209452285 0.0022890168 -0.0162788004
-0.2785732914 1.2791922367 -0.5301061475 -0.0202542903 0.0010079081 -0.0149120393
-0.4791207475 0.2521466916 0.5640321327 -0.0229391148 0.0023843515 -0.0128527956
-0.2637217858 0.9566639417 -0.4634922466 -0.0209233869 0.0017466905 -0.0118037952
0.3496716681 1.6987136875 -0.4954070021 -0.0189903739 0.0023433732 -0.0130604504
0.4791105628 0.2529427259 0.5541000167 -0.0196388523 0.0023316046 -0.0122804734
0.4122095927 1.1257736322 -0.4655256227 -0.0199345341 0.0023058789 -0.0122055034
0.1073233797 0.9000861738 -0.4682418758 -0.0209254150 0.0010401763 -0.0121493260
-0.0900534054 0.9739629607 0.4935806691 -0.0208719052 0.0003253544 -0.0147489586
0.3793461812 1.0791730870 0.0957748369 -0.0209259523 0.0046515709 -0.0139542081
0.3778639509 1.8809050328 -0.4990568632 -0.0204084399 0.0024530069 -0.0118102819
-0.4791207475 0.4187849129 0.4995248917 -0.0224314871 0.0023337025 -0.0153689226
-0.4116724296 0.3873640581 0.5012961101 -0.0192912562 0.0021794947 -0.0147797964
0.3810281818 0.9656919061 -0.0300324730 -0.0221495857 0.0006773230 -0.0140563620
0.4408057397 0.9227112330 -0.0508044245 -0.0192740383 0.0019160997 -0.0141274246
-0.4125948226 0.9580353753 -0.5356212732 -0.0218594161 0.0023620680 -0.0154013187
-0.0687371692 1.6928940676 -0.5580658359 -0.0209489731 0.0022925753 -0.0162789213
0.4102050333 0.9000861738 -0.2233890337 -0.0193557089 0.0008371057 -0.0142228454
-0.0058547349 1.0421945909 -0.5395850713 -0.0209517664 0.0021824089 -0.0162729138
-0.3653033786 1.7520885069 -0.5477608377 -0.0231376733 0.0023143611 -0.0146819615
-0.2391373088 0.9538715279 0.4944229288 -0.0208946283 0.0005069253 -0.0150555228
-0.4093995050 0.2332957938 -0.4856356852 -0.0216210351 0.0022822348 -0.0127686271
-0.4206062780 0.6018571657 -0.5487756093 -0.0224061684 0.0023734644 -0.0154357429
0.3688221109 1.0791730870 -0.3559842120 -0.0209288060 0.0046515895 -0.0139540546
-0.0445590126 1.9674803354 -0.4831186675 -0.0209327622 0.0024873009 -0.0116364513
0.2287340431 0.9860053555 -0.5345359158 -0.0209446936 0.0021180377 -0.0162159758
0.4366415364 0.9000861738 0.0490726354 -0.0191962448 0.0009498863 -0.0141471917
-0.1536540015 1.0791730870 -0.0295299458 -0.0209407397 0.0046516012 -0.0139535917
-0.0427893897 1.0474625720 -0.5392867148 -0.0209506965 0.0024179199 -0.0162511745
0.4728382809 1.0024215528 0.5342140314 -0.0197887085 0.0032910988 -0.0132591438
0.2679717671 0.9823664606 0.4915579057 -0.0213819657 0.0003066224 -0.0145866872
-0.0047888306 2.0946274619 -0.5698658424 -0.0209467333 0.0008334565 -0.0156413952
-0.1271241289 1.0791730870 -0.0187860381 -0.0209401350 0.0046516012 -0.0139535545
0.1230235852 1.0791730870 -0.0502824094 -0.0209344647 0.0046516012 -0.0139535894
-0.3230298965 1.0781180720 -0.5143149473 -0.0210385840 0.0046383557 -0.0140946890
-0.2996921459 1.0791730870 -0.3114275276 -0.0209440145 0.0046515942 -0.0139537894
0.1055761334 1.0024215528 0.0996063223 -0.0208672653 0.0046430166 -0.0140401698
-0.4921741531 1.0339209801 0.4143286886 -0.0232042518 0.0019129413 -0.0140590344
-0.2617734946 1.0024215528 0.5590851149 -0.0207822711 0.0044423509 -0.0134867121
0.3516960642 1.4602523364 -0.4992931137 -0.0186684780 0.0023381215 -0.0135017531
-0.1755691229 1.0024215528 -0.3667188025 -0.0205604150 0.0000661901 -0.0139946329
0.3483873219 1.7935032627 -0.5557628178 -0.0193440380 0.0023052137 -0.0151740690
-0.4268467266 0.9953752921 -0.3976169770 -0.0213209250 0.0042622941 -0.0140135928
0.2989691674 1.0110114403 -0.5318943652 -0.0209384535 0.0010827176 -0.0159104535
-0.0738401578 1.0029095251 -0.3396466944 -0.0209464915 0.0000000861 -0.0139545337
0.2687176920 1.0024215528 -0.0403027562 -0.0206959070 0.0046259452 -0.0140331854
0.2376423564 1.3189699590 -0.5479831776 -0.0209373464 0.0024128519 -0.0159017643
-0.1156286981 2.1076568745 -0.5056292041 -0.0209116021 0.0010536520 -0.0124130861
-0.3384372832 1.6393934757 -0.5553184590 -0.0211106560 0.0022882609 -0.0162711624
0.3655138662 1.7486196748 -0.4934093295 -0.0206619456 0.0025586031 -0.0117525391
-0.1968068841 0.9652071969 0.4941837687 -0.0208124972 0.0003967798 -0.0148871160
0.3291133789 1.0056783041 0.3386045969 -0.0208873835 0.0000006791 -0.0139549500
0.4139880141 0.8441182480 -0.4836499021 -0.0187560120 0.0023371331 -0.0132453239
0.1976749625 1.8368534455 -0.4801390497 -0.0208887813 0.0024063536 -0.0116297948
0.4101804751 1.7502317245 -0.4940332590 -0.0194330233 0.0024289163 -0.0123590972
-0.0839842802 1.9595535230 -0.5623662453 -0.0209493382 0.0022899425 -0.0162787818
-0.3898931770 1.8415609846 -0.5615712948 -0.0214417900 0.0023447291 -0.0161045163
0.2700490055 1.0791730870 -0.0489402088 -0.0209308667 0.0046515942 -0.0139538476
-0.4279530581 0.1308332748 -0.5558309545 -0.0224960375 0.0022913938 -0.0152680408
-0.0202605793 1.0095506446 0.5323889404 -0.0209356439 0.0000566170 -0.0135126100
0.4179598316 0.9964860264 -0.3737982105 -0.0203582119 0.0043962000 -0.0140045268
-0.4279530581 0.2963172181 -0.5429033936 -0.0228117747 0.0023535788 -0.0147382366
-0.2183333124 1.0791730870 -0.0113731261 -0.0209423027 0.0046515965 -0.0139536848
0.4095716262 2.1107674118 -0.5733113955 -0.0190275496 0.0023465456 -0.0151093605
0.3287520304 1.0024215528 0.0916751188 -0.0207003190 0.0046287408 -0.0140464727
-0.3213686584 1.5482286011 -0.5544624654 -0.0210754410 0.0022812370 -0.0162727254
0.0845684826 1.0791730149 -0.2239176424 -0.0209352974 0.0046516035 -0.0139535313
0.0050501765 1.8128509894 -0.4777314797 -0.0209245894 0.0024024719 -0.0116291459
-0.4279530581 1.3582018615 -0.5353090433 -0.0229496135 0.0023121469 -0.0145027024
-0.4185526720 1.0791730870 0.0040577164 -0.0209480358 0.0046515825 -0.0139540243
0.4292657954 0.8991806383 0.5605202174 -0.0207986075 0.0027070220 -0.0119055096
0.3888904392 1.9185261625 -0.5671486660 -0.0199341480 0.0020440003 -0.0157149464
0.2271226865 0.9864911997 0.4917886906 -0.0213664945 0.0002661999 -0.0145249255
0.4791105628 0.0288610818 0.5406425702 -0.0189928695 0.0019052824 -0.0136507511
0.2053929759 1.0791730870 -0.2415559009 -0.0209325762 0.0046515988 -0.0139537220
0.1865087725 1.0532639506 0.5708357911 -0.0209281316 0.0030044016 -0.0118305350
-0.4279530581 1.0449807576 -0.4969952379 -0.0229927013 0.0023456339 -0.0141722452
0.2382098433 1.0024215528 -0.1017216155 -0.0211932802 0.0000506235 -0.0140887047
-0.4116724296 0.2011241346 0.5381073461 -0.0194271530 0.0023289648 -0.0131217726
0.4074155314 1.0109967482 -0.4567501965 -0.0206190043 0.0000239581 -0.0139835248
-0.3392857179 0.9000861738 -0.4930808073 -0.0209329227 0.0010246795 -0.0136878035
0.3073144663 0.9069997055 -0.4672002737 -0.0209245731 0.0011314339 -0.0119861569
-0.3886630965 0.9000861738 -0.1821068465 -0.0208590389 0.0005744131 -0.0139271706
-0.4791207475 0.6944484838 0.5021351742 -0.0228655659 0.0023436523 -0.0147018215
-0.0951531774 1.0084942807 0.5252639304 -0.0209360509 0.0000357965 -0.0136405199
0.0454440438 1.2833298235 -0.5467102953 -0.0209501825 0.0010631390 -0.0156682047
-0.2779715222 1.0024215528 -0.3390325565 -0.0209899328 0.0046453982 -0.0139914791
-0.2357027591 0.9000861738 0.5026384433 -0.0211531833 0.0010248190 -0.0154081124
-0.4165835696 1.5897415918 -0.5526944775 -0.0223863386 0.0023910754 -0.0154831498
-0.0349625310 1.5095044727 -0.5561765458 -0.0209482800 0.0022810068 -0.0162787236
-0.3955905388 0.9056244389 0.1399885908 -0.0189061519 0.0014341722 -0.0138213907
0.2667623374 1.0024215528 0.4261443454 -0.0207596154 0.0046370928 -0.0140082481
-0.3674821523 0.6256123354 -0.5237829049 -0.0190090967 0.0023333327 -0.0146363990
0.2673460956 1.5797466233 -0.5582665621 -0.0209060643 0.0022859723 -0.0162772700
-0.4754509776 0.9438388022 0.4327056154 -0.0230272488 0.0016141522 -0.0140700075
0.1081483820 1.0791730870 -0.1815668994 -0.0209347741 0.0046516035 -0.0139535685
-0.4199617976 0.5279737061 -0.5515042496 -0.0223771284 0.0023749506 -0.0154364523
0.2621082453 1.9830873831 -0.4871080867 -0.0208375322 0.0025166270 -0.0116450474
0.0057803697 1.0024215528 0.2202851179 -0.0208288895 0.0046379719 -0.0139543313
0.2697403225 1.6301713160 -0.4777295632 -0.0207904091 0.0023635356 -0.0116382189
-0.1225362316 1.0032733576 0.1012500285 -0.0209537875 0.0000001651 -0.0139497076
-0.1977940972 2.1033249527 -0.5701464181 -0.0209436633 0.0009853757 -0.0154542726
0.3592167052 1.0791730149 -0.2345262488 -0.0209290456 0.0046515895 -0.0139539732
-0.3568197455 1.0024215528 0.0634187787 -0.0205632176 0.0000621734 -0.0141579508
-0.4279530581 0.1607114074 -0.4887330911 -0.0229927408 0.0022588349 -0.0128965533
-0.3783617521 1.5801242269 -0.4839828595 -0.0211357259 0.0024573608 -0.0117252784
-0.2914450098 1.0024215528 0.4564397412 -0.0207546963 0.0046262731 -0.0137389921
0.1357539249 1.0791730870 0.4530785101 -0.0209372371 0.0046514337 -0.0139309128
0.2845578132 1.0791730149 -0.1113090264 -0.0209306923 0.0046515942 -0.0139538569
-0.4396006755 0.9000861738 0.4690890685 -0.0206523540 0.0011202328 -0.0138040286
0.4116622100 0.2355082451 0.5430107481 -0.0227422494 0.0022299879 -0.0135696503
-0.4348498393 0.9931320355 -0.2608972014 -0.0216731378 0.0038568158 -0.0140760918
0.0754331382 1.0024216249 0.2830265875 -0.0208078642 0.0046375254 -0.0139661697
-0.2887546290 1.0791730870 -0.0196956601 -0.0209442633 0.0046515919 -0.0139538010
-0.0799117088 2.0437273585 -0.4899094432 -0.0209356579 0.0026865828 -0.0116612513
0.0729709234 0.9765849559 0.5624337471 -0.0211486759 0.0026542704 -0.0121024168
0.4139880141 1.1060340377 -0.5348532229 -0.0189130665 0.0023245853 -0.0149712985
0.0863024998 1.0024215528 0.1326429457 -0.0211330209 0.0000616966 -0.0141735477
0.3072655616 1.0024215528 0.0092272532 -0.0206857083 0.0046259894 -0.0140386254
0.3864144463 0.9758863193 0.0615343331 -0.0219997993 0.0005256503 -0.0140962100
-0.4116724296 0.0592183765 0.5507145135 -0.0191024335 0.0020433817 -0.0132027966
0.1130429552 1.0791730870 0.0997183447 -0.0209347182 0.0046516035 -0.0139535708
-0.2788074999 1.6949788300 -0.4756003686 -0.0210537133 0.0023730877 -0.0116361908
-0.4791207475 0.9653905330 0.5503573886 -0.0221970414 0.0032174941 -0.0126810583
-0.4412532524 0.9465572555 -0.1515053678 -0.0227799461 0.0020032802 -0.0141927053
0.2748251628 1.8488842020 -0.5619072316 -0.0208925142 0.0022871259 -0.0162768537
0.4122155886 0.6339891467 -0.4754890045 -0.0197858222 0.0022816208 -0.0123822204
0.4692990398 0.9215458470 0.4907460954 -0.0198904369 0.0018530937 -0.0139735308
0.3855298477 0.1989631393 -0.4916593689 -0.0207475887 0.0022921450 -0.0130152182
-0.3445226449 1.0059356683 -0.3236355684 -0.0210341859 0.0000050261 -0.0139588992
-0.2314619368 1.0044902741 0.2210863155 -0.0209722404 0.0000004466 -0.0139515613
0.2853701538 1.0791730870 0.1287177699 -0.0209290851 0.0046515825 -0.0139539848
0.3564899837 1.9901770828 -0.5029374743 -0.0208395440 0.0022165727 -0.0116710732
-0.4279530581 0.2566598748 -0.4881037657 -0.0228471781 0.0022805835 -0.0127525395
-0.4955160405 1.0380253498 0.4639863590 -0.0232286960 0.0020141998 -0.0140118624
0.4287302674 0.4592928934 0.5605202174 -0.0216414975 0.0024873986 -0.0122557245
0.4139880141 0.3120859557 -0.5567274055 -0.0195145706 0.0023796534 -0.0155565289
-0.4238448578 0.8171587809 -0.5408240969 -0.0225608507 0.0023686431 -0.0154206461
0.3797932356 1.4306465997 -0.5515694419 -0.0204382777 0.0023918336 -0.0161230925
0.1257954762 1.0791730870 0.5260634953 -0.0209372208 0.0046514174 -0.0139259263
0.1871471290 1.0024215528 0.4024938695 -0.0214029375 0.0001144249 -0.0142489456
0.3683468770 1.6493709821 -0.4894727875 -0.0206067194 0.0026950022 -0.0117808349
-0.2330210023 1.0024215528 -0.3032743679 -0.0205245231 0.0000698044 -0.0140177188
-0.4279530581 1.2381709814 -0.5356702476 -0.0223582755 0.0022729316 -0.0156290707
0.4139880141 1.2324653515 -0.4943430793 -0.0188042654 0.0023513716 -0.0137616129
-0.3285461200 1.0024215528 -0.5296736456 -0.0202974037 0.0000980629 -0.0139255286
0.0253972664 1.6077590494 -0.4738002963 -0.0209206029 0.0023604446 -0.0116279830
-0.3870931345 0.9392075635 -0.0478052001 -0.0193870887 0.0009235605 -0.0138539380
-0.2976026993 1.7835034704 -0.4794888921 -0.0211352746 0.0023921779 -0.0116461545
-0.1562362859 2.1262069528 -0.5708845167 -0.0209418259 0.0018166297 -0.0157382649
-0.4791207475 0.3705368657 0.5324798980 -0.0228013411 0.0023319605 -0.0139870345
-0.1570381394 0.9812959023 -0.5332834028 -0.0209446331 0.0020584320 -0.0161978438
-0.3515756132 2.1653235861 -0.5450170099 -0.0209086157 0.0038415492 -0.0140299362
-0.3904566356 0.2580716960 -0.5614722086 -0.0208728123 0.0023900637 -0.0156989681
0.1552775336 2.1653235861 -0.5734235761 -0.0209478916 0.0043342010 -0.0150644074
0.0507758566 0.9008202278 -0.5339581186 -0.0209436144 0.0010337199 -0.0158838207
0.3780934915 0.9443870338 -0.5407769668 -0.0212817119 0.0023597678 -0.0153664456
-0.3804661768 1.1832130710 -0.5395775124 -0.0200796294 0.0020228844 -0.0156210723
0.3754590765 0.6965028689 -0.4731802346 -0.0217198492 0.0022837559 -0.0120739746
-0.1668340145 1.8596779540 -0.5597422290 -0.0209509454 0.0022864724 -0.0162788120
0.2073869063 1.8538376088 -0.5615846379 -0.0209470845 0.0022869166 -0.0162788376
-0.0654311085 1.0024215528 -0.2595900740 -0.0207446303 0.0000439298 -0.0140403745
0.1696942651 1.0791730870 0.4222346338 -0.0209372301 0.0046514151 -0.0139311407
-0.4758869938 0.5011026056 0.4953977036 -0.0223755190 0.0022257270 -0.0153867545
-0.4791207475 0.2614888930 0.5291612547 -0.0225991241 0.0023280229 -0.0143534672
-0.0644449792 1.0791730870 -0.1010126616 -0.0209386907 0.0046516058 -0.0139534685
0.0650559028 1.0024214807 0.1217566034 -0.0208604181 0.0046416932 -0.0140140998
0.1962627343 1.0791730870 0.3242404775 -0.0209287014 0.0046515663 -0.0139539220
-0.2693970199 1.0777071094 -0.5233484121 -0.0209506360 0.0033299723 -0.0160139797
0.2529111764 2.0955004897 -0.5722198259 -0.0209529642 0.0014748575 -0.0160815466
0.3947132525 0.9342381877 0.2026139424 -0.0225651860 0.0009298797 -0.0138783892
0.2172997693 1.8643424797 -0.4810904036 -0.0208854972 0.0024135683 -0.0116300809
-0.2066534547 0.9000861738 0.5046179817 -0.0211308742 0.0010239678 -0.0152913384
0.0022219290 1.0024215528 -0.4649108103 -0.0207324082 0.0046208936 -0.0139820549
0.3579055657 1.0024214807 0.4810109797 -0.0216554756 0.0001502702 -0.0142594512
-0.3828327918 0.9938788651 -0.1419582282 -0.0202793160 0.0001738050 -0.0140320713
0.3169004213 1.0024215528 0.3812447862 -0.0207737796 0.0046392023 -0.0140462285
-0.3656304099 1.8315061127 -0.5449122813 -0.0231585986 0.0023141913 -0.0145665923
-0.1153697524 1.0791730870 0.3727467075 -0.0209372696 0.0046514802 -0.0139386345
-0.1869760708 1.5093643640 -0.5547936134 -0.0209513454 0.0022761970 -0.0162785980
0.4005110494 1.0968391341 -0.5395178904 -0.0195078072 0.0020712774 -0.0152496926
-0.4714100628 0.3921121616 0.4953977036 -0.0220513717 0.0020681957 -0.0156000098
0.4791105280 0.8442496281 0.5491051246 -0.0188783283 0.0023964155 -0.0132436610
-0.4116724296 0.2542930273 0.5235458380 -0.0192949915 0.0024810608 -0.0138741585
0.3080998718 1.0024214807 0.0194516856 -0.0206888761 0.0046264453 -0.0140395465
-0.1117167771 1.0791730870 -0.2002014021 -0.0209397489 0.0046516035 -0.0139535313
0.4681150567 1.0020737613 0.3352929101 -0.0206812498 0.0046201726 -0.0140716007
0.2887242865 2.1568120573 -0.5741976246 -0.0209768316 0.0030308227 -0.0159426752
0.4213044867 0.9861095515 -0.3265122322 -0.0201966243 0.0040438918 -0.0140090575
0.2678362704 1.0024215528 0.2821659447 -0.0208064432 0.0046409978 -0.0140558410
0.3537970096 1.0791730870 -0.0394245977 -0.0209284665 0.0046515872 -0.0139540266
-0.4279530930 0.0234664397 -0.5313348116 -0.0226854579 0.0017955045 -0.0135531790
-0.3076436606 0.9744143807 -0.4632070565 -0.0209229450 0.0019713422 -0.0117354561
0.3646954553 1.3169854178 -0.4758123448 -0.0210133281 0.0026637132 -0.0122952376
-0.1358384772 1.0033718042 -0.1336353500 -0.0209551760 0.0000001698 -0.0139522869
-0.1275948531 1.0791730870 0.1779983787 -0.0209405025 0.0046516012 -0.0139535754
-0.4279530581 0.7463447617 -0.4749207547 -0.0227443333 0.0023117236 -0.0128023862
0.2067396583 1.3784352498 -0.5536449057 -0.0209509337 0.0020241659 -0.0162559633
-0.2986554443 1.0024215528 -0.1413608245 -0.0209492266 0.0046422747 -0.0139311826
-0.2006705144 0.9832876116 -0.4639016486 -0.0209227217 0.0020836437 -0.0117012947
0.1039359322 1.0791730870 0.3412763829 -0.0209371092 0.0046515732 -0.0139474423
-0.0283614339 1.0038828462 0.3841467897 -0.0209370999 0.0000008233 -0.0139065244
-0.4757836141 1.0631704781 0.1902605224 -0.0228329883 0.0035365432 -0.0140657676
0.4459520627 0.9434644641 0.0219537949 -0.0195766301 0.0026011676 -0.0140350228
-0.4534641493 0.9151989323 0.0570980968 -0.0229553745 0.0012901328 -0.0140354833
0.3585769812 2.0995848412 -0.5724520295 -0.0207873972 0.0019216654 -0.0160973435
-0.4279530581 0.8550244294 -0.5190794104 -0.0228002108 0.0023423173 -0.0146689765
0.1039927306 1.0791730870 0.0516334294 -0.0209349136 0.0046516035 -0.0139535592
-0.4179132341 1.8084171417 -0.5597896056 -0.0221725972 0.0023689408 -0.0157622416
-0.0954419864 1.7529339949 -0.5586921820 -0.0209495127 0.0022909589 -0.0162788934
0.1878259614 0.9000861017 0.5130291125 -0.0208974519 0.0010165741 -0.0147174997
-0.3731534302 0.9316479188 -0.3558724571 -0.0191728798 0.0014142633 -0.0138678998
0.0797493212 1.0791730870 -0.1713992608 -0.0209354160 0.0046516035 -0.0139535220
0.4033654971 0.9870414221 0.3497016733 -0.0219388004 0.0003779106 -0.0141899260
0.2051881702 1.0046648815 0.4250559714 -0.0209353322 0.0000011955 -0.0138913253
-0.0544525063 1.0047200310 0.4395008985 -0.0209369836 0.0000013001 -0.0138848851
0.2603440020 1.0024215528 -0.0810836978 -0.0206870131 0.0046244404 -0.0140293664
-0.0077813775 1.0024215528 -0.4656286465 -0.0207389065 0.0046213704 -0.0139805897
0.2387789792 1.0791731591 0.3197012988 -0.0209255011 0.0046515477 -0.0139542174
0.3373114336 2.1653235861 -0.5577289409 -0.0209781922 0.0034012954 -0.0151407031
-0.2611698810 1.0791730870 0.3805678703 -0.0209453774 0.0046515802 -0.0139535894
0.1502646305 1.0791730870 0.5041864729 -0.0209372161 0.0046514035 -0.0139260635
-0.2383484077 1.0024215528 -0.2233884127 -0.0205585311 0.0000651783 -0.0140489753
0.1088401854 1.2962540469 -0.4750719367 -0.0209241498 0.0019677023 -0.0119988790
0.3278524908 1.3443147506 -0.5041634754 -0.0209231288 0.0031029087 -0.0132871093
0.2063491721 1.0791730870 -0.1036664994 -0.0209325808 0.0046515988 -0.0139537220
-0.3121008943 1.0791730149 0.5065980177 -0.0209374557 0.0046513756 -0.0139240936
-0.4492450826 1.0132587438 -0.1693063884 -0.0215503679 0.0002324385 -0.0139926838
-0.1779149963 1.0024215528 0.2226720162 -0.0208565712 0.0000361011 -0.0142227803
0.0145575286 1.0025497395 0.1618497326 -0.0209349229 0.0000000279 -0.0139484889
-0.1835890046 1.0791730870 -0.3512397996 -0.0209413700 0.0046515988 -0.0139536289
-0.0146660390 1.6703516257 -0.4741349935 -0.0209275501 0.0023680314 -0.0116280179
0.2239543204 1.0024214807 -0.1844393744 -0.0206756958 0.0046215843 -0.0140192608
0.1568672277 1.0791730870 0.2733142205 -0.0209304295 0.0046515756 -0.0139538755
-0.4704123975 0.3725956140 0.5651718256 -0.0223325195 0.0025826473 -0.0125947081
0.4169479347 1.0791730870 -0.1597901052 -0.0209271361 0.0046515849 -0.0139541197
-0.1502291317 1.6587952867 -0.5574424739 -0.0209505709 0.0022895169 -0.0162788539
0.1282803606 1.3992851530 -0.5534845671 -0.0209487359 0.0020997150 -0.0162627244
-0.2033592277 1.0024215528 -0.5335545381 -0.0204433991 0.0000811799 -0.0139280870
0.0743407522 1.4187487141 -0.4728972447 -0.0209126417 0.0021537597 -0.0116389190
0.3979782371 1.0791730870 0.1122567055 -0.0209246545 0.0046515639 -0.0139542988
-0.3767338730 1.9037831999 -0.4970498199 -0.0210989293 0.0020421537 -0.0117138145
-0.4264034679 1.0638515829 0.5654935331 -0.0209766455 0.0040190197 -0.0125071532
-0.0570027132 1.3598804897 -0.5010092873 -0.0209246708 0.0006037578 -0.0124333299
-0.0282054492 1.0791730870 -0.3432988254 -0.0209378302 0.0046516081 -0.0139534173
-0.3580173904 1.0024215528 0.2010727111 -0.0206312520 0.0000531097 -0.0142120700
0.1817997775 1.0791730870 -0.0399074091 -0.0209331460 0.0046515988 -0.0139536824
0.1406773800 1.2791923786 -0.4838434578 -0.0209353881 0.0003264475 -0.0131103412
0.4702624925 0.4456545947 0.5605202174 -0.0198235514 0.0024067955 -0.0120804380
-0.4486320448 1.0585494613 -0.3040083847 -0.0231312099 0.0030565764 -0.0140908537
-0.0857545217 1.0024215528 0.0152199734 -0.0208964076 0.0046418653 -0.0139788802
-0.1568324453 1.6634422107 -0.4740590839 -0.0209577437 0.0023685314 -0.0116282389
-0.0767417658 1.0791730870 0.2678721134 -0.0209403909 0.0046515942 -0.0139535592
0.4139880141 0.9139059993 -0.5349037579 -0.0189359129 0.0023342537 -0.0149514128
-0.0849564546 1.0030065530 -0.0295322297 -0.0209483079 0.0000001070 -0.0139509031
0.3208776346 1.0051686809 0.1677681202 -0.0208890371 0.0000005861 -0.0139535708
-0.1459352694 1.0034370337 -0.2727924961 -0.0209564110 0.0000001791 -0.0139539173
0.1363311523 1.0791730870 0.0602338575 -0.0209341880 0.0046516012 -0.0139536103
0.1361066680 0.9538689741 0.4923029259 -0.0209806110 0.0005261922 -0.0150475941
0.2295391806 2.1653235861 -0.5243479590 -0.0209429958 0.0038932844 -0.0128422597
-0.1249389151 1.0791730149 0.0415570856 -0.0209400978 0.0046516035 -0.0139535522
0.4116622100 0.7676917938 0.5247896199 -0.0220179801 0.0013141398 -0.0133525714
-0.3674821523 0.9560114420 -0.4641773959 -0.0198995563 0.0021760804 -0.0121721072
-0.3987083861 1.0791730149 -0.0513535282 -0.0209472473 0.0046515849 -0.0139539778
-0.4698551139 0.0299960462 0.4953977036 -0.0223931044 0.0018859387 -0.0152770975
0.1545809739 1.0791730870 0.0607213413 -0.0209337158 0.0046516012 -0.0139536429
0.2370475437 1.9713315972 -0.5635312778 -0.0209459705 0.0022918497 -0.0162788376
0.0510216266 1.0024215528 -0.5025447878 -0.0207596852 0.0000442717 -0.0139485866
-0.4279530581 1.6197115867 -0.5456177325 -0.0228310277 0.0022973595 -0.0149216193
-0.4114371024 1.1051538395 -0.5357882496 -0.0215436184 0.0023218176 -0.0154579776
-0.4195974325 1.0791730870 0.2932453124 -0.0209561040 0.0046515198 -0.0139544453
0.0642315030 1.7970615289 -0.4778267678 -0.0209138581 0.0023973179 -0.0116291087
0.2980233163 0.9702290963 -0.5347608792 -0.0209444959 0.0019183674 -0.0161552374
-0.0559992009 1.7329558426 -0.5585020312 -0.0209487382 0.0022917985 -0.0162789120
-0.4460263047 0.9000861738 0.1608007694 -0.0221061211 0.0011101761 -0.0139114830
-0.2349247172 1.8617637095 -0.4790361953 -0.0209677074 0.0024086469 -0.0116294529
-0.4115764669 1.6105364129 -0.5535666540 -0.0221899058 0.0024360914 -0.0156227004
-0.2170562948 1.0791730870 0.2487655353 -0.0209459333 0.0046515709 -0.0139538755
-0.1566656921 1.0024215528 -0.1470194314 -0.0206935998 0.0000488744 -0.0140816877
-0.3674821523 0.6930471660 -0.4862654013 -0.0188294097 0.0021188982 -0.0132888560
0.2071111915 1.0042468205 -0.4653647143 -0.0208986729 0.0000044097 -0.0140741381
0.3387621864 1.0048047065 0.4431539180 -0.0208967472 0.0000004233 -0.0139486052
-0.3666084152 0.9351089455 -0.5005164518 -0.0191845577 0.0014960223 -0.0138788660
0.3905680719 0.9114440589 0.1321452492 -0.0228376772 0.0011722541 -0.0137455067
0.2585935088 1.2791922367 -0.5120190623 -0.0213024209 0.0007141498 -0.0144747812
-0.0624378359 1.0791730870 0.5337875232 -0.0209372464 0.0046514709 -0.0139296104
-0.2180403146 1.8541266295 -0.4788200327 -0.0209643792 0.0024068723 -0.0116293762
-0.4073610889 1.0791730870 0.0206121967 -0.0209477846 0.0046515825 -0.0139540104
-0.0645903908 0.9505579967 -0.4647853216 -0.0209235404 0.0016694133 -0.0118273021
-0.1230674406 1.0791730870 -0.3540105277 -0.0209399908 0.0046516035 -0.0139535475
0.1864177615 0.9604428756 -0.4664152241 -0.0209232823 0.0017972697 -0.0117874169
0.0945545596 1.0791730870 -0.0066054789 -0.0209351136 0.0046516035 -0.0139535452
-0.4612657590 1.0791730870 0.5151316906 -0.0209500918 0.0046515477 -0.0139459468
0.3550597072 0.3726246447 -0.4851416449 -0.0225728611 0.0022837931 -0.0124572206
0.2774090590 1.5811470178 -0.5582927530 -0.0208853484 0.0022860537 -0.0162765304
0.3867278484 1.0791730870 -0.2498135403 -0.0209283269 0.0046515895 -0.0139540243
-0.4209170891 0.4026276102 -0.5561335347 -0.0224333687 0.0023767462 -0.0154180459
0.4189939445 1.0112768285 -0.3634198216 -0.0206027097 0.0000256327 -0.0139794733
-0.4608876228 0.1665929728 0.4953977036 -0.0212463969 0.0023258041 -0.0157560713
-0.1889338024 1.0791730870 -0.2635864496 -0.0209414980 0.0046515988 -0.0139536382
0.0395210326 1.0024215528 0.3831937682 -0.0212108610 0.0000902947 -0.0142549043
0.4139880141 0.0482470098 -0.5662794711 -0.0194334187 0.0017923390 -0.0152945527
-0.3922809103 0.9000861738 -0.2711955990 -0.0213083145 0.0006202036 -0.0139668116
0.4791105280 0.3358808361 0.5587985782 -0.0196041257 0.0023406962 -0.0121787451
0.2492785286 1.0024215528 -0.4937763553 -0.0205162456 0.0045998148 -0.0139467771
-0.4215018404 0.0023258041 -0.5057067487 -0.0218439099 0.0014329279 -0.0126033857
0.4561847703 1.0697199657 0.0754590453 -0.0194185173 0.0040834840 -0.0140604136
-0.3620807329 1.9040151546 -0.5534919492 -0.0224763402 0.0023022413 -0.0152309977
-0.2754439988 1.0044853783 -0.4550696170 -0.0209803482 0.0000297610 -0.0141976011
0.0145558471 1.4689398891 -0.4723536973 -0.0209218775 0.0022904193 -0.0116308252
-0.3911262416 1.0654924493 -0.5338629374 -0.0203482481 0.0023311976 -0.0152652615
0.3377982337 2.0777842610 -0.5674417336 -0.0207971097 0.0023216432 -0.0162744209
0.4744935580 0.9750033557 0.4907460954 -0.0205246208 0.0036934117 -0.0140393999
-0.4064342235 0.7546372533 -0.5431331133 -0.0216620111 0.0023755018 -0.0155758098
0.3187288126 1.0622197290 -0.5377579219 -0.0209443564 0.0033099169 -0.0160028554
-0.1573637869 1.4629167055 -0.5546286604 -0.0209507360 0.0022743666 -0.0162785748
-0.4083230880 1.0024215528 -0.4244456665 -0.0210422843 0.0046479496 -0.0139728284
0.1366530924 1.0791730149 -0.1779306652 -0.0209341345 0.0046516012 -0.0139536127
-0.4259966219 1.6791760240 -0.4876224638 -0.0224341688 0.0023733854 -0.0123269639
0.3178764752 1.0024215528 -0.3932051313 -0.0211337838 0.0000210113 -0.0139920163
0.3964227929 1.7372461743 -0.4934815829 -0.0198966235 0.0025733254 -0.0120837918
0.4141448035 0.9000861738 -0.2015841414 -0.0193021015 0.0008797191 -0.0142203615
-0.4265122411 0.0305630982 -0.4941846549 -0.0221408732 0.0015550442 -0.0122499333
-0.1069977741 1.0791730870 -0.4322222552 -0.0209397234 0.0046516035 -0.0139536173
-0.0189050448 1.0791730870 -0.2207019694 -0.0209376278 0.0046516081 -0.0139534033
0.2907753713 1.0045978053 -0.4234835976 -0.0208919607 0.0000004768 -0.0139564013
0.3464853979 1.3946548376 -0.5498206884 -0.0195676408 0.0021373651 -0.0153522210
0.0692880755 1.0095127433 0.5346643490 -0.0209358462 0.0000504281 -0.0135472970
-0.4139833648 0.9000861017 0.2308231710 -0.0200117322 0.0011487728 -0.0138855596
0.3123685897 1.0024215528 0.2512356369 -0.0207714887 0.0046377068 -0.0140600228
-0.0401116077 1.8084279311 -0.4775065860 -0.0209321040 0.0023998949 -0.0116290320
-0.4016859084 0.9378288175 0.2746957690 -0.0194860912 0.0007671874 -0.0139052034
-0.4791207824 0.4719124086 0.5421129133 -0.0230574657 0.0023453711 -0.0133603954
0.0985434996 1.0030822160 0.3223761362 -0.0209249382 0.0000001256 -0.0139488820
0.0774521222 1.0024215528 -0.4816063762 -0.0206571451 0.0046128905 -0.0139591899
-0.4279530581 1.1833202487 -0.4705201590 -0.0231223486 0.0023428150 -0.0134049671
-0.4694150160 0.2353910246 0.5651718256 -0.0224794452 0.0023784486 -0.0126972901
-0.3899609626 0.4003269318 -0.4794669598 -0.0206650226 0.0022834512 -0.0126319908
-0.3653560441 1.4345701148 -0.4923030305 -0.0232228117 0.0023297556 -0.0135420081
0.3300440750 1.0024216249 -0.2110498616 -0.0205873385 0.0046136022 -0.0140199260
-0.2580363136 0.9000861738 -0.4991059097 -0.0209344787 0.0010251400 -0.0140071341
0.0165355296 2.0922702851 -0.5422363088 -0.0209397024 0.0045907698 -0.0141862117
0.2894629549 1.0791730870 0.2223281275 -0.0209261453 0.0046515616 -0.0139541825
-0.4491408145 0.9330460433 0.4953977036 -0.0216960237 0.0007390847 -0.0139649603
0.4139880141 0.6813022392 -0.4833454776 -0.0187834844 0.0023253622 -0.0131338086
-0.2235170948 1.0791730870 0.5248285864 -0.0209371789 0.0046513383 -0.0139200560
-0.3860813795 0.9000861738 0.5225359646 -0.0211552277 0.0010236538 -0.0143611121
-0.2172816862 1.0791730870 0.4447198680 -0.0209373231 0.0046514104 -0.0139298057
-0.4299782357 0.9000861738 0.1516057054 -0.0211984993 0.0011391184 -0.0139155485
0.1371882646 1.0034021839 0.1329827689 -0.0209177771 0.0000002000 -0.0139498449
-0.0066489133 1.0024216249 0.0252777875 -0.0208924374 0.0046430120 -0.0140123415
-0.2475131456 1.4221481302 -0.4721367882 -0.0209561831 0.0021471474 -0.0116381049
0.0126852587 1.0791730870 -0.0321227638 -0.0209369510 0.0046516081 -0.0139534150
-0.4099360610 0.9000861738 -0.3425228255 -0.0221011113 0.0009326823 -0.0140483868
-0.0872509394 1.0024215528 -0.3119041267 -0.0208588319 0.0046347763 -0.0139992589
0.1570724055 1.0024215528 -0.2906324204 -0.0206858944 0.0046205005 -0.0140080411
-0.3179781663 1.3443147506 -0.4912883660 -0.0209503290 0.0032352539 -0.0130494563
-0.4410480560 1.0104577431 0.0410947879 -0.0212575817 0.0000261490 -0.0139737448
-0.4780760243 0.7255937308 0.5651718256 -0.0221966693 0.0031080115 -0.0124009733
0.3383109781 1.3343004779 -0.4764307040 -0.0212434943 0.0029082645 -0.0119491091
0.1662386528 1.0024215528 -0.3311086909 -0.0209823460 0.0000170016 -0.0140197957
0.2235638178 1.0791730870 0.3818450460 -0.0209320180 0.0046515942 -0.0139533940
0.3972362335 1.1625231529 -0.4676663160 -0.0198829152 0.0023340467 -0.0124460427
0.3535171084 0.3416459811 -0.5398784924 -0.0228117189 0.0023432290 -0.0145314866
0.2186717890 1.0791730870 0.1796595447 -0.0209304946 0.0046515849 -0.0139538801
0.4291970190 1.0114499427 -0.2630703327 -0.0205872012 0.0000275398 -0.0139793500
-0.2591366306 1.6783143531 -0.5578260014 -0.0209526734 0.0022914612 -0.0162788795
-0.4540753404 1.0791731591 0.4043729726 -0.0209561970 0.0046515221 -0.0139542616
-0.4116724296 0.6639812181 0.4996348720 -0.0199322292 0.0012826902 -0.0145661155
-0.0947854352 1.7055109592 -0.5582488535 -0.0209494778 0.0022929521 -0.0162789260
-0.3129587160 1.0791730870 0.3820738796 -0.0209487079 0.0046515616 -0.0139538150
-0.4787476514 1.0219504132 0.2320579567 -0.0229267903 0.0014209267 -0.0140678375
-0.3283732895 1.0791730870 0.4724491972 -0.0209379558 0.0046515453 -0.0139389857
-0.3894166314 1.0216689164 -0.4929099631 -0.0212039859 0.0007111565 -0.0131801502
0.0377058169 0.9555703138 -0.5339156750 -0.0209443122 0.0017328450 -0.0160987994
-0.3822446355 0.9649968907 0.4952314388 -0.0209045456 0.0004017175 -0.0148859973
0.4139880141 1.1593125386 -0.5409257717 -0.0189538844 0.0023072697 -0.0151143029
0.2653689714 1.0048433195 0.2101246289 -0.0208966518 0.0000005187 -0.0139528033
0.1830728901 1.0024214807 0.1216885085 -0.0212461713 0.0000741792 -0.0141623326
-0.4047218828 1.3157004320 -0.5451302207 -0.0218723894 0.0024869265 -0.0158562576
-0.3052911680 1.4917810061 -0.5539337520 -0.0210420239 0.0022764203 -0.0162742511
0.3615069849 1.0791730870 -0.1321930259 -0.0209285967 0.0046515872 -0.0139540127
0.3885757951 1.0075882474 0.0802311813 -0.0207631716 0.0000122477 -0.0139642113
-0.2088786468 1.8713731249 -0.4793081841 -0.0209612673 0.0024105866 -0.0116294622
0.0941068214 1.0024215528 -0.0807502426 -0.0208101598 0.0046348926 -0.0140246916
0.3535171084 0.1284877037 -0.4941234723 -0.0228003503 0.0020933469 -0.0127347890
-0.0063108716 1.8066573150 -0.4774545229 -0.0209266151 0.0024009438 -0.0116290668
0.1639058039 1.0791730870 0.1257114286 -0.0209332088 0.0046515988 -0.0139536848
0.0119306771 1.0024215528 -0.1300873847 -0.0208527150 0.0046375952 -0.0140180328
0.4011997107 1.8125726139 -0.4966816939 -0.0198216582 0.0025273373 -0.0120782587
0.1088795241 2.0514974513 -0.5652658718 -0.0209485893 0.0023333653 -0.0162789818
-0.4791207824 0.7486238613 0.4963020692 -0.0228661938 0.0023456083 -0.0148553664
0.2620708580 1.0024215528 0.0501767760 -0.0213047281 0.0000755328 -0.0141338067
-0.3807341536 2.1448064288 -0.5061507865 -0.0213468809 0.0029283827 -0.0120002861
-0.3162802526 1.4060712073 -0.4733839053 -0.0211226479 0.0021322507 -0.0116496967
-0.0764988961 1.0791730149 0.0919709983 -0.0209390024 0.0046516058 -0.0139534871
0.2187102229 0.9267078575 0.5616103311 -0.0208862578 0.0014935011 -0.0119596334
0.0881910271 1.0024216249 -0.0006028856 -0.0210633375 0.0000431530 -0.0141321391
0.0180396132 0.9680422683 0.5627440606 -0.0211323581 0.0024731135 -0.0120965256
0.3359592320 0.9941732096 0.4911737736 -0.0215646413 0.0002175790 -0.0143946270
-0.3983965795 1.0791730870 -0.0223661460 -0.0209473567 0.0046515849 -0.0139539848
-0.4788985146 0.8798890564 0.4953976687 -0.0230359845 0.0023427220 -0.0146338127
0.0863994463 1.0030783831 -0.0411893807 -0.0209250894 0.0000001186 -0.0139511752
-0.3131691827 1.0024215528 0.4722400260 -0.0208250194 0.0000517352 -0.0143109841
0.2816860824 1.0024215528 0.2936991093 -0.0214604662 0.0001127666 -0.0142076184
0.3535171084 0.1527243334 -0.5073476500 -0.0229294208 0.0022758993 -0.0133805787
-0.2469414025 1.2939616042 -0.4726642968 -0.0205923482 0.0017086706 -0.0120212486
0.2088786119 1.2989740632 -0.5472690325 -0.0209373464 0.0016602194 -0.0160130842
-0.1527446958 1.9595225759 -0.4824967591 -0.0209504756 0.0024637219 -0.0116340208
0.4524053387 1.0464464514 -0.1548116960 -0.0186609424 0.0024175222 -0.0141145978
-0.2886608665 1.0024215528 0.0389979243 -0.0206314497 0.0000544773 -0.0141505664
0.1994081726 1.3443147506 -0.4836282535 -0.0209320854 0.0035838059 -0.0122599993
0.4814423652 1.0653671745 0.3479738567 -0.0192988802 0.0038789435 -0.0140666491
-0.3110852715 1.0024215528 0.1431614457 -0.0206575010 0.0000505653 -0.0141908168
0.1710794163 1.4369532709 -0.4737767336 -0.0208965564 0.0022573440 -0.0116332091
-0.4371662378 0.9409917366 -0.2213248547 -0.0227237244 0.0019811827 -0.0141707707
0.2368842769 1.0791731591 -0.2763726040 -0.0209318621 0.0046515965 -0.0139537731
0.4154566524 1.0713663698 -0.4538762306 -0.0193699312 0.0040303998 -0.0141653469
-0.3594723669 1.0109151962 -0.4760952253 -0.0213229694 0.0000355825 -0.0139199466
-0.0203191360 2.0311524872 -0.5642289190 -0.0209482916 0.0023296626 -0.0162789050
-0.2396565841 1.3456501296 -0.5255858147 -0.0209318994 0.0002526056 -0.0138335035
0.2271393113 1.9215671397 -0.5623914431 -0.0209453030 0.0022841280 -0.0162788004
-0.2695676850 1.0044322150 0.3824618446 -0.0209726033 0.0000003907 -0.0139518706
-0.3620392475 1.4391054630 -0.4804635970 -0.0219421565 0.0022681567 -0.0122711097
-0.3794533217 0.9270998694 -0.4600122716 -0.0208994521 0.0022758667 -0.0117997204
0.4507917981 0.9363331720 0.0903782900 -0.0194729899 0.0023591956 -0.0140360229
0.3077913655 1.4899863994 -0.5565887876 -0.0208365786 0.0022801485 -0.0162751233
0.1552506520 1.8116443646 -0.5607199482 -0.0209474264 0.0022886377 -0.0162788655
0.1700479315 1.0791730870 -0.0897216550 -0.0209333995 0.0046515988 -0.0139536638
0.4791105280 0.4639849938 0.5196685993 -0.0189323521 0.0023547371 -0.0140563388
-0.2550573888 1.0024216249 -0.2209168202 -0.0209747221 0.0046452052 -0.0139774615
0.1127135749 0.9457248270 -0.5341592355 -0.0209441889 0.0016082377 -0.0160608935
-0.4125081933 1.0092368518 -0.1008259367 -0.0212016764 0.0000210532 -0.0139703375
-0.4216791783 1.8850292742 -0.5621484152 -0.0222109288 0.0023308953 -0.0157873719
0.1749600273 1.0024215528 0.2082989169 -0.0212829958 0.0000852337 -0.0141898050
-0.2291776367 1.0024215528 -0.4863737140 -0.0209660329 0.0029718566 -0.0139625670
-0.0452620055 1.0027728934 0.2587441232 -0.0209436633 0.0000000837 -0.0139478656
0.3162436282 0.9980624447 0.5610592946 -0.0212668872 0.0028804083 -0.0118704062
-0.3674821523 0.0588697641 -0.5471568869 -0.0191499520 0.0019257053 -0.0146705139
0.4139880141 2.0090273945 -0.5112732258 -0.0195381682 0.0023929477 -0.0123607578
0.4093234884 0.3664785609 -0.5621201311 -0.0198498632 0.0023876356 -0.0157926911
-0.0561442682 1.0024215528 -0.5233798570 -0.0206225186 0.0000603407 -0.0139368925
0.1963914350 1.0791730870 -0.3823359651 -0.0209327669 0.0046515988 -0.0139537103
-0.2896241075 2.0530856545 -0.5636836668 -0.0210041156 0.0023479690 -0.0162764025
0.2392724171 0.9000862459 0.5548355267 -0.0207138250 0.0010251656 -0.0124123860
-0.1925704436 1.0024215528 -0.4647713761 -0.0204908525 0.0000750932 -0.0139555012
-0.3674821523 0.2955389645 -0.5357379262 -0.0193230337 0.0023600259 -0.0149626279
-0.4279530581 1.1872747110 -0.5391933779 -0.0223993957 0.0022899332 -0.0157068433
-0.3570499605 1.9448829557 -0.4878094561 -0.0215790241 0.0023868122 -0.0118761393
-0.4198716565 1.3519989607 -0.4747728010 -0.0219149772 0.0024574260 -0.0118899895
0.1012162718 1.0024215528 -0.2010643521 -0.0207603760 0.0046284617 -0.0140143254
0.4582600573 0.8886886826 0.5605202174 -0.0197448950 0.0025286979 -0.0124196472
-0.0762387409 0.9591732238 0.4935025570 -0.0207860621 0.0004531690 -0.0149800481
0.0605088698 1.0024215528 0.1908283791 -0.0208379880 0.0046397465 -0.0139893928
0.0425277623 1.0024215528 -0.1509252123 -0.0209270454 0.0000218626 -0.0140866486
0.4791105280 0.5637346112 0.5101167128 -0.0191836715 0.0027565918 -0.0142641354
0.0442822396 1.6778078558 -0.5582608848 -0.0209481567 0.0022918427 -0.0162789143
0.4791105280 0.7335485808 0.5309474489 -0.0190167137 0.0025817867 -0.0137307053
-0.1873138031 1.0037448655 -0.1848884174 -0.0209621837 0.0000002349 -0.0139530684
-0.3673872200 1.0024215528 0.0822595615 -0.0205602335 0.0000623571 -0.0141650189
-0.4635711565 0.9149028110 0.2297587342 -0.0229427616 0.0012673097 -0.0139728494
-0.2102166865 1.0039113791 -0.3939444742 -0.0209666957 0.0000002931 -0.0139558082
0.3878840777 1.3681973976 -0.5496300050 -0.0202822348 0.0024166197 -0.0160903754
0.3096421496 1.0055424516 0.4408801050 -0.0209042549 0.0000005349 -0.0139273915
-0.4279530581 1.4985432140 -0.5000297563 -0.0225473075 0.0023690524 -0.0129562916
-0.1275578658 1.0024215528 -0.4741302372 -0.0205629664 0.0000668180 -0.0139539383
-0.0550449630 1.7699715330 -0.5590830217 -0.0209487242 0.0022902402 -0.0162788864
0.3559394426 0.9746689074 -0.4565413091 -0.0217069131 0.0004678192 -0.0139368459
0.3535171084 1.1961380061 -0.5382654496 -0.0221142753 0.0016410106 -0.0154921134
0.1877220864 1.0791730870 0.1093627680 -0.0209325994 0.0046515965 -0.0139537289
0.2691027103 1.0791730870 -0.2195251731 -0.0209311481 0.0046515942 -0.0139538243
0.0961421488 1.0024215528 0.0438513216 -0.0208547617 0.0046409606 -0.0140356903
0.3031922112 2.1213539091 -0.5730537802 -0.0209677074 0.0020590646 -0.0161369426
0.2982693957 1.2867932598 -0.4747340462 -0.0224613970 0.0019517357 -0.0128886828
0.3526381544 2.0012873953 -0.5224145576 -0.0186444083 0.0023630867 -0.0137173482
0.4280901526 0.9945486827 -0.2305759543 -0.0203698223 0.0043361756 -0.0140162163
0.0969197837 1.0791730870 -0.1694331377 -0.0209350299 0.0046516035 -0.0139535499
0.2255617045 1.0791730870 -0.2005314151 -0.0209321296 0.0046515965 -0.0139537545
-0.3605506283 1.5632703807 -0.5498987284 -0.0221527046 0.0022997993 -0.0154788726
0.0163024724 1.7403987296 -0.5589463528 -0.0209475195 0.0022915124 -0.0162789120
-0.2679335797 2.0932236601 -0.5156522776 -0.0209267593 0.0014081697 -0.0123295200
-0.0662483519 1.8306122178 -0.5601191930 -0.0209489475 0.0022876911 -0.0162788422
-0.0393558981 1.3443147506 -0.5237448245 -0.0209409328 0.0039762598 -0.0148129531
0.2349557899 1.2825176946 -0.4745813734 -0.0217948773 0.0011404278 -0.0129435718
-0.4279530581 0.3004529606 -0.4839258634 -0.0227895214 0.0022818975 -0.0126133704
0.4116622100 0.7039669765 0.5338304296 -0.0220981692 0.0016199249 -0.0131140695
-0.0955844024 1.0024215528 -0.4218586653 -0.0206271260 0.0000589359 -0.0139755473
-0.0517984173 1.0024215528 0.0591140386 -0.0209233613 0.0000312890 -0.0141619466
0.4166782182 0.6137566119 0.5605202174 -0.0218933263 0.0025836706 -0.0122011193
0.4725582030 0.2713896362 0.5605202174 -0.0199496030 0.0023702874 -0.0119205738
0.3647208647 2.1723009983 -0.5548446461 -0.0210703847 0.0046266290 -0.0140502894
0.1991915124 1.4366341520 -0.4740276041 -0.0208926026 0.0022436799 -0.0116350860
0.3994295947 0.9932729978 0.2827912441 -0.0217842228 0.0002767172 -0.0141840138
-0.4279530930 1.4456545923 -0.4785403082 -0.0221996393 0.0024030068 -0.0120607640
-0.0624263278 1.0665701083 -0.5330946382 -0.0209459240 0.0037111925 -0.0157917933
0.1487495180 1.9395344878 -0.5626812825 -0.0209459891 0.0022832860 -0.0162787841
-0.4473517106 1.0109808490 0.0103605338 -0.0212876846 0.0000290795 -0.0139760450
0.2577791262 1.0024215528 -0.2274450662 -0.0206347500 0.0046173211 -0.0140164396
-0.4607629504 1.0101656686 0.3500738810 -0.0213412339 0.0000483279 -0.0139757101
-0.4598393155 0.4521237698 0.4953977036 -0.0217084923 0.0016733904 -0.0154693903
0.3982439068 1.0024215528 0.0206582429 -0.0206226116 0.0046208470 -0.0140422025
0.3896294611 0.0023258041 -0.5470314702 -0.0207674557 0.0015036440 -0.0144600239
-0.1254348719 1.0024215528 0.5417712620 -0.0207303661 0.0046124137 -0.0137696160
-0.1582294511 1.0024215528 0.5558033798 -0.0208334946 0.0042927575 -0.0133419774
0.4116622100 0.7532248622 0.5509615162 -0.0218971499 0.0023052998 -0.0124194123
-0.3870684345 0.9000861738 -0.2587696396 -0.0211074976 0.0005258317 -0.0139453863
-0.4279530581 0.3633267871 -0.5560102461 -0.0227988479 0.0023728458 -0.0152922943
-0.0941663271 1.9423736038 -0.5619620973 -0.0209495010 0.0022829907 -0.0162787632
-0.1971085943 1.0024214807 0.0999210222 -0.0208698399 0.0046375835 -0.0138994377
0.4139879792 0.0891819406 -0.5281654710 -0.0188853988 0.0021336764 -0.0137028398
0.1774528427 1.0041829400 0.2534066913 -0.0209093786 0.0000003814 -0.0139512473
-0.3667166907 1.7076529294 -0.5317953510 -0.0232188090 0.0023221758 -0.0142099395
0.1574034465 1.0024215528 -0.0595381048 -0.0207711654 0.0046319737 -0.0140283454
0.4248393646 0.5434909312 0.5605202174 -0.0216515217 0.0025398757 -0.0121890786
0.4252450383 1.0075161335 0.3317674726 -0.0208397836 0.0000038608 -0.0139575735
0.0958524257 1.9165187657 -0.5622560185 -0.0209465961 0.0022841931 -0.0162787981
-0.4745269868 0.3010519063 0.4953977036 -0.0220352655 0.0021718451 -0.0157846275
-0.2081113756 2.1484184932 -0.5716010388 -0.0209514710 0.0028876346 -0.0160909010
0.2230760921 1.0046110089 0.4015820868 -0.0209208146 0.0000005163 -0.0139201676
-0.3674821523 0.8685497662 -0.5036832736 -0.0188652782 0.0021818949 -0.0139770940
0.4099367006 1.0791730870 -0.0573197785 -0.0209269477 0.0046515825 -0.0139541383
0.2223414194 1.0041024509 -0.4441044184 -0.0209016058 0.0000003838 -0.0139564083
-0.2766220209 1.7695499229 -0.4775105259 -0.0210431449 0.0023888450 -0.0116359094
-0.4116724296 0.8560174105 0.5219860631 -0.0203785813 0.0022030970 -0.0141891910
0.4107120632 1.7760580297 -0.5629317274 -0.0193473151 0.0022493944 -0.0154644154
-0.4279530581 0.9597766072 -0.4950753564 -0.0229832051 0.0023381145 -0.0139855994
-0.2267930805 1.9178578357 -0.4806226937 -0.0209627093 0.0024210783 -0.0116297855
0.0641781630 1.6228598812 -0.4743745094 -0.0209144093 0.0023635937 -0.0116281133
0.4555479209 1.0024215528 0.2013657252 -0.0206470744 0.0046262383 -0.0140596949
0.3766426340 1.2776128367 -0.5473752869 -0.0206264794 0.0015868636 -0.0156267752
0.3042639068 1.0024215528 -0.4442763627 -0.0205201111 0.0046036198 -0.0139987146
0.0926809639 1.5100132424 -0.4734489557 -0.0209091856 0.0023493063 -0.0116279854
0.3535171084 1.0456561827 -0.4718685974 -0.0186201525 0.0023258041 -0.0138815848
-0.1172753232 1.3450114708 -0.5190463351 -0.0209278897 0.0003253451 -0.0132639443
