-0.4591897509 0.5333675604 -0.1534587922 -0.0330122747 0.0027344995 -0.0320662632
-0.2101827698 0.7805286025 -0.3086614116 -0.0069509011 0.0000000000 -0.0044394938
0.1539472523 0.3848201811 -0.4232595060 -0.0320523379 -0.0005764160 -0.0129406729
0.4381417290 0.4751301567 0.1345887030 -0.0098637936 0.0005358328 -0.0351609337
0.1821080658 0.7718425101 0.3273860168 -0.0290446424 0.0000000000 -0.0355431082
0.2548085893 0.8151691288 0.2596852660 -0.0318351313 -0.0024656310 -0.0333042622
-0.0085597459 0.8183249627 0.0172266622 -0.0014846333 0.0000000000 -0.0118109791
0.1022470703 0.8270508881 0.3310520257 -0.0191564219 -0.0192337416 -0.0192812297
-0.0357918197 0.8168222497 0.0716907713 -0.0365339344 0.0000000000 -0.0274346243
0.4875108584 0.0544059847 0.1748187662 -0.0023720781 0.0015616259 -0.0114730807
0.4845016434 0.0000000000 0.1676701807 -0.0134872766 -0.0078221896 -0.0238170653
-0.3156963642 0.8270508881 0.0952422571 -0.0191564219 -0.0192337416 -0.0192812297
0.3220225341 0.8139081070 -0.1614600479 -0.0358813335 -0.0037660820 -0.0108122478
-0.4074413884 0.6935752802 -0.1539174208 -0.0185994897 0.0011138452 -0.0383999343
-0.0771491340 0.8270508881 -0.2028473862 -0.0191564219 -0.0192337416 -0.0192812297
-0.2088730289 0.8270508881 0.2266485451 -0.0191564219 -0.0192337416 -0.0192812297
-0.1345588714 0.6051092242 0.4268882206 -0.0022777943 -0.0010075019 -0.0272596357
-0.0635553602 0.8270508881 -0.1771335855 -0.0191564219 0.0192337416 -0.0192812297
-0.1556195684 0.8270509650 0.0597561192 -0.0191564219 0.0192337416 -0.0192812297
0.3171969999 0.8090490484 0.1056590784 -0.0101619358 0.0038110890 -0.0352996859
0.3668682145 0.7807542142 0.0522543830 -0.0004335093 0.0020619917 -0.0161120284
-0.1857991939 0.8270508881 0.1358313950 -0.0191564219 0.0192337416 -0.0192812297
-0.2521394845 0.8151678017 -0.0973052682 -0.0104131092 -0.0006287702 -0.0361390849
-0.3476033142 0.8035050571 -0.1552829395 -0.0355669388 0.0036104810 -0.0278926759
0.1731809939 0.1299276365 -0.4662765000 -0.0003660181 0.0009534358 -0.0166050854
0.4616871176 0.1728922185 0.1781973460 -0.0331065201 0.0000000000 -0.0060431839
-0.2320196444 0.7748452242 -0.2872615468 -0.0063854099 0.0000000000 -0.0049236070
-0.1700867272 0.3361788949 0.4760562228 -0.0270271960 0.0018975817 -0.0027937394
0.1439305505 0.6139261444 -0.4424235445 -0.0141771525 0.0024157964 -0.0368019950
-0.0609948107 0.8270508881 0.3273200451 -0.0191564219 0.0192337416 -0.0192812297
-0.0224139446 0.8270508881 0.0817527301 -0.0191564219 -0.0192337416 -0.0192812297
0.2994363898 0.8270508881 -0.0921231981 -0.0191564219 0.0192337416 -0.0192812297
-0.1559965498 0.7908810869 0.3390139676 -0.0268519189 0.0000000000 -0.0018182425
0.2321989991 0.8094286648 0.2871418552 -0.0064004122 0.0020460277 -0.0053810431
0.4424533761 0.5450793896 0.1650544303 -0.0015172537 0.0014564751 -0.0119054168
-0.1284602559 0.8270508881 0.2230155029 -0.0191564219 0.0192337416 -0.0192812297
0.4562882641 0.4242020748 0.1484236295 -0.0046831468 0.0007302475 -0.0315322191
-0.4381404403 0.3994627324 -0.1539174208 -0.0057704879 -0.0009019278 -0.0302899502
0.1155553000 0.7681039708 -0.3667343861 -0.0352125763 0.0033758486 -0.0291787400
-0.1652356314 0.5827177831 0.4230948267 -0.0254749946 -0.0011369834 -0.0371848042
-0.2184738972 0.8170377445 -0.0600753993 -0.0259891125 0.0017299212 -0.0015420075
-0.2977982713 0.8270508881 -0.1819731603 -0.0191564219 -0.0192337416 -0.0192812297
0.0367133852 0.8045849355 0.0006529086 -0.0152156399 -0.0108570624 -0.0327744880
0.1921464248 0.8270508881 0.2927653204 -0.0191564219 -0.0192337416 -0.0192812297
0.3655184097 0.8043146437 0.0311903586 -0.0383383478 0.0000000000 -0.0204235985
0.1387231881 0.6984184902 -0.3913372844 -0.0180108026 -0.0084882541 -0.0025396232
0.0760416937 0.8270508881 -0.2090673474 -0.0191564219 0.0192337416 -0.0192812297
-0.0090120273 0.8057193223 0.0139355190 -0.0037862390 -0.0105912137 -0.0186007591
-0.3335648178 0.8270508881 -0.0725348056 -0.0191564219 -0.0192337416 -0.0192812297
0.0042013031 0.8078171465 -0.0688048638 -0.0244902270 -0.0166599592 -0.0214542193
0.4741784327 0.1429679979 0.1844900493 -0.0034829421 0.0018974086 -0.0086253329
0.0446502656 0.8270508881 -0.2575171232 -0.0191564219 0.0192337416 -0.0192812297
0.0921237174 0.8202233522 -0.2926115082 -0.0298959278 0.0137248133 -0.0268443408
-0.1196685896 0.7886056391 0.3653936020 -0.0263386473 0.0052201913 -0.0045491069
0.0875085427 0.8270508881 -0.0840132140 -0.0191564219 -0.0192337416 -0.0192812297
-0.1485269339 0.6347279937 0.4423212595 -0.0160161097 0.0045397785 -0.0017097642
-0.4370666590 0.3445835783 -0.1399157570 -0.0036985331 -0.0018734626 -0.0082276561
0.1842603022 0.8085468939 0.0920440128 -0.0229019238 -0.0004542048 -0.0009055246
-0.0973481017 0.8270508881 0.2717139710 -0.0191564219 -0.0192337416 -0.0192812297
-0.1238991857 0.8082283254 -0.0192812297 -0.0238429539 0.0000000000 -0.0006656029
0.4682632878 0.0897350983 0.1538224638 -0.0191564219 -0.0001280390 -0.0385085857
-0.1842046590 0.8270508881 -0.0080977706 -0.0191564219 0.0192337416 -0.0192812297
0.4337579746 0.5714833739 0.1381726414 -0.0066479120 0.0008974271 -0.0333466149
-0.4436092470 0.5162818623 -0.1359941894 -0.0349788287 0.0009936536 -0.0084629232
0.1648243371 0.7827058043 -0.3362179201 -0.0272286694 0.0000000000 -0.0019497821
-0.1223062856 0.8270508881 -0.2108564123 -0.0191564219 0.0192337416 -0.0192812297
-0.1555419411 0.4837785893 0.4230948267 -0.0276808931 -0.0006534087 -0.0364314378
0.3050908598 0.8270508881 -0.1042183173 -0.0191564219 -0.0192337416 -0.0192812297
-0.0044187213 0.8265808732 0.0089445938 -0.0017093026 0.0000000000 -0.0112685491
0.1543436213 0.1464895036 -0.4808910277 -0.0191564219 0.0020788213 -0.0383991457
-0.1713109741 0.8270508881 0.1028016560 -0.0191564219 0.0192337416 -0.0192812297
-0.1227225038 0.8270508881 0.0426346656 -0.0191564219 0.0192337416 -0.0192812297
0.1270422868 0.8270508881 -0.1061227077 -0.0191564219 0.0192337416 -0.0192812297
0.2322310232 0.8270508881 0.1030541566 -0.0191564219 0.0192337416 -0.0192812297
0.1099227373 0.8270508881 -0.2155580043 -0.0191564219 0.0192337416 -0.0192812297
0.4347067751 0.4974012907 0.1345887030 -0.0116693034 0.0006255774 -0.0356433544
0.0411246053 0.7964527941 0.0150930825 -0.0211734067 -0.0166868288 -0.0130007399
-0.0843502469 0.8270508881 0.3150429363 -0.0191564219 -0.0192337416 -0.0192812297
-0.0737412612 0.8270508881 0.0546668712 -0.0191564219 0.0192337416 -0.0192812297
0.4232195960 0.4973471093 0.1684066792 -0.0377028458 -0.0008546321 -0.0166022580
-0.1430935173 0.8270508881 -0.1038627239 -0.0191564219 -0.0192337416 -0.0192812297
0.1616131101 0.4561355289 -0.4473927740 -0.0083723900 0.0020102145 -0.0347960889
0.1515554404 0.2976049530 -0.4424235061 -0.0312783529 -0.0014733431 -0.0048535385
0.1755794992 0.8270509650 0.0362659891 -0.0191564219 0.0192337416 -0.0192812297
-0.2155867972 0.8270508881 -0.1558423913 -0.0191564219 -0.0192337416 -0.0192812297
-0.0947738962 0.8270508881 0.0060936148 -0.0191564219 0.0192337416 -0.0192812297
-0.1537926130 0.7264611508 0.3844469311 -0.0380799040 0.0018340142 -0.0190737553
-0.2922393545 0.8055430066 0.2269468605 -0.0046948409 0.0000000000 -0.0319384165
-0.3863662661 0.7298582142 -0.1498071702 -0.0161731148 0.0034554763 -0.0378260571
-0.3337475961 0.8270508881 0.0682641264 -0.0191564219 -0.0192337416 -0.0192812297
0.4090738715 0.7156182444 0.1403209157 -0.0031888390 0.0099504608 -0.0175098213
-0.0566677958 0.8270508881 -0.0793148726 -0.0191564219 0.0192337416 -0.0192812297
-0.2395859483 0.8270508881 -0.1360999173 -0.0191564219 0.0192337416 -0.0192812297
0.1347135107 0.2722255116 -0.4580726745 -0.0367513333 0.0000000000 -0.0258543416
0.3024487784 0.8042846391 0.1007429917 -0.0111100246 0.0020148114 -0.0360725938
0.0429680825 0.8226276468 -0.1066964502 -0.0050457798 0.0109342090 -0.0168333129
-0.1441847629 0.4416904697 0.4386189373 -0.0051454875 -0.0025255057 -0.0320454330
-0.0398466578 0.8078172234 0.1434129320 -0.0092019413 -0.0150945827 -0.0151799420
0.4300291099 0.6584125001 0.1543971103 -0.0025752057 0.0050637056 -0.0114028199
0.0717860745 0.8270508881 -0.2142953861 -0.0191564219 -0.0192337416 -0.0192812297
0.2449343902 0.8270508881 0.1405514129 -0.0191564219 -0.0192337416 -0.0192812297
-0.3653637704 0.7832924911 -0.0783623792 -0.0000840707 0.0000000000 -0.0175931611
-0.3702586807 0.8029221977 0.0452272586 -0.0014686308 -0.0060236232 -0.0213068697
0.3701498755 0.7344270934 0.1264123625 -0.0295451620 -0.0123419842 -0.0296699698
-0.2066642453 0.8270508881 0.2403875337 -0.0191564219 0.0192337416 -0.0192812297
0.2583697165 0.8270508881 -0.1930491797 -0.0191564219 0.0192337416 -0.0192812297
-0.3103435946 0.8270508881 -0.2025283369 -0.0257833691 0.0149972600 -0.0235414073
-0.2741574448 0.7753629195 -0.2643574880 -0.0330426833 0.0000000000 -0.0324199717
-0.3792425306 0.7789316826 -0.0161124131 -0.0003127599 -0.0023239938 -0.0182310289
0.3655183713 0.7848716390 -0.0198933435 -0.0383823162 0.0000000000 -0.0192251826
-0.2951309552 0.8021505593 -0.1154499376 -0.0113346555 -0.0098553307 -0.0337652950
-0.0623410764 0.8270508881 0.2656635745 -0.0191564219 0.0192337416 -0.0192812297
-0.2927741102 0.8270508881 -0.1092106465 -0.0191564219 0.0192337416 -0.0192812297
0.0207185864 0.8270508881 0.1549966453 -0.0191564219 -0.0192337416 -0.0192812297
-0.1754059147 0.8270508881 -0.3173349635 -0.0214079045 0.0176630758 -0.0219830126
-0.3795615992 0.8023270288 0.0200961633 -0.0380971182 0.0000000000 -0.0160519614
-0.0391702264 0.8270508881 0.0978420242 -0.0191564219 -0.0192337416 -0.0192812297
-0.4422987368 0.2927414706 -0.1637770022 -0.0012811595 -0.0006797012 -0.0258536877
0.4290699040 0.4494355512 0.1730561861 -0.0235702579 0.0000000000 -0.0013509588
-0.4531252753 0.5697540297 -0.1497331011 -0.0343157454 0.0034474751 -0.0289784014
-0.1423730983 0.3762569154 0.4506426224 -0.0022023211 -0.0029520524 -0.0250415814
-0.3292691732 0.8270508112 -0.1134609187 -0.0191564219 -0.0192337416 -0.0192812297
-0.2654607354 0.7875602468 0.2537254603 -0.0052403675 0.0000000000 -0.0325357780
-0.2063146528 0.7793349949 0.3128716007 -0.0308741559 0.0000000000 -0.0041231564
-0.2750116922 0.8270508881 0.0408286750 -0.0191564219 -0.0192337416 -0.0192812297
0.1876225141 0.8270508881 0.3209169594 -0.0114171298 0.0119263238 -0.0082796641
0.1291418997 0.8159755419 0.3393288047 -0.0261504066 -0.0085437242 -0.0345655148
-0.2532073803 0.8270508881 -0.0761796958 -0.0191564219 0.0192337416 -0.0192812297
0.2898151914 0.8270508881 -0.1972353266 -0.0191564219 0.0192337416 -0.0192812297
0.4446447532 0.3096434095 0.1535051840 -0.0248594187 -0.0020273518 -0.0374072616
-0.1291680768 0.8270508881 0.1417809875 -0.0191564219 0.0192337416 -0.0192812297
-0.4355503670 0.3482299688 -0.1521932889 -0.0021187697 -0.0024891924 -0.0108318085
0.1120207346 0.8199224596 -0.3471195856 -0.0133033636 0.0043266879 -0.0361661468
-0.1281762505 0.7560552242 0.3912746016 -0.0152097543 0.0097489489 -0.0036200787
0.1393629600 0.1965302561 -0.4595147050 -0.0348257088 -0.0026334262 -0.0088582920
0.1539472523 0.2845881337 -0.4358133692 -0.0294271822 -0.0011112294 -0.0070577830
-0.1248541409 0.8270508881 -0.2074007437 -0.0191564219 -0.0192337416 -0.0192812297
0.4191045947 0.6641927202 0.1345887030 -0.0168442185 0.0000000000 -0.0378745261
0.2786049975 0.8229471001 0.2361081993 -0.0044276842 0.0025865536 -0.0077246553
-0.3205407859 0.7809359539 -0.1154499376 -0.0096648205 -0.0098984720 -0.0326189255
-0.3561006851 0.8270508881 -0.0297867955 -0.0191564219 0.0192337416 -0.0192812297
-0.1508147490 0.4757406741 0.4510426073 -0.0097460831 0.0013591523 -0.0030750906
-0.4868078075 0.0169894717 -0.1829454837 -0.0297956046 0.0002023390 -0.0348480392
-0.1666335975 0.3395421839 0.4754956939 -0.0239943234 0.0019128533 -0.0026006327
-0.2726122060 0.8270508881 -0.1220325703 -0.0191564219 0.0192337416 -0.0192812297
-0.1583444703 0.8270508881 0.2934241530 -0.0191564219 -0.0192337416 -0.0192812297
-0.1805848496 0.8270508881 0.0899629989 -0.0191564219 -0.0192337416 -0.0192812297
0.1003406603 0.8270508881 -0.3202605118 -0.0191564219 -0.0192337416 -0.0192812297
0.1413280714 0.5256968558 -0.4424235445 -0.0240375416 0.0019420886 -0.0372530263
-0.0681974622 0.8078171465 0.1891735038 -0.0329278579 -0.0097202329 -0.0246960857
0.4593897242 0.3427310998 0.1515250318 -0.0054696337 0.0001817973 -0.0326506612
-0.0491306887 0.8270508881 0.0022663887 -0.0191564219 0.0192337416 -0.0192812297
-0.0847018397 0.7999729920 0.2727998888 -0.0082965514 -0.0133178658 -0.0171321860
0.1020206315 0.8270508881 0.1357487284 -0.0191564219 -0.0192337416 -0.0192812297
0.1740368377 0.8078171465 0.0829781887 -0.0239558944 -0.0065794976 -0.0053754846
-0.1358003710 0.4210038882 0.4426849695 -0.0035315073 -0.0028809837 -0.0300814180
-0.0899139721 0.7693496633 0.3621665264 -0.0191564219 0.0000856479 -0.0246101686
-0.1537926130 0.1661664099 0.4499909832 -0.0049472068 -0.0005951689 -0.0288038744
0.0126777861 0.8270508881 0.3264526995 -0.0191564219 -0.0192337416 -0.0192812297
-0.4545735760 0.3937717952 -0.1346836792 -0.0272425754 0.0005690495 -0.0041365431
-0.0173561822 0.8076301945 -0.3654885782 -0.0192161235 0.0000000000 -0.0000504693
-0.3262912899 0.8270508881 -0.0820182904 -0.0191564219 -0.0192337416 -0.0192812297
0.4366494022 0.3653110123 0.1730561861 -0.0223094284 0.0000000000 -0.0009786128
-0.1566244737 0.5655641514 0.4510216233 -0.0301977436 0.0023538253 -0.0041046343
0.1894742041 0.8270508881 0.1687161501 -0.0191564219 0.0192337416 -0.0192812297
-0.1345588714 0.5564156415 0.4238369799 -0.0055733036 -0.0017031286 -0.0320260262
-0.1210747876 0.8270508881 -0.2813098193 -0.0191564219 -0.0192337416 -0.0192812297
-0.2462719046 0.8270508881 0.1565287282 -0.0191564219 -0.0192337416 -0.0192812297
-0.0825705488 0.8270508881 -0.1791477044 -0.0191564219 -0.0192337416 -0.0192812297
-0.0875263531 0.8270508881 0.0949450573 -0.0191564219 -0.0192337416 -0.0192812297
0.4462258821 0.0773061775 0.1572269899 -0.0362558529 -0.0026414082 -0.0264828619
-0.4618846674 0.2868382122 -0.1346836792 -0.0172621292 -0.0005845519 -0.0008612292
-0.3102159595 0.8270508881 -0.1747335800 -0.0191564219 0.0192337416 -0.0192812297
-0.2072310252 0.8270508881 -0.1449982540 -0.0191564219 0.0192337416 -0.0192812297
-0.1024859342 0.8270509650 0.3480389200 -0.0191564219 -0.0192337416 -0.0192812297
-0.0105822892 0.8270508881 -0.1659870168 -0.0191564219 -0.0192337416 -0.0192812297
0.2517408652 0.8270508881 0.1124270281 -0.0191564219 -0.0192337416 -0.0192812297
0.0655058732 0.8270508881 0.3612024351 -0.0218112553 -0.0123774128 -0.0299005823
-0.2437346471 0.8193586801 -0.2755465248 -0.0303248017 0.0093860851 -0.0308452668
-0.0043916402 0.8175965424 -0.3749429046 -0.0181471314 0.0086723979 -0.0358825068
0.0436984069 0.7972227593 0.3653936020 -0.0204775300 -0.0020801099 -0.0381785731
0.2949581978 0.8200131466 0.2115784470 -0.0347210003 -0.0013342062 -0.0300812833
0.1534001870 0.6254272103 -0.4055037428 -0.0191564219 -0.0023338030 -0.0001904140
-0.1626145148 0.8078172234 0.3336755465 -0.0109039543 -0.0074972163 -0.0347226352
0.2645853502 0.8270508881 0.2018433464 -0.0191564219 0.0192337416 -0.0192812297
-0.0022662925 0.7978673204 -0.0076537597 -0.0180497894 -0.0109237651 -0.0133497554
-0.1254139390 0.8270508881 0.0267203986 -0.0191564219 -0.0192337416 -0.0192812297
0.0452713423 0.8008992890 -0.1658506688 -0.0264924980 -0.0163179641 -0.0224150794
-0.1730263546 0.1964359531 0.4556230844 -0.0343433651 -0.0007844674 -0.0264509915
0.0080266827 0.8078171465 -0.0811174588 -0.0238183539 -0.0166818280 -0.0206132048
-0.2311764372 0.8270508881 0.1067159148 -0.0191564219 -0.0192337416 -0.0192812297
0.4597478180 0.1121847407 0.1538224446 -0.0191564219 0.0000000000 -0.0385149713
-0.1402639839 0.7844592291 0.3638126461 -0.0325092739 0.0106553197 -0.0130554214
0.1068260280 0.8270508881 0.3242974626 -0.0191564219 0.0192337416 -0.0192812297
0.3368149739 0.8227985963 0.1342943883 -0.0021003053 0.0029903467 -0.0117089633
0.3518816292 0.7829865208 0.1410155808 -0.0104150326 0.0124431152 -0.0096150244
-0.1892605557 0.0187120071 0.4992869090 -0.0320509531 0.0004392794 -0.0052454260
-0.1753391543 0.8270508112 -0.1058002733 -0.0191564219 0.0192337416 -0.0192812297
0.2899905839 0.7713872475 0.2190298101 -0.0345909418 0.0000000000 -0.0307121308
0.1347135107 0.3337901026 -0.4477828535 -0.0381462027 0.0000000000 -0.0208797844
0.1693210512 0.7949313090 0.3359106804 -0.0103178637 0.0000000000 -0.0023760595
0.0538960598 0.8083482863 0.0076281404 -0.0132687621 0.0001601401 -0.0374325348
0.1539472523 0.0797682311 -0.4691185930 -0.0376431827 -0.0015588948 -0.0153870317
-0.0432979989 0.8270508881 -0.2855778251 -0.0191564219 0.0192337416 -0.0192812297
-0.1541790381 0.8270508881 0.1018020785 -0.0191564219 0.0192337416 -0.0192812297
0.2515463928 0.7992155095 0.0854891344 -0.0177427996 -0.0133119418 -0.0246220166
-0.1713171289 0.8270508881 -0.0039597081 -0.0191564219 -0.0192337416 -0.0192812297
-0.0181712120 0.7872390241 0.3846273436 -0.0186829642 0.0034890584 -0.0007607714
-0.1510381681 0.8270508881 0.3195437664 -0.0191564219 -0.0192337416 -0.0192812297
0.1212516227 0.8270508881 0.1611233228 -0.0191564219 -0.0192337416 -0.0192812297
0.1731809939 0.4945260771 -0.4303566028 -0.0049946372 0.0000268118 -0.0094938325
-0.1386933758 0.8270508881 0.1496788042 -0.0191564219 -0.0192337416 -0.0192812297
0.0500844130 0.7900536129 -0.1429396089 -0.0208012915 -0.0188377958 -0.0196553260
-0.0379760418 0.8242391651 0.0760592541 -0.0363873925 0.0000000000 -0.0278113941
-0.3330424294 0.7725278660 0.1734538630 -0.0024654387 0.0000000000 -0.0284692842
-0.1409109300 0.4006646681 0.4460748780 -0.0032820457 -0.0025179660 -0.0295779940
-0.0711695946 0.7920953707 0.2071715160 -0.0151194904 -0.0175631757 -0.0184859337
0.0461839641 0.8057624636 -0.1307282795 -0.0041269647 -0.0072766822 -0.0130393228
-0.0667721266 0.8033539183 -0.0192812297 -0.0193716667 -0.0047860666 -0.0046597586
-0.3723104594 0.7809711709 0.0491007418 -0.0004969614 -0.0016848181 -0.0222612864
-0.1614569513 0.5629269362 0.4230948267 -0.0265121164 -0.0007893335 -0.0368221135
0.2969083645 0.7899894876 0.2086531488 -0.0348291324 -0.0001826628 -0.0303671737
-0.3694544603 0.7885834049 -0.0899297822 -0.0347290208 -0.0051503344 -0.0257920436
-0.1246491669 0.8078171465 -0.0448576822 -0.0186316870 -0.0165237843 -0.0224296586
-0.3217996150 0.8270508881 -0.1367111656 -0.0191564219 0.0192337416 -0.0192812297
0.0958446963 0.8270508881 -0.0527277639 -0.0191564219 -0.0192337416 -0.0192812297
0.1594829732 0.7995131709 0.0594989833 -0.0214231569 -0.0139522331 -0.0099533459
-0.4801250632 0.2502555972 -0.1660554312 -0.0280212342 0.0016441772 -0.0356495669
-0.1151152513 0.8270508881 -0.2036118889 -0.0191564219 0.0192337416 -0.0192812297
-0.1281286470 0.8270508881 -0.2604781770 -0.0191564219 0.0192337416 -0.0192812297
0.2736920459 0.8037197441 -0.2339557513 -0.0346846101 0.0000000000 -0.0079757710
-0.0700658086 0.8078171465 0.1723265926 -0.0243468202 -0.0163925333 -0.0207642089
-0.0181786170 0.7705380585 0.3846273820 -0.0183395457 0.0001258848 -0.0002639062
-0.1421889929 0.5309965402 0.4211472373 -0.0089168780 -0.0023891769 -0.0352449467
-0.1537926130 0.2479929783 0.4788859101 -0.0095110467 0.0012619835 -0.0031025949
0.4426352696 0.3447175798 0.1476594921 -0.0267318234 -0.0023357648 -0.0366611271
-0.4615324784 0.4491528922 -0.1544376743 -0.0358195740 0.0014649764 -0.0278460533
0.0602549463 0.7741805445 -0.3774856053 -0.0144511371 -0.0019721894 -0.0373417900
-0.1911463472 0.8270508881 -0.1881750226 -0.0191564219 0.0192337416 -0.0192812297
-0.1730263546 0.1596270147 0.4555210301 -0.0310900161 -0.0012825636 -0.0319049113
0.1718163599 0.1118220500 -0.4424235830 -0.0181735008 -0.0016285594 -0.0006910683
0.3589748216 0.8069763243 -0.1031568455 -0.0011910687 0.0025608958 -0.0252734057
-0.1612326282 0.2598204792 0.4423285683 -0.0147784569 -0.0010011547 -0.0363441743
0.1121245391 0.8270508881 -0.2471611190 -0.0191564219 0.0192337416 -0.0192812297
0.1497291774 0.8270508881 -0.1333481266 -0.0191564219 -0.0192337416 -0.0192812297
0.1214408250 0.8270508881 0.2821617587 -0.0191564219 -0.0192337416 -0.0192812297
0.2156619627 0.8270508881 -0.0612714880 -0.0191564219 -0.0192337416 -0.0192812297
-0.0964470009 0.8138125730 -0.3605912444 -0.0241510977 0.0047932600 -0.0360054488
-0.0303238977 0.7827055158 -0.3654885782 -0.0186299752 0.0000000000 -0.0000848977
-0.1604701834 0.8270508881 -0.0580562027 -0.0145333421 0.0087971095 -0.0315693787
0.3356686237 0.8270508881 -0.1039241757 -0.0191564219 -0.0192337416 -0.0192812297
-0.1813768759 0.8270508881 0.1624751856 -0.0191564219 -0.0192337416 -0.0192812297
0.3024043870 0.7930494990 0.2169365250 -0.0039333194 0.0002919490 -0.0077652770
-0.1468821220 0.4801205817 0.4501666642 -0.0108414639 0.0017144957 -0.0023938507
-0.1744972358 0.8270508881 -0.2448579938 -0.0191564219 0.0192337416 -0.0192812297
-0.0376927288 0.8270508112 -0.0082946280 -0.0191564219 0.0192337416 -0.0192812297
-0.1537926130 0.6313395085 0.4162532117 -0.0321252915 -0.0007322478 -0.0300263325
-0.4615324784 0.0404331139 -0.1586837150 -0.0017355759 -0.0024455702 -0.0142575880
0.1347135107 0.6598151207 -0.4157277267 -0.0380154325 -0.0030440281 -0.0192812297
-0.4437068005 0.4007663954 -0.1731511624 -0.0235242893 0.0008735773 -0.0378613318
-0.4422987368 0.3886350591 -0.1678083175 -0.0014058134 -0.0013590177 -0.0262928517
0.0788356447 0.8270509650 -0.2403587408 -0.0191564219 -0.0192337416 -0.0192812297
0.1539472523 0.6582568799 -0.4133135652 -0.0002738115 0.0012459425 -0.0202424167
0.3655184097 0.7729496812 -0.0177265471 -0.0383862591 0.0000000000 -0.0193361997
0.1156717988 0.7438468183 -0.3909914232 -0.0321406593 0.0056849939 -0.0317469254
0.1572291633 0.8270508881 -0.2280178914 -0.0191564219 0.0192337416 -0.0192812297
0.1795390918 0.8270508881 -0.1407892574 -0.0191564219 -0.0192337416 -0.0192812297
0.0021214817 0.8270508112 0.0189403116 -0.0191564219 -0.0192337416 -0.0192812297
0.1729843481 0.8270508881 0.1169395909 -0.0191564219 0.0192337416 -0.0192812297
-0.1951494273 0.8078171465 -0.3122421765 -0.0093398472 -0.0098930481 -0.0061108482
0.1608930757 0.5356613572 -0.4396984696 -0.0075511669 0.0019176233 -0.0341480849
0.0904988894 0.8177611832 -0.2328447335 -0.0013873875 0.0020761285 -0.0125220698
0.4280666720 0.3047857165 0.1730561861 -0.0340499928 -0.0013358026 -0.0148586039
-0.0790244239 0.8248840917 0.1603278153 -0.0324919059 0.0125836370 -0.0223462226
-0.0620986928 0.7801355609 -0.3654885782 -0.0171321091 0.0000000000 -0.0001913565
-0.0279758233 0.8270508881 -0.2166379212 -0.0191564219 -0.0192337416 -0.0192812297
-0.3508968617 0.8270508881 0.0160459797 -0.0191564219 0.0192337416 -0.0192812297
0.0288886952 0.8270508112 0.1626617721 -0.0191564219 0.0192337416 -0.0192812297
0.1574761438 0.8270508881 0.3137577569 -0.0191564219 -0.0192337416 -0.0192812297
-0.0832741768 0.8270508881 -0.1167736806 -0.0191564219 -0.0192337416 -0.0192812297
0.3056043238 0.8270508881 0.0874211061 -0.0191564219 -0.0192337416 -0.0192812297
0.1533575843 0.3779768350 -0.4616572861 -0.0194763752 0.0020894383 -0.0383030154
-0.3230843520 0.8106199066 0.1841867716 -0.0059068936 -0.0108064969 -0.0278728651
0.0896017123 0.7952277202 -0.3112159987 -0.0355909040 -0.0087967248 -0.0211906594
0.2597502953 0.8270508112 0.1405710313 -0.0191564219 -0.0192337416 -0.0192812297
0.2291191962 0.7737087793 0.2902216581 -0.0064535550 0.0000000000 -0.0048613667
-0.2190964935 0.8189688699 0.2898014778 -0.0298558639 0.0062406567 -0.0049980609
0.1455574558 0.5191722128 -0.4424513181 -0.0220822972 0.0019579949 -0.0378828928
0.1239626570 0.8270508881 -0.1427374815 -0.0191564219 -0.0192337416 -0.0192812297
0.0090031029 0.8270508881 -0.1337554396 -0.0191564219 -0.0192337416 -0.0192812297
0.1154797691 0.7389270773 -0.3858162773 -0.0345691307 0.0031333688 -0.0274696297
-0.0763143320 0.8153567347 0.2675949306 -0.0014117374 0.0013765397 -0.0121960771
-0.2596892474 0.7885211838 0.2594969676 -0.0329549005 0.0000000000 -0.0058979307
0.1336005503 0.8270508881 0.3016841795 -0.0191564219 0.0192337416 -0.0192812297
-0.0433014417 0.8270508881 -0.2635543639 -0.0191564219 0.0192337416 -0.0192812297
-0.0948772583 0.8270508881 -0.0501739076 -0.0191564219 0.0192337416 -0.0192812297
-0.1501252001 0.7508866178 0.3875240989 -0.0357079990 0.0059698456 -0.0168471805
0.4939647404 0.0001135175 0.1792233315 -0.0045076197 0.0023769250 -0.0073965854
-0.3791084907 0.8133061679 -0.0011116333 -0.0342747391 0.0117963615 -0.0193317760
-0.4388461263 0.4404055981 -0.1671494079 -0.0020921310 -0.0014705734 -0.0279428375
0.1536625929 0.8270508881 -0.0123171535 -0.0191564219 -0.0192337416 -0.0192812297
-0.1706191172 0.2585119308 0.4807960515 -0.0241491166 0.0016702197 -0.0020052714
-0.4699182551 0.1718683680 -0.1731511624 -0.0196830226 0.0004938840 -0.0384200528
-0.1086274025 0.8210189944 0.3197562031 -0.0162590319 0.0165582320 -0.0122969773
0.2481654857 0.8270508881 -0.1858574529 -0.0191564219 0.0192337416 -0.0192812297
0.3611229805 0.8270508881 -0.0248466475 -0.0191564219 0.0192337416 -0.0192812297
-0.1632081258 0.3099887898 0.4419537604 -0.0179040938 -0.0012217657 -0.0372580655
-0.2278448069 0.8270508881 0.2423301993 -0.0191564219 -0.0192337416 -0.0192812297
0.0414353457 0.7929738527 -0.1344023280 -0.0232457270 -0.0181025283 -0.0203984023
0.4424533761 0.6171757043 0.1404037170 -0.0039211060 0.0008318209 -0.0287696960
0.1635574105 0.4259719060 -0.4514812135 -0.0072863376 0.0021624303 -0.0341023278
0.1320928365 0.8270508881 -0.1140860345 -0.0191564219 -0.0192337416 -0.0192812297
-0.4659953411 0.2941656714 -0.1714031230 -0.0319076040 0.0016453697 -0.0331803392
0.3655184097 0.8180265512 -0.0107499305 -0.0009021009 0.0041862431 -0.0189803563
0.3477961133 0.8186914424 0.1108206260 -0.0014560135 0.0022786214 -0.0126647841
0.0301105379 0.8270508881 0.1198910278 -0.0191564219 -0.0192337416 -0.0192812297
-0.1730263546 0.5928056305 0.4385047274 -0.0357836453 0.0017363645 -0.0128752013
0.2068983776 0.8270508881 -0.2131217432 -0.0191564219 0.0192337416 -0.0192812297
0.1410627996 0.5488059078 -0.4182739856 -0.0191564219 -0.0019060253 -0.0001442531
0.4616871176 0.0164630826 0.1917918700 -0.0353038019 -0.0041313115 -0.0101177367
-0.0575190043 0.8270508881 -0.3115006004 -0.0191564219 -0.0192337416 -0.0192812297
0.1852975394 0.8270508881 -0.1082546526 -0.0191564219 -0.0192337416 -0.0192812297
-0.1916053989 0.8228446804 0.3080197163 -0.0101238530 -0.0026919160 -0.0351246204
-0.0744522942 0.8238759744 0.1490117781 -0.0328396519 0.0085905968 -0.0237012204
-0.2609984112 0.7982646895 -0.0774343704 -0.0207938865 -0.0126855373 -0.0112347939
-0.0212033921 0.7958967274 -0.0020944583 -0.0197713054 -0.0105525923 -0.0051626440
-0.0787262047 0.8270508881 -0.0416274715 -0.0191564219 -0.0192337416 -0.0192812297
0.3550796427 0.8270508112 -0.0921250253 -0.0094015683 0.0143176549 -0.0213715527
0.0628187656 0.7693496633 -0.3591137084 -0.0191564219 -0.0167828244 -0.0192812297
0.1080274059 0.8270508881 -0.1556360518 -0.0191564219 -0.0192337416 -0.0192812297
-0.1712941446 0.8270509650 0.0915485132 -0.0191564219 0.0192337416 -0.0192812297
0.1731809747 0.2139541218 -0.4469557834 -0.0022047830 0.0000000000 -0.0115535355
0.1428044919 0.3214459258 -0.4616572861 -0.0246243054 0.0015499318 -0.0370066228
0.2783319938 0.7693497403 -0.2271664906 -0.0191564219 -0.0192337416 -0.0192812297
-0.2241229048 0.8270508881 -0.0904334755 -0.0191564219 -0.0192337416 -0.0192812297
-0.1537926130 0.4545190868 0.4299558486 -0.0055417026 -0.0018992550 -0.0295813407
-0.0413659696 0.8270508112 0.2882368706 -0.0191564219 0.0192337416 -0.0192812297
0.3081322337 0.8254001907 -0.1847716120 -0.0060721115 0.0109650022 -0.0279289699
0.1062608252 0.8270508881 0.1581832531 -0.0191564219 0.0192337416 -0.0192812297
0.2478227982 0.7738606489 -0.2716130324 -0.0056273312 0.0000000000 -0.0329443989
0.1097627318 0.7961598258 0.3572059905 -0.0132520864 0.0000000000 -0.0010393145
-0.2164318124 0.8270508881 0.0101420096 -0.0191564219 0.0192337416 -0.0192812297
-0.2624518666 0.8064585327 -0.2568293439 -0.0058986808 -0.0011221350 -0.0057741231
0.0026200972 0.8270508881 -0.1045078236 -0.0191564219 -0.0192337416 -0.0192812297
0.1020548099 0.8208592005 -0.3065543552 -0.0277640598 0.0146029106 -0.0279382983
0.4398686689 0.2769281614 0.1564071517 -0.0342017470 -0.0012236891 -0.0301677005
0.4424533761 0.6187104800 0.1475822494 -0.0019618801 0.0022666387 -0.0236937193
-0.0344360909 0.8270508881 0.1460775169 -0.0191564219 0.0192337416 -0.0192812297
0.0672223500 0.8270509650 -0.2548208219 -0.0191564219 0.0192337416 -0.0192812297
-0.0191564219 0.8260424823 0.0621787052 -0.0012225543 0.0046795116 -0.0171086824
-0.0035395662 0.8270508881 0.1465053715 -0.0191564219 -0.0192337416 -0.0192812297
-0.3404171075 0.8270508881 -0.0248368959 -0.0191564219 -0.0192337416 -0.0192812297
0.1347135107 0.5156369357 -0.4380880284 -0.0383901635 0.0000000000 -0.0192812297
-0.3406533364 0.8161630901 0.1480840193 -0.0052837781 -0.0112441800 -0.0261865276
0.4232196345 0.3895614715 0.1648712674 -0.0355809794 -0.0008653068 -0.0168553933
-0.1677740622 0.8270508881 -0.3277944645 -0.0229541435 0.0159270960 -0.0256245561
-0.2475312723 0.8270508881 -0.2555411448 -0.0191564219 0.0192337416 -0.0192812297
0.1268256187 0.8270508881 -0.0629860992 -0.0191564219 -0.0192337416 -0.0192812297
-0.0769056926 0.8270508881 0.2435513111 -0.0191564219 0.0192337416 -0.0192812297
0.4348009819 0.2974044797 0.1614748195 -0.0351922462 -0.0014094678 -0.0271644864
0.1340960884 0.8270508881 0.1955630297 -0.0191564219 -0.0192337416 -0.0192812297
-0.1629309483 0.8270508881 0.0078991823 -0.0191564219 0.0192337416 -0.0192812297
-0.0170594633 0.8071157112 0.0328232263 -0.0017227662 -0.0070289901 -0.0168520274
0.2100859664 0.8270508881 0.2803899079 -0.0191564219 -0.0192337416 -0.0192812297
0.4809208592 0.0545977259 0.1818908784 -0.0011635452 0.0012425766 -0.0130269555
0.1632078757 0.5214869167 -0.4231898029 -0.0077160578 0.0000000000 -0.0040783995
-0.1578611072 0.8270508112 0.1119043705 -0.0191564219 0.0192337416 -0.0192812297
-0.0514295440 0.8269621051 0.3653936020 -0.0163338704 0.0000000000 -0.0382813775
-0.3653637704 0.8081835685 0.0141022178 -0.0000236960 -0.0002174567 -0.0197288950
0.0560485270 0.8270508881 0.0819127933 -0.0191564219 0.0192337416 -0.0192812297
0.2181734277 0.8138010520 0.2841086749 -0.0287024933 -0.0075348375 -0.0328481148
0.1611919488 0.8270508881 0.2342499891 -0.0191564219 -0.0192337416 -0.0192812297
0.4917589187 0.0419783334 0.1656016688 -0.0015927077 -0.0038951596 -0.0218809391
-0.1924226405 0.8270508881 -0.0273359745 -0.0191564219 0.0192337416 -0.0192812297
-0.1537926130 0.2214962682 0.4673922878 -0.0000522388 -0.0001159602 -0.0199770295
-0.0674342481 0.8270508881 -0.1668153371 -0.0191564219 -0.0192337416 -0.0192812297
-0.3492426445 0.7904785824 0.1413720205 -0.0369937554 0.0000000000 -0.0121758816
0.1314203864 0.8027342264 -0.3435403979 -0.0239590680 -0.0030930549 -0.0012302478
0.2393098480 0.8270508881 0.0828624785 -0.0191564219 0.0192337416 -0.0192812297
0.0355707855 0.8270508881 0.0839496850 -0.0191564219 0.0192337416 -0.0192812297
0.4893755312 0.0219870132 0.1538224446 -0.0131780557 -0.0006350020 -0.0360069875
0.4670983962 0.2085556914 0.1735587638 -0.0046642593 0.0023968512 -0.0071680693
-0.0081241786 0.8200595192 -0.0110797315 -0.0071355835 0.0000000000 -0.0222590168
0.0965770980 0.8231531319 -0.2507482695 -0.0016259051 0.0026088070 -0.0122378335
-0.4422987368 0.4224097401 -0.1587196629 -0.0019258745 -0.0015610105 -0.0276710455
-0.4807662199 0.2586858423 -0.1590929321 -0.0347674883 0.0009316055 -0.0137889771
-0.2128420654 0.8111718765 -0.0776565779 -0.0122059055 0.0004367406 -0.0371782070
-0.1996552390 0.8229653721 -0.0518294135 -0.0270037885 0.0017334025 -0.0018530941
0.1896523855 0.8270508881 -0.0817816769 -0.0191564219 -0.0192337416 -0.0192812297
0.1715454911 0.1437060543 -0.4424235445 -0.0139516945 -0.0011719503 -0.0029740750
-0.3653637704 0.8208955138 -0.0257631737 -0.0001402524 -0.0010533551 -0.0171745195
0.0651443558 0.7974345035 -0.2263502683 -0.0251559645 -0.0124257279 -0.0221767349
0.3234386953 0.7886768040 0.1310699284 -0.0316796842 -0.0093279415 -0.0084368230
-0.4038312536 0.6541382626 -0.1390700494 -0.0028397273 -0.0029673240 -0.0110268772
-0.0973708937 0.8270508881 0.0802222820 -0.0191564219 -0.0192337416 -0.0192812297
-0.3769930869 0.7961878493 -0.0082545064 -0.0020114839 -0.0074733088 -0.0188778789
0.1433469411 0.8270508881 -0.2454511816 -0.0191564219 -0.0192337416 -0.0192812297
0.4601309156 0.0907611415 0.1538224446 -0.0209991298 -0.0004904412 -0.0374817347
-0.0764077310 0.8270508881 0.3301835261 -0.0191564219 -0.0192337416 -0.0192812297
0.0358700241 0.8219202106 0.3653936020 -0.0211090699 -0.0039052958 -0.0373774109
-0.2603728722 0.7709950715 -0.2589083190 -0.0057529083 0.0000000000 -0.0055011963
0.0513453964 0.8270508881 -0.0405948119 -0.0191564219 -0.0192337416 -0.0192812297
0.1505622100 0.8270508881 -0.0022539252 -0.0191564219 -0.0192337416 -0.0192812297
0.0560909951 0.8270508112 0.2877756839 -0.0191564219 -0.0192337416 -0.0192812297
0.0515618337 0.8270508881 0.0371018298 -0.0191564219 0.0192337416 -0.0192812297
0.1027157004 0.8158294039 0.3589677436 -0.0144089767 0.0056163679 -0.0031061146
-0.3950558783 0.6975081765 -0.1225200687 -0.0117530855 -0.0082251173 -0.0041375817
0.2002423490 0.8270508112 -0.0311109809 -0.0191564219 -0.0192337416 -0.0192812297
-0.1862608037 0.8078171465 0.3137788178 -0.0116647642 -0.0114166682 -0.0325458565
0.1686432349 0.2918556221 -0.4410626611 -0.0103200564 -0.0009387797 -0.0031441590
0.1064474118 0.7693496633 -0.3541003183 -0.0191564219 -0.0192337416 -0.0192812297
-0.4808308261 0.2111835014 -0.1638566106 -0.0367123850 0.0018343604 -0.0214235800
-0.4365761793 0.4517549866 -0.1545666173 -0.0019742666 -0.0015468352 -0.0277632713
-0.4086885812 0.6542536073 -0.1539174208 -0.0151874047 -0.0005670107 -0.0361766291
-0.2094866622 0.8270508881 -0.1211288537 -0.0191564219 0.0192337416 -0.0192812297
-0.0645144700 0.7990747762 -0.3654885782 -0.0170742348 -0.0028553836 -0.0005915145
0.2319621740 0.8270508881 -0.0725396909 -0.0191564219 0.0192337416 -0.0192812297
0.2078704701 0.8125133915 0.2909773133 -0.0279542431 -0.0091564535 -0.0326107127
0.3428027839 0.8067186306 0.1303810912 -0.0010492583 0.0022505978 -0.0136732477
0.4114397179 0.5899903877 0.1523916850 -0.0382267152 -0.0021950123 -0.0195955475
-0.0880036576 0.8270508881 -0.3379766150 -0.0191564219 0.0192337416 -0.0192812297
0.3382614859 0.7836258888 -0.1659521652 -0.0020832643 0.0000000000 -0.0278456878
0.1359080030 0.2499064086 -0.4527956859 -0.0301280790 -0.0026531408 -0.0053170717
-0.0027611959 0.8049928062 -0.3654885782 -0.0197002175 0.0000000000 -0.0000746077
0.2777601554 0.8270508881 0.0026290024 -0.0191564219 0.0192337416 -0.0192812297
-0.2104923176 0.8270508881 0.0194835494 -0.0191564219 0.0192337416 -0.0192812297
0.1094169284 0.8270508881 0.2649335963 -0.0191564219 0.0192337416 -0.0192812297
-0.0764761262 0.7982052573 0.3591095347 -0.0159944141 0.0000000000 -0.0382532770
-0.3626439078 0.7528357075 -0.1337239347 -0.0040631471 -0.0115985424 -0.0198353346
0.4232196345 0.3818418362 0.1610007654 -0.0377912440 -0.0011513510 -0.0222026042
0.0076262170 0.8270508881 0.0502651140 -0.0191564219 0.0192337416 -0.0192812297
-0.1067059132 0.8260286147 -0.3505644257 -0.0126157765 -0.0056393330 -0.0027345572
-0.2738140263 0.8270508881 -0.2154511801 -0.0191564219 0.0192337416 -0.0192812297
-0.2927159859 0.7693496633 -0.2426345156 -0.0191564219 -0.0192337416 -0.0192812297
-0.2121700192 0.8117757967 -0.2881028307 -0.0104027615 -0.0097102121 -0.0062069784
0.1580504633 0.8270508881 -0.0983039610 -0.0191564219 0.0192337416 -0.0192812297
-0.1031612501 0.7878648900 0.3694482286 -0.0245664888 0.0014756319 -0.0012210156
-0.1863270832 0.0400749239 0.4979478175 -0.0314296840 0.0009316440 -0.0049074699
-0.1406896073 0.8205475754 -0.3335726075 -0.0109124941 -0.0048468836 -0.0034350116
-0.0019953661 0.8101377167 -0.0192812297 -0.0070255857 0.0000000000 -0.0337315590
0.1942947760 0.8270508881 0.2880025652 -0.0191564219 -0.0192337416 -0.0192812297
-0.4578155770 0.3978501178 -0.1346836792 -0.0284883641 0.0004900180 -0.0041727410
-0.2723279121 0.7720293852 -0.2661870015 -0.0329286657 0.0000000000 -0.0325257957
0.1600372896 0.5538771915 -0.4231898029 -0.0067060748 0.0000000000 -0.0050370861
-0.0774834549 0.8270508881 -0.3194282486 -0.0191564219 -0.0192337416 -0.0192812297
-0.0214540655 0.8270508881 -0.0918764484 -0.0191564219 0.0192337416 -0.0192812297
-0.0835655102 0.8270508881 -0.2491784500 -0.0191564219 0.0192337416 -0.0192812297
-0.1928005066 0.8270508881 0.0848692694 -0.0191564219 0.0192337416 -0.0192812297
-0.0434452140 0.8270508881 -0.3444863710 -0.0191564219 -0.0192337416 -0.0192812297
-0.3787635720 0.7284530163 -0.1154499376 -0.0123474659 -0.0102326390 -0.0051757422
-0.4987587890 0.0056040584 -0.1732715271 -0.0276217686 0.0000667411 -0.0365272795
0.0174815477 0.8270508881 -0.1313881314 -0.0191564219 -0.0192337416 -0.0192812297
-0.3172596057 0.8270508881 0.0468928237 -0.0191564219 0.0192337416 -0.0192812297
0.1651933557 0.8270508881 0.3211455139 -0.0182041017 0.0183740126 -0.0181384569
-0.1487624511 0.8270508881 0.2249518406 -0.0191564219 -0.0192337416 -0.0192812297
0.0605939218 0.7693496633 -0.3645938245 -0.0171151834 -0.0109892944 -0.0131575141
-0.1094284301 0.8270508881 0.1253910123 -0.0191564219 0.0192337416 -0.0192812297
0.2477236290 0.7996461145 0.0838622869 -0.0174995890 -0.0136299717 -0.0245449855
-0.0793003896 0.8270508881 0.3534637776 -0.0191564219 -0.0192337416 -0.0192812297
0.0494933409 0.8270508881 0.2731694267 -0.0191564219 -0.0192337416 -0.0192812297
0.1413446509 0.8130948660 0.0705861775 -0.0274589358 -0.0035617235 -0.0025429314
-0.3721930951 0.8009878604 -0.0206065499 -0.0025430276 -0.0086130426 -0.0182708043
-0.2461809675 0.8270508881 -0.1816150088 -0.0191564219 -0.0192337416 -0.0192812297
-0.0791738700 0.8193241940 0.1607711146 -0.0333989884 0.0059683839 -0.0233407801
-0.4462404805 0.1895548897 -0.1578591453 -0.0017949505 -0.0014175652 -0.0272542695
-0.1789331521 0.2327030385 0.4615623099 -0.0316452750 0.0006901643 -0.0292045517
0.1683779055 0.3271937563 -0.4376204561 -0.0083573108 -0.0007765431 -0.0037515413
0.0545423712 0.8270508112 0.2944007270 -0.0191564219 0.0192337416 -0.0192812297
-0.4322644553 0.5650825001 -0.1346836792 -0.0191564219 0.0000000000 -0.0000474881
-0.1552445489 0.8270508881 -0.0193088493 -0.0191564219 -0.0192337416 -0.0192812297
0.1716340818 0.3551690988 -0.4552993228 -0.0100963872 0.0015902458 -0.0356993438
-0.3711155439 0.7584189357 -0.1388543045 -0.0173924378 0.0056256578 -0.0374831003
-0.3174482695 0.8270508881 0.1017012937 -0.0191564219 0.0192337416 -0.0192812297
0.2737381877 0.7920107038 -0.2456976428 -0.0050748997 0.0000000000 -0.0323545962
0.1516689772 0.8270508881 -0.2811687206 -0.0191564219 -0.0192337416 -0.0192812297
0.2439196565 0.8029100997 -0.2755161548 -0.0058502310 0.0002591939 -0.0331058084
-0.0756670396 0.8270508881 0.0510384836 -0.0191564219 0.0192337416 -0.0192812297
0.0222589591 0.8270508881 0.1838941687 -0.0191564219 0.0192337416 -0.0192812297
-0.1715828238 0.8270508881 0.1850555020 -0.0191564219 -0.0192337416 -0.0192812297
-0.2325306080 0.8088375157 -0.3035521605 -0.0296124416 0.0104229184 -0.0315704173
-0.2185877033 0.8270508881 0.2578947393 -0.0191564219 0.0192337416 -0.0192812297
0.0129592335 0.8270508881 -0.2481068228 -0.0191564219 -0.0192337416 -0.0192812297
0.3574999206 0.7410274019 0.1324620282 -0.0293377261 -0.0127005204 -0.0294625339
0.0253837689 0.7893389063 0.0027322684 -0.0193500673 -0.0189789714 -0.0185137649
-0.2910056446 0.8227057166 -0.2173702651 -0.0049440525 -0.0059689417 -0.0085200859
-0.2663258691 0.8181731508 0.2446780429 -0.0064685958 -0.0075324140 -0.0311195976
0.4381545771 0.3133969511 0.1730561861 -0.0230107676 -0.0003038354 -0.0035546840
-0.1338635909 0.8270508881 0.1388559201 -0.0191564219 -0.0192337416 -0.0192812297
0.1328419715 0.7300283559 -0.4042406630 -0.0202748832 0.0084141080 -0.0361623000
-0.0831852784 0.7968839954 0.3678063018 -0.0246036484 0.0099925827 -0.0042380011
-0.4458841947 0.5681036977 -0.1539174208 -0.0326600857 0.0032533297 -0.0320088889
-0.1053273156 0.7785824363 0.3384540542 -0.0033436898 -0.0105883286 -0.0214177329
0.0863534795 0.7946033352 0.3630582795 -0.0221503654 -0.0014494355 -0.0380199332
-0.0517123762 0.8270508881 -0.3469964320 -0.0191564219 0.0192337416 -0.0192812297
-0.1537926130 0.4108874979 0.4306507444 -0.0014539747 -0.0007027240 -0.0230291358
-0.1345588714 0.4427665398 0.4568763357 -0.0043248991 -0.0001162295 -0.0094205712
-0.0561909914 0.8034668396 -0.0192812297 -0.0213784384 -0.0076833989 -0.0059367828
0.4129669347 0.7039390549 0.1501542431 -0.0027083224 0.0086465862 -0.0161544388
-0.2007224232 0.8270508881 0.1465476088 -0.0191564219 0.0192337416 -0.0192812297
-0.0339890026 0.8109317432 0.3732719156 -0.0220912024 0.0044177212 -0.0014038900
-0.3222731305 0.8047442293 -0.1993196487 -0.0346734545 0.0048983724 -0.0291629299
0.0584632079 0.8239292518 -0.2129879918 -0.0363714092 0.0001560433 -0.0278107017
-0.1537926130 0.3242642459 0.4716544849 -0.0068784668 0.0008392451 -0.0053559623
0.4310273218 0.5984124777 0.1712987030 -0.0039895011 0.0025404503 -0.0084492673
-0.0161802505 0.8270508881 0.2754036374 -0.0191564219 -0.0192337416 -0.0192812297
-0.1537926130 0.0109275733 0.4918688203 -0.0001673528 -0.0027661390 -0.0192812297
-0.1215785963 0.8270508881 0.1637802527 -0.0191564219 0.0192337416 -0.0192812297
-0.1537926130 0.7285682072 0.4025571336 -0.0380080468 0.0028510367 -0.0209432365
-0.2736373067 0.8270508881 -0.1955168495 -0.0191564219 0.0192337416 -0.0192812297
-0.0094039725 0.7894232847 0.3837874638 -0.0178928421 0.0032140544 -0.0006575632
0.0381618782 0.8270508881 -0.0371947673 -0.0191564219 0.0192337416 -0.0192812297
0.1792770898 0.7758589770 -0.3314003102 -0.0092991101 0.0000000000 -0.0356047138
0.0452597828 0.8270508881 0.0661342972 -0.0191564219 -0.0192337416 -0.0192812297
0.0908409423 0.7868271335 0.3619364331 -0.0224751079 0.0000000000 -0.0381136208
0.1461089064 0.8270508881 0.2043330773 -0.0191564219 0.0192337416 -0.0192812297
0.1545232644 0.8125108334 -0.3318002951 -0.0130368609 0.0114812358 -0.0333218610
0.1999151830 0.8270508881 -0.0754127503 -0.0191564219 -0.0192337416 -0.0192812297
0.1422010909 0.1885605629 -0.4691448663 -0.0341302744 0.0000000000 -0.0312302878
0.4299157654 0.5191765404 0.1730561861 -0.0191564219 0.0000000000 -0.0000474881
-0.2024331106 0.8270508881 -0.2564271279 -0.0191564219 0.0192337416 -0.0192812297
0.1539472523 0.6092059342 -0.4108063700 -0.0026580262 0.0000000000 -0.0139896427
-0.3457742623 0.8070986316 -0.1143755985 -0.0311060571 0.0119655414 -0.0101476644
0.4232196345 0.4405322907 0.1565780243 -0.0377177904 -0.0008764047 -0.0226985270
0.4739953082 0.0000000000 0.1827706682 -0.0243337797 -0.0061856867 -0.0127955159
-0.0623804286 0.7968720512 0.1991464681 -0.0132106377 -0.0154807193 -0.0174042281
0.0719566778 0.8270508881 0.1832895945 -0.0191564219 0.0192337416 -0.0192812297
-0.4582664544 0.2309151468 -0.1346836792 -0.0079843493 -0.0026965513 -0.0041801075
0.1266923865 0.8270508881 0.2940399982 -0.0191564219 -0.0192337416 -0.0192812297
-0.3534480444 0.8004991310 -0.1164830780 -0.0316997065 0.0119310361 -0.0113327321
-0.3168677760 0.7700930667 -0.2074276902 -0.0354385535 0.0000000000 -0.0293968699
-0.1940818585 0.8270508881 0.0577234205 -0.0191564219 -0.0192337416 -0.0192812297
-0.0984720446 0.8270508881 -0.2529487442 -0.0191564219 -0.0192337416 -0.0192812297
0.3319126971 0.7936915597 0.1370195979 -0.0195269407 0.0071974584 -0.0058340362
-0.0585463938 0.8136100802 -0.3654885782 -0.0157064849 -0.0025100225 -0.0011026896
0.1187601799 0.8270508881 0.1102288231 -0.0191564219 0.0192337416 -0.0192812297
0.2141847536 0.8210396130 0.3051561007 -0.0079019327 0.0067542938 -0.0059494963
0.0333677912 0.8270508881 0.0982068883 -0.0191564219 -0.0192337416 -0.0192812297
-0.1775275118 0.8204160358 0.3192381038 -0.0269833815 0.0101838815 -0.0051933603
-0.1420142544 0.5270351780 0.4218074547 -0.0089058955 -0.0024138538 -0.0352315985
0.0656255070 0.8270508881 -0.1671020545 -0.0191564219 -0.0192337416 -0.0192812297
0.0816215944 0.8270508881 0.1033378351 -0.0191564219 0.0192337416 -0.0192812297
-0.1129219893 0.8270508881 -0.2755443322 -0.0191564219 -0.0192337416 -0.0192812297
-0.0076796291 0.8050705874 -0.3654885782 -0.0195370769 0.0000000000 -0.0000664718
0.1714729799 0.3459510974 -0.4407155498 -0.0064160300 -0.0007635411 -0.0051202913
0.4424533761 0.5596237142 0.1540474024 -0.0020051560 0.0018531518 -0.0108300583
-0.1488401746 0.7339231117 0.3734900070 -0.0219859938 -0.0094218407 -0.0352007668
0.2843424611 0.8270508881 -0.2126020667 -0.0191564219 -0.0192337416 -0.0192812297
0.2373925132 0.8270508881 -0.2347008472 -0.0191564219 -0.0192337416 -0.0192812297
-0.1006556129 0.8270508881 -0.0209003838 -0.0191564219 -0.0192337416 -0.0192812297
-0.1890989538 0.8264669325 -0.0695174931 -0.0120308208 0.0031575649 -0.0368266719
0.3655184097 0.8058690762 0.0190950471 -0.0383507728 0.0000000000 -0.0201498447
-0.2057123866 0.8016914114 -0.0577487129 -0.0226288239 -0.0094791764 -0.0070603219
-0.1033835152 0.8270508881 -0.3474086303 -0.0203227560 0.0168913604 -0.0247241093
-0.0346199463 0.8270508881 -0.0358179583 -0.0191564219 -0.0192337416 -0.0192812297
-0.1712693908 0.8270508881 0.0551357898 -0.0191564219 -0.0192337416 -0.0192812297
0.2821252723 0.7995297504 -0.2213058733 -0.0349537479 0.0000000000 -0.0083362306
0.0452576479 0.8270508881 0.0093691787 -0.0191564219 0.0192337416 -0.0192812297
-0.4873244065 0.0000000000 -0.1566026050 -0.0216380747 -0.0091374121 -0.0119756969
0.4426035339 0.1707027840 0.1730561861 -0.0239598373 -0.0004273160 -0.0020490282
0.3555663525 0.8074659192 0.0875099275 -0.0009710539 0.0036145778 -0.0143997830
-0.2833697338 0.8198444667 0.2237891610 -0.0064559592 -0.0096176786 -0.0298574987
-0.1537926130 0.1813456210 0.4670821437 0.0000773196 0.0000000000 -0.0192812297
-0.1755685359 0.8264488143 -0.0650073538 -0.0122511240 0.0035959788 -0.0368287684
0.0145000870 0.8270508881 0.0270898403 -0.0191564219 -0.0192337416 -0.0192812297
0.1539472523 0.6410818410 -0.4370165551 -0.0077443506 0.0034632852 -0.0340473385
-0.0553579203 0.7824923675 0.3653936020 -0.0171199534 -0.0014772860 -0.0381645710
-0.0033208017 0.8270508881 0.0960696926 -0.0191564219 0.0192337416 -0.0192812297
0.4809208592 0.1379153517 0.1609204646 -0.0039404166 0.0012445577 -0.0271952027
0.1161766076 0.8071203465 -0.3252716131 -0.0056913026 0.0133273288 -0.0223599170
0.4529925625 0.3931671441 0.1730561861 -0.0084848497 0.0014239701 -0.0036673167
-0.2052503922 0.8270508881 -0.1947173221 -0.0191564219 -0.0192337416 -0.0192812297
0.0301594685 0.8270508881 -0.2565082365 -0.0191564219 -0.0192337416 -0.0192812297
-0.1519419424 0.5251484826 0.4221219264 -0.0108995306 -0.0029864038 -0.0363407122
-0.2811011332 0.8270508881 0.1468552717 -0.0191564219 0.0192337416 -0.0192812297
-0.1820312077 0.2367046377 0.4615623099 -0.0343899107 0.0010521434 -0.0256904125
-0.1112512503 0.8078171465 -0.0422548569 -0.0176767510 -0.0146455902 -0.0246673120
0.1541457253 0.8195354382 0.0769867051 -0.0250371961 0.0059461881 -0.0047611589
-0.0771655020 0.8072551173 0.2681545748 -0.0056289276 -0.0127431424 -0.0152673979
0.1473183433 0.8270508881 0.2648060958 -0.0191564219 -0.0192337416 -0.0192812297
-0.1537926130 0.3709977180 0.4474958669 -0.0031881465 -0.0016456582 -0.0282593287
-0.4581450126 0.1164936181 -0.1696958784 -0.0008671532 -0.0009714001 -0.0249108112
-0.1444304354 0.8270508881 -0.1426398703 -0.0191564219 -0.0192337416 -0.0192812297
-0.1153251299 0.7901596293 0.3579463165 -0.0235645262 0.0050293542 -0.0178723774
-0.4727348249 0.3395769585 -0.1566426304 -0.0339862714 0.0019549752 -0.0307620616
-0.3653637704 0.7982495141 -0.0658191139 -0.0014588793 -0.0054654792 -0.0162291234
-0.0247542101 0.8270508881 -0.3516748858 -0.0191564219 -0.0192337416 -0.0192812297
-0.1735650532 0.2946361095 0.4636443624 -0.0372267337 0.0012655610 -0.0131614378
0.0962460276 0.7814197594 -0.3140594189 -0.0351426809 -0.0096142550 -0.0196272062
