0.1653558629 0.6528005591 0.4238911665 -0.0615240316 -0.0010181077 -0.1813485081
-0.1838971007 0.6247079163 -0.1399065310 -0.0616082393 -0.0012678824 -0.1802717936
0.1231372371 1.1399094708 -0.3296373980 -0.0615765422 0.0002999496 -0.1792641429
-0.3188206876 1.2495402332 -0.3543347753 -0.0615678585 -0.0005553051 -0.1816856822
0.4446139512 0.0866388957 -0.0082066455 -0.0622029871 -0.0000426395 -0.1816344255
-0.4187486681 0.7073508161 0.3578683066 -0.0604090358 0.0005864072 -0.1805111009
0.2646350676 0.6824364859 0.1531264110 -0.0625890743 0.0005069844 -0.1805301516
-0.0987217139 0.1124698641 -0.0280309214 -0.0621403940 -0.0004137315 -0.1796757606
0.3092864660 0.6965859822 0.0692262189 -0.0619180900 0.0012527697 -0.1806371600
0.1487402829 0.7420692710 -0.2588243017 -0.0615730583 0.0000196809 -0.1792294616
-0.0594470192 0.6677195078 0.1186177506 -0.0615795081 -0.0013045235 -0.1805343727
-0.1291619729 0.6655117402 0.2305321178 -0.0615424037 0.0013021396 -0.1804579966
-0.4296590463 0.7247749899 -0.2436218821 -0.0610084757 -0.0000995657 -0.1793674796
-0.1601706064 0.6521860900 0.4061872132 -0.0616207514 -0.0012914882 -0.1807105376
-0.2079354396 0.6622590818 0.3347753659 -0.0614876879 0.0012980685 -0.1804354229
-0.4389052458 0.8364579415 -0.2706534776 -0.0628763931 0.0000837602 -0.1805128103
0.1223186665 0.0960569502 -0.0136419351 -0.0616001819 -0.0007068908 -0.1815193897
-0.2471460655 0.6676211909 0.2834664987 -0.0616910287 -0.0012966893 -0.1806184565
-0.4293521092 0.9743442922 -0.2895339380 -0.0602738415 -0.0000888673 -0.1805734774
0.2151781713 0.6252643683 -0.1600407593 -0.0616726148 0.0012746858 -0.1807893811
0.2357149748 0.6848497669 0.1764142723 -0.0617503818 0.0012919071 -0.1804891118
-0.0624611153 0.1813774990 0.0097993464 -0.0626483231 0.0003179029 -0.1799061702
-0.0178820101 0.0913386599 0.1247850087 -0.0623671892 -0.0006043161 -0.1803593143
0.1134210167 0.6580957691 -0.0477062578 -0.0615103738 -0.0012818389 -0.1803006345
0.0736671202 0.1033615130 -0.3863336699 -0.0627610793 -0.0002067933 -0.1809175227
-0.0376232083 0.6610576979 0.2652724340 -0.0615690120 -0.0013021226 -0.1806174048
0.2320509910 0.6394350891 -0.1238453948 -0.0617252572 0.0012427173 -0.1808875819
-0.1941783056 0.6567229582 0.1664227128 -0.0616497997 -0.0013017834 -0.1805425697
-0.1068794449 0.0913386599 -0.0531282172 -0.0614353991 -0.0007439664 -0.1806170446
-0.0021760261 0.6631207981 0.2676137204 -0.0615778966 0.0013019791 -0.1804488667
-0.1090566846 0.6259476089 -0.1369881446 -0.0615601456 0.0012644089 -0.1808532190
0.1463637358 0.6819527460 -0.2581821661 -0.0615688006 0.0001197215 -0.1792374016
0.2207903917 0.6396000258 -0.1512856317 -0.0614860282 -0.0012437024 -0.1801496334
0.0059894909 0.1186706918 -0.0927627106 -0.0605712441 0.0002631610 -0.1801215689
0.4331530162 0.0264933877 0.0251612172 -0.0625191689 -0.0005189850 -0.1798461268
0.2436520956 0.0936848839 -0.0113086030 -0.0615851932 -0.0006093985 -0.1816064289
0.3049151713 0.6880870138 0.3487509259 -0.0610685113 -0.0011938446 -0.1806106718
-0.3543701560 0.6877515661 0.1888378294 -0.0613608681 0.0012863119 -0.1804884633
-0.4322210970 0.9509193277 -0.2959110310 -0.0628727330 0.0000560650 -0.1806378790
0.0696829004 0.6550205126 0.1680806387 -0.0615196199 -0.0013027881 -0.1805436632
0.1806853999 0.6641258665 0.1020937376 -0.0617034520 0.0012980750 -0.1805483814
-0.1265093704 0.6683809654 0.1268056208 -0.0616063408 -0.0013039807 -0.1805511294
0.2957979498 1.1407495242 -0.3186571745 -0.0607337943 -0.0002047695 -0.1815057463
-0.0500068490 0.0894593422 0.0330408168 -0.0616803459 -0.0009762237 -0.1800372112
0.0702705316 0.1429209351 -0.3764892870 -0.0624721843 0.0008314963 -0.1808142748
0.2614535894 0.6315246287 -0.1814753866 -0.0614852648 -0.0012369408 -0.1801321499
-0.4285323252 0.1354458418 -0.2759575383 -0.0621274604 0.0007323834 -0.1797733573
0.1179501198 0.0913386599 0.0093562234 -0.0616413078 -0.0007046295 -0.1799443289
-0.2534125761 0.1400604105 -0.1828400071 -0.0609021601 0.0005889621 -0.1813744783
0.2913645357 0.6800804665 -0.0184146502 -0.0613864390 -0.0012685661 -0.1802967108
-0.3071669407 1.1957996072 -0.3420365245 -0.0615566630 0.0002801957 -0.1792598839
-0.0311539728 1.2638082348 -0.3553179042 -0.0615710658 0.0002929048 -0.1792638272
0.1250862319 0.6540283046 0.4188185931 -0.0616514712 0.0012501261 -0.1801845430
0.2008930658 0.1044936987 -0.0121308766 -0.0615941627 -0.0003808131 -0.1816546910
0.3012722724 0.6921443241 0.2541751782 -0.0611619964 -0.0012303683 -0.1805978087
-0.2247687188 0.6709938279 0.0407218123 -0.0616600662 -0.0012976562 -0.1804353668
-0.3559256638 0.6721225793 0.0649494779 -0.0621509097 -0.0011580594 -0.1804691034
-0.0229461973 0.1879102500 -0.0061774932 -0.0603473613 0.0003018469 -0.1806695944
-0.2251515426 0.6584466675 0.0652553594 -0.0616613397 -0.0013007291 -0.1804886551
0.1552909141 0.6620096463 0.1259464737 -0.0616816743 0.0012999918 -0.1805323071
-0.0414472487 0.2247648161 0.0191061922 -0.0613985310 0.0000242687 -0.1792518761
-0.0845830909 0.6561831519 0.0603303606 -0.0614773706 0.0012997426 -0.1805889476
0.1477626696 1.2615314582 -0.3576068862 -0.0615243278 0.0007470954 -0.1794786374
-0.3425979428 0.9236351207 -0.2789279081 -0.0615339053 0.0002400745 -0.1792524359
0.3272375060 0.7147832321 0.2194912089 -0.0626483413 0.0007305397 -0.1805272822
0.2050996039 0.6816217581 0.1555304537 -0.0617289342 0.0012948912 -0.1805016787
-0.0170658849 0.6379090876 -0.0736563696 -0.0615620572 -0.0012823622 -0.1802946061
0.0009748601 0.6603611571 -0.0097151257 -0.0615539032 -0.0012926130 -0.1803637273
0.3408276834 0.8896433106 -0.2795666185 -0.0628711920 -0.0000950653 -0.1805861422
-0.0193960358 0.6681493697 0.1728829906 -0.0615857778 0.0013040016 -0.1804912726
-0.2860109485 0.9435585891 -0.2836109678 -0.0615618132 0.0002621759 -0.1792559277
0.2184313268 0.6736754187 -0.2576952710 -0.0615683882 0.0001788620 -0.1792426718
-0.3087402687 0.6476297092 -0.0834006441 -0.0614611697 0.0012677806 -0.1808165270
-0.4178801027 0.0277100395 -0.3188754308 -0.0607226718 -0.0001118925 -0.1815155222
-0.4381082377 0.8367415428 -0.2799537039 -0.0610194520 -0.0000523892 -0.1806975779
0.0219781654 0.0945206562 -0.2365233011 -0.0625644833 -0.0006519271 -0.1808373235
-0.3482240819 0.1197734208 0.1889302928 -0.0622338648 -0.0000530077 -0.1815308944
0.1338968542 0.0913386599 0.0153193827 -0.0616506883 -0.0006124270 -0.1795823368
0.0012333498 0.0913386599 -0.1154676551 -0.0612198804 -0.0007249197 -0.1803475369
-0.3896274215 0.7160390108 -0.2600915786 -0.0615459555 -0.0000065268 -0.1792299588
0.0973006748 0.6548077118 0.2051840634 -0.0614949128 -0.0012929914 -0.1804291910
-0.3239083932 0.6280025056 -0.1859222054 -0.0616461840 -0.0012491253 -0.1801723206
-0.1387135267 0.6546330983 0.1774812227 -0.0615349178 0.0013032879 -0.1805327025
-0.0856535173 0.1438407689 -0.0069966601 -0.0628335670 0.0001975668 -0.1806230639
0.0556260464 0.1435321799 -0.2778860250 -0.0614198298 0.0009352466 -0.1804485770
0.1668448110 1.2123583224 -0.3457996303 -0.0615864028 0.0002837083 -0.1792605050
-0.2534106854 0.8224518782 -0.2632037594 -0.0615754226 0.0001420251 -0.1792374942
0.1465304836 0.6172532019 -0.1674324187 -0.0614992827 -0.0012909206 -0.1804014997
0.3388907754 0.9163721810 -0.2780237741 -0.0628761125 -0.0000885724 -0.1805436318
0.1814762139 0.6664246649 -0.0277651689 -0.0614692349 -0.0012811330 -0.1803125907
-0.3706522390 0.6803344415 0.3722662832 -0.0612690023 0.0012630049 -0.1804303797
-0.4694287704 0.0136801186 -0.3122863238 -0.0616549460 -0.0008484539 -0.1813837348
-0.4210963248 0.0707858591 -0.3097598521 -0.0607327060 0.0009589855 -0.1804820944
0.0585806576 0.1095125049 -0.2451879721 -0.0604618321 -0.0001943413 -0.1800991544
-0.1270694068 0.6577342794 0.3258263472 -0.0616039555 -0.0013013763 -0.1806240477
-0.4062254411 0.6594808455 -0.1138280818 -0.0617699322 -0.0012315361 -0.1801548645
-0.3609011755 1.1613532854 -0.3317712687 -0.0614362003 0.0002859057 -0.1792688808
0.2334838127 0.1238439413 -0.0115041408 -0.0615966562 0.0001724709 -0.1817299214
-0.0232230174 0.3348299199 -0.0078383863 -0.0603124203 0.0000000000 -0.1808124115
0.1911010278 0.8829705895 -0.2716202894 -0.0615785060 0.0002196290 -0.1792479838
-0.0454968304 0.1666025026 0.0201481158 -0.0616614936 0.0004344484 -0.1793252276
0.1321974150 0.6706703259 0.0317747247 -0.0614885830 -0.0012969333 -0.1804209588
-0.4456877506 0.0087281201 -0.2918376725 -0.0610216272 -0.0010946508 -0.1806751086
-0.4148020590 0.0913386599 0.2621832000 -0.0612255486 -0.0006269681 -0.1800621310
-0.0106413310 0.6476036659 -0.0229150626 -0.0616390648 0.0012871783 -0.1807311358
0.1196128449 0.6654707644 -0.0122381526 -0.0616497188 0.0012888890 -0.1807152572
-0.0897273729 0.6661921923 0.0458177005 -0.0615958172 -0.0013008348 -0.1804452510
-0.0294361040 0.6475433785 -0.0932680234 -0.0615797599 0.0012774012 -0.1807988790
0.1462704360 0.6748796706 0.1596095052 -0.0616901127 0.0012988775 -0.1804987924
0.0735337710 0.0441562907 0.4752173959 -0.0628339310 -0.0000030677 -0.1802097225
-0.3311844739 1.0694042575 -0.3114968420 -0.0615390698 0.0003024902 -0.1792653342
-0.3407271770 0.6878393308 0.0936851227 -0.0613921464 0.0012915561 -0.1805602215
0.1009097158 1.0038219710 -0.2984570035 -0.0615804202 -0.0002883614 -0.1818065193
-0.4423777916 0.6878365437 -0.0750876569 -0.0621472405 0.0011092428 -0.1808545056
-0.4655946136 0.0480020541 -0.3244658004 -0.0625168045 0.0001366205 -0.1796864550
0.0262594263 0.6543276762 0.1178208821 -0.0615453605 -0.0013041308 -0.1805368010
-0.1721972121 0.6614859666 0.3193196772 -0.0615135315 0.0012998848 -0.1804390895
0.2195846679 0.6730828109 -0.0143299436 -0.0617078624 0.0012807246 -0.1807400008
0.1905126594 0.6694748346 0.3325078276 -0.0617269652 0.0012920976 -0.1804371388
0.0579870242 1.1007912496 -0.3210306656 -0.0615812735 -0.0003047462 -0.1818027431
0.1165473041 0.0492663247 -0.4553854750 -0.0628400272 0.0000189880 -0.1804858954
0.0518275103 0.6232968370 -0.1411038594 -0.0615456906 -0.0012681995 -0.1802384041
0.0832679812 0.1372404925 -0.4141598739 -0.0624798802 0.0007334351 -0.1808238797
-0.2388716650 0.6739646752 0.0553934146 -0.0614716436 0.0012972634 -0.1806128966
-0.1527244531 1.1937650190 -0.3421180169 -0.0615728090 0.0002923255 -0.1792624258
0.1053436780 0.1135173424 -0.3807214494 -0.0605437237 -0.0002785307 -0.1801508808
0.0875865944 0.0913386599 0.4455204652 -0.0616162393 -0.0008100082 -0.1805369876
-0.0664203553 0.2744280425 -0.0053166133 -0.0628538898 -0.0000034513 -0.1806802653
-0.4235377589 0.0403495407 -0.3228275554 -0.0607901124 -0.0000043151 -0.1815767882
-0.2210706383 0.6677242861 0.0009716802 -0.0614921231 0.0012911972 -0.1806945285
-0.3704992885 0.6854573477 0.0256905913 -0.0617622298 -0.0012801818 -0.1803688788
-0.2204318888 0.6416924327 -0.0829214436 -0.0615104286 0.0012751464 -0.1807977503
0.0019079537 0.1030741185 -0.1783537301 -0.0625810521 -0.0005063607 -0.1808314008
-0.2035719100 0.6190383938 -0.1609646773 -0.0615223235 0.0012834922 -0.1807095211
0.0203184676 0.0913386599 0.2517180547 -0.0622862292 -0.0007690454 -0.1803642753
-0.3721804300 0.1435321799 -0.2558508760 -0.0613898707 0.0007604557 -0.1807500964
-0.4796752601 0.0731518932 0.3065484083 -0.0622935259 0.0009264741 -0.1799938853
-0.0418751416 1.0796968992 -0.3155712757 -0.0615751238 -0.0003003032 -0.1818038157
-0.4296719472 0.6508828047 -0.1732342960 -0.0611943264 0.0011324545 -0.1810483471
-0.3140187742 0.6611165917 0.0025679042 -0.0617062692 -0.0012877525 -0.1803730412
0.0029874383 0.0913386599 0.1354454334 -0.0612800582 -0.0009627669 -0.1806735337
-0.3821990075 1.1256041964 -0.3216752400 -0.0618856022 -0.0002803157 -0.1817686098
-0.2883170135 0.9983160713 -0.2965730066 -0.0615877664 -0.0002826305 -0.1818077171
0.0038463662 0.0913386599 0.1789807439 -0.0620011939 -0.0007803727 -0.1804577017
-0.4515798706 0.6829921408 -0.2772011716 -0.0628382696 0.0000960935 -0.1808211552
-0.0266669846 0.6671719352 0.1528272795 -0.0615675257 -0.0013042326 -0.1805643122
-0.2733059405 0.8584191844 -0.2677668901 -0.0615738894 0.0001946505 -0.1792442755
-0.4507540725 0.7107519638 0.2220997301 -0.0603179359 -0.0003277257 -0.1805364278
-0.0230809492 0.2885307890 -0.0069859878 -0.0603045613 0.0000000000 -0.1807321809
-0.1371519657 0.6314356297 -0.1575764710 -0.0615547892 0.0012542599 -0.1808930205
-0.0705475513 0.6550286352 0.0828540265 -0.0615644333 0.0013043448 -0.1805614024
-0.3117183043 0.6655546668 0.0275432786 -0.0614362199 0.0012910054 -0.1806531965
-0.4086545301 0.8875926350 -0.2574722964 -0.0607898762 0.0001063482 -0.1794992930
0.0964601935 0.0444920073 0.4685674130 -0.0603307142 0.0000078643 -0.1809122342
-0.1178432914 0.6288529116 0.0285897613 -0.0609588893 0.0011183271 -0.1807952620
-0.0996175543 0.6659891478 0.2169643588 -0.0615574550 0.0013028051 -0.1804663946
0.3566200934 0.6973526854 0.0300614085 -0.0628297595 -0.0003358679 -0.1804715748
-0.4411083943 0.6736663396 -0.1160875066 -0.0610209448 -0.0011073469 -0.1801389024
-0.0771164516 0.6598788916 0.2918930329 -0.0615894940 -0.0013017729 -0.1806214459
0.4304860774 0.1186701138 -0.0077156389 -0.0615697035 0.0002961721 -0.1815997860
0.3028389705 0.6936812367 0.0520825004 -0.0618614405 0.0012638439 -0.1806620198
-0.3256524110 1.0056707568 -0.2964924394 -0.0615384761 0.0002861275 -0.1792616324
-0.0401975753 0.6550286756 0.0946802757 -0.0615773225 0.0013042299 -0.1805611702
0.2908141759 0.6946455289 0.1652550172 -0.0618726230 0.0012693399 -0.1805087183
-0.0368042319 0.6530926027 0.0632520103 -0.0615693721 -0.0013030243 -0.1804744676
-0.3272006313 0.6667841243 0.0207613309 -0.0613882501 0.0012801283 -0.1806672796
0.1433845062 0.6207814565 -0.1594504832 -0.0616419746 0.0012784085 -0.1807766994
0.1487604922 0.6618751724 -0.2552140367 -0.0615679211 0.0003262682 -0.1792764958
-0.4389146824 0.0630353367 -0.3345738846 -0.0608873398 0.0002640796 -0.1816075028
-0.4207877959 0.7776809788 -0.2449320555 -0.0608892749 -0.0000359574 -0.1794253113
-0.3686827570 0.8315323855 -0.2638171051 -0.0615229681 0.0001355218 -0.1792380475
0.0047049457 0.8447237209 -0.2658083688 -0.0615732696 0.0001753389 -0.1792418654
0.0161726867 0.7399084514 -0.2588243017 -0.0615744322 0.0000209152 -0.1792295295
0.0624836642 1.1561414193 -0.3342098661 -0.0615759472 -0.0003014841 -0.1818035286
-0.1600979843 1.0022761398 -0.2979969176 -0.0615679002 -0.0002871466 -0.1818067855
-0.0922002614 0.6452783885 -0.0356011256 -0.0615553555 0.0012921432 -0.1807093919
-0.3388209887 0.6243791193 -0.2224734749 -0.0616147387 -0.0012581874 -0.1807803529
-0.1894961019 0.6594935090 -0.0364535737 -0.0616279163 -0.0012851428 -0.1803150477
0.1534493545 0.8718820149 -0.2707251145 -0.0615763412 -0.0002139243 -0.1818211870
0.0842893770 0.0434272673 0.5113618221 -0.0627490787 0.0000033286 -0.1799705953
0.0837491924 0.1327189548 0.4759645083 -0.0627041884 0.0001119251 -0.1802010897
0.2706276744 0.6518371828 -0.1235241633 -0.0614521063 -0.0012443092 -0.1801635012
0.2774388700 0.0913386599 0.0112916583 -0.0616110082 -0.0009394038 -0.1801586263
-0.4873741161 0.0154300316 0.2883088700 -0.0624001220 -0.0008898056 -0.1802788476
-0.1399237366 1.2681924709 -0.3588494443 -0.0615925304 0.0007643597 -0.1794925118
-0.0051430059 0.6516555206 0.4114815869 -0.0615824022 0.0012905409 -0.1803448567
-0.2387194113 1.1389931209 -0.3306986436 -0.0615774334 -0.0003003828 -0.1818038026
-0.3015760230 0.0985193113 -0.2190456172 -0.0609154786 -0.0005762948 -0.1813513057
0.1306487967 0.6683273666 0.2599716496 -0.0616674411 0.0012988631 -0.1804514294
-0.0257975685 1.0660899964 -0.3110267219 -0.0615737381 0.0002997513 -0.1792640907
0.1713961133 0.8795381427 -0.2723560328 -0.0615753039 -0.0002188801 -0.1818202201
0.2557219658 0.6645784666 0.4174334762 -0.0614259547 -0.0010239260 -0.1813282649
-0.0034994646 0.6526322780 0.4002629590 -0.0615858678 0.0012945233 -0.1803774164
-0.4512624609 0.7128714500 0.2690275072 -0.0627915134 0.0004414776 -0.1805257921
0.0188304747 0.1333615275 0.2634475410 -0.0626570681 0.0004230376 -0.1802422325
0.4734434725 0.0887289839 0.0184193489 -0.0609718072 -0.0005233262 -0.1801187035
-0.1156550011 0.7513415529 -0.2588243017 -0.0615744322 0.0000321225 -0.1792296874
-0.1236217482 0.6614300190 0.2912515641 -0.0615477627 0.0013014415 -0.1804447747
0.0096948080 0.1396522206 -0.2009223973 -0.0626613310 0.0004974604 -0.1808484890
-0.0296922202 0.1435321799 0.0346173508 -0.0610975962 0.0005958869 -0.1807557841
0.0606713030 0.6500221244 0.0375749775 -0.0609279490 -0.0011070311 -0.1803072787
0.1318278013 0.6584207442 0.3812370444 -0.0614777294 -0.0012950922 -0.1806581014
0.0999290257 0.6433402056 -0.1128223896 -0.0615281457 -0.0012668555 -0.1802268929
0.0514043279 0.1216288365 0.2627025386 -0.0604309857 0.0001194958 -0.1809286178
-0.0545070238 0.6748388149 -0.2580079519 -0.0615732122 0.0001761257 -0.1792426522
-0.0889603813 0.6610167220 0.2792608571 -0.0615939826 -0.0013018173 -0.1806201606
0.1028351557 0.0404632129 0.4907604500 -0.0609246190 -0.0001696720 -0.1802384433
0.1300560088 0.1079953150 -0.0134931353 -0.0616036945 -0.0003819209 -0.1816206308
0.2564967538 0.6248703046 -0.2229095739 -0.0615373735 -0.0012629175 -0.1807745294
-0.0246025561 0.1345574663 -0.1015181670 -0.0627593935 0.0002221226 -0.1808660430
-0.2982491402 0.6329795492 -0.1329666235 -0.0616739927 -0.0012572988 -0.1802035702
-0.4360603897 0.1168569083 0.2881558399 -0.0609491526 0.0002696852 -0.1796656729
-0.3927758691 0.8624862901 -0.2662880859 -0.0617443991 -0.0001637989 -0.1818152748
-0.2660991676 0.6752796270 0.1647142937 -0.0617044385 -0.0012975609 -0.1805704410
0.0069623703 0.6533061211 0.2012338295 -0.0615965675 0.0013022348 -0.1805719364
-0.1193783863 0.6456951890 -0.1030420834 -0.0615618536 0.0012727638 -0.1808211148
0.1142258486 0.6580583385 0.3861540785 -0.0616573456 0.0012948482 -0.1804008813
-0.0992302106 0.6665700095 0.2057445762 -0.0615550841 0.0013030269 -0.1804710215
0.2722876306 1.1038663469 -0.3187965064 -0.0614312276 -0.0002967189 -0.1817960467
-0.0384265539 0.9219514308 -0.2803071401 -0.0615746984 -0.0002419065 -0.1818159467
0.2769418311 0.6894085759 0.2202590278 -0.0618357495 0.0012758836 -0.1804764523
0.0762523866 0.6321824628 -0.1532851746 -0.0615465074 -0.0012535918 -0.1801732027
-0.3255105307 0.6388968747 -0.1200883761 -0.0617178927 -0.0012459989 -0.1801902360
0.2179880642 0.6648967518 -0.0502116446 -0.0614553149 -0.0012724454 -0.1802726966
0.0225600031 0.6685627059 0.1187457931 -0.0615469693 -0.0013041843 -0.1805446483
-0.1309136123 1.2743409158 -0.3686327621 -0.0615279748 -0.0011465403 -0.1811396401
-0.2470179226 0.1435321799 0.1542326240 -0.0609746987 0.0006866188 -0.1797632552
-0.4968417962 0.0392499524 0.2969936394 -0.0626010814 -0.0000965437 -0.1798460759
-0.1122345340 0.0913386599 0.0481868218 -0.0614387330 -0.0008427923 -0.1804400434
0.1929164032 0.0913386599 -0.0005878700 -0.0616050581 -0.0009718812 -0.1807663403
0.0527520220 0.0916277768 -0.2282948334 -0.0605838279 -0.0006462184 -0.1801368682
-0.0243581247 0.5977927266 -0.0339226825 -0.0610991763 0.0000218678 -0.1805484376
-0.2654519849 0.1161200689 -0.1918903243 -0.0608047644 -0.0000560676 -0.1814888121
0.4731744854 0.0783196127 -0.0052223583 -0.0618247393 -0.0012800683 -0.1805340217
-0.1392671160 0.6361289532 -0.1418009887 -0.0615509099 0.0012579160 -0.1808789413
0.0064052814 1.2674049020 -0.3598365151 -0.0615913717 -0.0006905177 -0.1816264451
-0.1453296673 0.6704657273 0.1301076151 -0.0615333755 0.0013037198 -0.1805194793
0.0786454490 1.0795161139 -0.3146474595 -0.0615638004 0.0003016851 -0.1792645918
0.1465451774 0.0961883579 -0.0131760440 -0.0615974131 -0.0006714722 -0.1815415576
-0.3071630783 0.6678758026 0.3835013963 -0.0614003042 0.0012855629 -0.1803998465
-0.4220329036 1.0850989481 -0.3173312816 -0.0602728576 -0.0000882371 -0.1805465690
0.0631043953 0.0913386599 -0.0136672503 -0.0616067361 -0.0009316400 -0.1813564115
0.2825201649 0.6829732663 -0.0020068343 -0.0617480201 0.0012752103 -0.1807422164
0.0722071617 0.6375567957 -0.0850270920 -0.0615421962 -0.0012774808 -0.1802751288
-0.2519941702 0.6577885541 0.4065373143 -0.0616880654 -0.0012871614 -0.1807138819
0.1091795168 1.1806049018 -0.3390352640 -0.0615738529 0.0002931501 -0.1792625458
0.0248803430 0.6430720144 -0.0564795696 -0.0616000280 0.0012875763 -0.1807411817
-0.2015408853 0.8350454295 -0.2646897116 -0.0615759080 0.0001591694 -0.1792397268
0.2271467195 0.6587345304 -0.0190281250 -0.0614333923 -0.0012810965 -0.1803448424
-0.2679163763 0.6617509322 0.1696086706 -0.0617021067 -0.0012971342 -0.1805261901
-0.0283638455 0.2226766094 0.0119923602 -0.0606067983 0.0000416570 -0.1796868517
0.1180625734 0.0589747461 -0.4522509253 -0.0626787610 0.0004501221 -0.1801610481
-0.4534380538 0.6347512034 -0.2739872695 -0.0628755697 -0.0000652393 -0.1805573235
0.0318726228 0.6683729224 0.0755333282 -0.0615402572 -0.0013028246 -0.1804946025
-0.4518244481 0.6622491272 -0.0101125349 -0.0604934523 -0.0002316870 -0.1804893910
0.0381555313 1.0926407108 -0.3189589143 -0.0615801879 -0.0003043482 -0.1818028397
-0.2342415165 1.0499427866 -0.3080300897 -0.0615683634 0.0002998309 -0.1792641207
0.4757150728 0.1071882322 -0.0096002438 -0.0607989970 -0.0002374153 -0.1810960011
-0.4497589587 0.7135240282 0.1653784210 -0.0603819512 -0.0005020077 -0.1805227831
-0.4076695705 0.8294962837 -0.2567115262 -0.0625045847 -0.0000191472 -0.1814469855
0.1029465732 0.0913386599 0.4747039108 -0.0611958831 -0.0006441046 -0.1806603692
-0.4428003673 0.1426707624 0.2928761213 -0.0610686079 0.0009565089 -0.1798386644
-0.1231502033 0.6516755512 0.0223358737 -0.0616069449 -0.0012989793 -0.1804230309
0.2376700214 0.8843827844 -0.2717388849 -0.0615978724 0.0002120988 -0.1792470417
0.2058874520 0.1113958259 0.0192925322 -0.0616461879 -0.0001266463 -0.1793135506
0.3032400033 0.6866025062 -0.0000910894 -0.0618310560 0.0012576968 -0.1807480465
-0.3169665063 0.8254279828 -0.2649879467 -0.0615746723 -0.0001374973 -0.1818308741
-0.4243942194 0.7887834904 -0.2427848754 -0.0610085253 -0.0000062971 -0.1793604569
-0.4320616954 0.0338189948 -0.2909249775 -0.0606028616 -0.0001155317 -0.1813561179
-0.0237275278 0.2728835449 -0.0108654604 -0.0603411907 0.0000000000 -0.1809588926
-0.3833335341 0.6717622039 -0.0613568531 -0.0614160158 0.0012611037 -0.1808264124
0.4649757642 0.0727567934 0.0015110481 -0.0615811757 0.0006026734 -0.1794186227
0.1719272998 0.6469394603 -0.0614521637 -0.0614666200 -0.0012784216 -0.1802976020
0.0925403035 0.1232203827 -0.4410339102 -0.0625607802 0.0003983710 -0.1808571988
0.3303876655 0.6387536009 -0.1946393074 -0.0621322440 0.0010927483 -0.1809681844
-0.2631751678 0.7814546081 -0.2613023312 -0.0615661687 -0.0000738264 -0.1818360086
-0.0423730169 0.9101607411 -0.2780250581 -0.0615745784 -0.0002301434 -0.1818180084
0.1257293721 0.6684746241 0.2317611382 -0.0614817535 -0.0012994529 -0.1806057578
-0.2827934528 0.6415508317 -0.0929280753 -0.0616835989 -0.0012670603 -0.1802467394
0.0543683561 0.9073623960 -0.2775968285 -0.0615765383 -0.0002391272 -0.1818164165
-0.0988182184 0.1057838233 0.0140114392 -0.0621757825 -0.0000179794 -0.1815180431
0.0624534403 0.9109900427 -0.2768807465 -0.0615715968 0.0002406656 -0.1792519101
0.0787814653 0.0691454037 0.4686249537 -0.0624589845 0.0008229483 -0.1809501659
-0.0698242444 0.1316051555 -0.0448322242 -0.0609596069 0.0006714709 -0.1812521184
-0.4410080862 0.0617436397 0.2694874339 -0.0604889662 0.0003585656 -0.1799388199
-0.0350648828 0.4910037135 -0.0112211371 -0.0605727707 0.0001888401 -0.1813184538
-0.4407044151 0.6913448877 -0.0645534139 -0.0619891111 0.0011812529 -0.1808582726
-0.3414858959 0.8673765659 -0.2700615156 -0.0616060172 -0.0001943582 -0.1818236766
-0.4261497054 1.0305057645 -0.2922997796 -0.0628568205 0.0001267246 -0.1803389771
-0.0325232476 0.5922017294 -0.0336063676 -0.0614371659 -0.0002338400 -0.1807395833
0.0924524292 0.1327284814 0.5010432167 -0.0614751706 0.0002577212 -0.1792915067
0.2203822319 0.0913386599 -0.0059475495 -0.0615943976 -0.0008180095 -0.1811815645
-0.1238382065 1.2279253490 -0.3498372897 -0.0615720535 0.0002652005 -0.1792564509
0.2002060634 1.1385977837 -0.3284032117 -0.0615805128 0.0003028451 -0.1792648554
0.1000605129 0.9108777496 -0.2770589625 -0.0615710201 0.0002420540 -0.1792521906
-0.0610640697 0.6084711490 -0.0433595318 -0.0612959720 0.0011020218 -0.1798954692
0.0995661215 0.0913386599 0.4863506495 -0.0616092205 -0.0007631515 -0.1805346245
0.1254666965 0.6524718012 -0.0155028455 -0.0616494304 0.0012910746 -0.1807008713
-0.0237002802 0.6539164891 -0.0514658705 -0.0615648078 -0.0012863210 -0.1803169476
-0.1700841078 0.6633033345 0.2916791974 -0.0615144528 0.0013002358 -0.1804438196
-0.0223906117 0.6375797321 -0.0834868952 -0.0615832947 0.0012803853 -0.1807805304
-0.0323157105 0.6516271691 0.2277166101 -0.0615811887 0.0012993929 -0.1806392699
-0.0783494204 0.0892989150 -0.0121856498 -0.0620262872 -0.0010329515 -0.1807090722
0.1847295287 0.6651454709 -0.0448198987 -0.0616762892 0.0012788561 -0.1807701034
-0.1370887751 0.1112084499 0.0787750547 -0.0609138932 -0.0003620077 -0.1796898972
0.2948608948 1.1958418161 -0.3315978296 -0.0608306407 -0.0002509595 -0.1815749040
-0.1691183020 0.6684625178 0.2064396034 -0.0615210083 0.0013021148 -0.1804725377
0.4399236144 0.0217306272 -0.0169017897 -0.0622057194 -0.0006071437 -0.1814546789
0.0527784032 0.6622213720 0.2899247461 -0.0616173418 0.0013009757 -0.1804447068
-0.1016152026 0.6553136314 0.1387349848 -0.0615554442 0.0013042234 -0.1805135423
-0.1226695401 0.6426791447 -0.1151062841 -0.0615597019 0.0012681825 -0.1808390602
-0.4025706355 0.6469036216 -0.1558594960 -0.0614362081 0.0012189457 -0.1809773600
-0.1538179230 0.9353853526 -0.2831095472 -0.0615711232 -0.0002602238 -0.1818124198
-0.1164952881 0.6676007232 0.1508714957 -0.0616008422 -0.0013037550 -0.1805687917
0.3358284198 0.9601044829 -0.2887657707 -0.0628761243 -0.0000890343 -0.1805471901
-0.3665469055 0.1412597041 0.2017808841 -0.0622206376 0.0004807767 -0.1814940719
0.0893593329 0.0971329497 0.0170454420 -0.0616647505 -0.0003484257 -0.1793257848
-0.2271240310 0.6679643241 0.2489381065 -0.0616734016 -0.0012987483 -0.1806118292
0.3539908265 0.7152390968 0.1388835158 -0.0627294487 -0.0005966163 -0.1805089740
0.0441880870 0.6660866675 -0.2565337368 -0.0615779214 0.0001600149 -0.1792390940
0.1198040623 0.7194282922 -0.2588243017 -0.0615744322 0.0000025014 -0.1792292163
-0.0085323370 0.6555869193 0.0523635534 -0.0616501129 0.0013001615 -0.1805945871
-0.1774760764 0.7967702081 -0.2620951626 -0.0615744322 -0.0001006526 -0.1818344911
-0.0966757592 1.2794841305 -0.3776293474 -0.0616060667 0.0012910707 -0.1803984543
-0.2128746351 0.6506379884 -0.0856564950 -0.0616343413 -0.0012733849 -0.1802574652
0.0634488529 1.1618146461 -0.3356359770 -0.0615749555 -0.0003010066 -0.1818036408
0.1080493705 0.0419920460 0.5170839477 -0.0604750214 -0.0000278413 -0.1799784830
-0.2822881504 0.6269898704 -0.1823356428 -0.0616391757 -0.0012472059 -0.1801593283
-0.0953702062 0.7844911593 -0.2614488998 -0.0615744322 -0.0000847531 -0.1818354449
-0.0251108766 0.9466855328 -0.2850943807 -0.0615761455 -0.0002643471 -0.1818117178
0.0856391524 0.1081649596 -0.4210322547 -0.0626934104 -0.0000302044 -0.1809000836
0.2049003825 0.6719383701 0.3212676960 -0.0617364018 0.0012912638 -0.1804409450
0.0781880015 0.1377994825 0.4577594542 -0.0627592526 0.0002713345 -0.1801866516
-0.3248478779 0.6688963230 0.1313622404 -0.0617837896 -0.0012842777 -0.1805279751
0.1309434683 0.0913386599 -0.0075719266 -0.0616049211 -0.0009378862 -0.1810972120
-0.4377372305 0.0783885773 -0.2874561740 -0.0608890831 0.0009147201 -0.1799165645
-0.1814339946 0.6706946964 0.0934315053 -0.0616296961 -0.0013034992 -0.1805202230
0.2229947550 0.6233228803 -0.2029136349 -0.0615137338 -0.0012822121 -0.1803504023
-0.0150780411 0.0913386599 0.0889849097 -0.0615594579 -0.0008227982 -0.1805991684
0.0456148960 0.6679539311 0.1510247841 -0.0615344377 -0.0013034014 -0.1805696373
0.2659399056 0.6815274627 0.1465851968 -0.0605969220 -0.0003943312 -0.1805303408
0.2856857737 0.6716854298 -0.0550718843 -0.0614056958 -0.0012620745 -0.1802518427
0.1065105072 0.0281928635 0.4988385154 -0.0603162370 -0.0001255359 -0.1808468788
-0.4366100723 0.8673750523 -0.2585672055 -0.0628659100 0.0001046650 -0.1803848866
0.1257252502 0.0913386599 0.0098941181 -0.0616407846 -0.0007071817 -0.1799252991
-0.3136661626 0.6838963844 0.1189485988 -0.0614135001 0.0012944358 -0.1805357193
0.1988943959 1.1186966946 -0.3250052192 -0.0615623951 -0.0003059062 -0.1818024143
-0.2088973740 0.6533646966 0.4134854736 -0.0616521458 -0.0012747171 -0.1807816134
-0.0382163224 0.6680874891 0.1773499743 -0.0615781080 0.0013042286 -0.1804955355
0.2082201775 1.0940826103 -0.3176023199 -0.0615808912 0.0003059858 -0.1792656056
0.0069966601 1.0274978050 -0.3033587879 -0.0615799804 -0.0002931110 -0.1818054715
0.0846604847 0.0378523052 0.4524994852 -0.0613893671 -0.0001881185 -0.1817235420
-0.2962215211 0.1099505508 -0.2150205116 -0.0608579848 -0.0002684469 -0.1814271442
0.1310595245 0.6530076264 -0.0138388861 -0.0616537664 0.0012911333 -0.1806988345
0.3149891196 1.1288771229 -0.3033224117 -0.0616759108 0.0003324531 -0.1792873103
-0.3392122457 0.9671816998 -0.2890507160 -0.0616183166 -0.0002677293 -0.1818102420
0.0192498601 0.1309365487 -0.2286158510 -0.0627013334 0.0003046301 -0.1808676035
-0.2367427422 0.6614126177 0.3566798249 -0.0616821140 -0.0012958033 -0.1806411502
0.1256681087 0.1305291352 -0.4958356526 -0.0612413789 0.0000928679 -0.1817280202
-0.1189408285 0.6465037841 -0.0378507250 -0.0615538523 0.0012889046 -0.1807324850
-0.3159486544 0.6664995274 0.2213419063 -0.0617520872 -0.0012881543 -0.1804376738
0.1657084524 0.9007945618 -0.2765757210 -0.0615747519 -0.0002346464 -0.1818172411
-0.0409817464 0.6303853238 0.4431290051 -0.0615799256 -0.0008289675 -0.1815162659
0.0194415303 0.9056902539 -0.2757503614 -0.0615716399 0.0002378198 -0.1792513464
0.0091053944 0.6277514770 0.0523710001 -0.0610958255 -0.0011162641 -0.1800590868
-0.3142762526 0.6738922019 0.2996002099 -0.0617497307 -0.0012899159 -0.1806220239
-0.2473326038 0.6734619015 0.0588379273 -0.0616762174 -0.0012976523 -0.1804619072
0.1867228631 0.6440687606 -0.0809541811 -0.0614611358 -0.0012711288 -0.1802659440
-0.3033022623 0.1435321904 0.1883908049 -0.0611840573 0.0008604741 -0.1800390105
-0.1254409129 0.1435321799 0.0577253037 -0.0612451590 0.0006690374 -0.1801741748
0.0914338205 0.0370545938 0.4566010751 -0.0606537660 -0.0001622135 -0.1813859752
0.0766479130 0.0424023666 0.4856659749 -0.0628194565 0.0000000000 -0.1801435555
-0.3198114211 0.0913386599 0.1946848711 -0.0613051424 -0.0007978067 -0.1801961209
0.3544916090 0.7154057050 0.1901882610 -0.0627527271 -0.0005447542 -0.1805271296
0.0899131962 0.1435321799 0.4650924780 -0.0621751001 0.0005900138 -0.1803614373
0.2770918745 0.6444974691 -0.1531565998 -0.0616953568 0.0012324325 -0.1809444259
-0.3075033044 0.6455611534 -0.1282599945 -0.0616671384 -0.0012521199 -0.1801808073
-0.0096217019 0.6357838679 -0.1396543501 -0.0615851737 0.0012584993 -0.1808771758
-0.4001648404 1.1746651174 -0.3173834764 -0.0611047388 0.0003145469 -0.1793598202
0.1109375707 0.0353393307 0.4932686631 -0.0628125643 0.0001206884 -0.1801532347
-0.2633474312 1.1910698083 -0.3411042073 -0.0615667650 0.0002885075 -0.1792615411
0.2391659581 0.6659419596 0.0272234406 -0.0613367390 -0.0012690620 -0.1804104522
-0.3975585492 0.0983283313 -0.2526737873 -0.0623043939 -0.0002890073 -0.1795327647
0.2006898817 0.6663235204 0.3824122663 -0.0617344250 0.0012878425 -0.1804031112
0.1800305904 1.0690843386 -0.3132761413 -0.0615588747 -0.0002997291 -0.1818038496
0.0476176280 0.6191398163 -0.1740098317 -0.0615624447 -0.0004560918 -0.1812348763
0.2646350676 0.6736627565 0.0203742755 -0.0622554168 0.0008872050 -0.1806408566
-0.3534284609 0.6482323525 -0.1367326613 -0.0614641865 0.0012396300 -0.1809248690
0.0888576840 0.7492208727 -0.2601291397 -0.0615746710 -0.0000280540 -0.1818384343
0.3267975694 0.7117994029 0.3046674074 -0.0626963985 0.0006562513 -0.1805155817
-0.3253674161 0.8168664970 -0.2625309680 -0.0615669242 0.0001323040 -0.1792362664
-0.3417628282 0.6764555274 0.3431424491 -0.0613533953 0.0012818768 -0.1804357713
0.4829196758 0.0784741212 0.0275282873 -0.0609941878 0.0011236795 -0.1802685733
-0.0647871235 0.3058147566 -0.0120747895 -0.0627607283 0.0000000000 -0.1810605395
0.0877633569 0.0889613260 0.4971748952 -0.0620087854 -0.0005387624 -0.1799696493
-0.3008945948 0.1052797162 -0.2185333795 -0.0608834553 -0.0003983566 -0.1813943079
-0.0299309664 1.0949956146 -0.3179090078 -0.0615735397 0.0003039255 -0.1792650837
-0.4287295554 0.7163681666 0.0867983274 -0.0623437308 -0.0010449286 -0.1804333561
-0.1516482240 0.9435347758 -0.2832512187 -0.0615790357 0.0002644541 -0.1792564039
0.0838671510 0.1323513519 0.3689723319 -0.0605997992 0.0005500701 -0.1808588650
-0.4555718750 0.0967738596 0.3050157573 -0.0611243362 -0.0003220040 -0.1796655411
-0.0587293282 0.6613452816 0.2621931950 -0.0615811965 -0.0013021370 -0.1806170042
-0.1938720353 0.6545086990 0.3996936047 -0.0616461801 -0.0012916670 -0.1806993825
-0.4276941834 0.0285648271 -0.2961062504 -0.0619749040 -0.0001749318 -0.1793634842
-0.0751480865 0.6266556571 0.0650131710 -0.0612941269 0.0011204683 -0.1811397432
0.2608146102 1.2446779905 -0.3520575211 -0.0615159024 -0.0003782765 -0.1817803664
0.3553533645 0.6804840869 -0.2535679758 -0.0628283581 -0.0001093102 -0.1808699757
0.0457844715 0.1431911670 0.0162051498 -0.0616412752 0.0009231390 -0.1796519316
0.3059426999 0.9641785173 -0.2756053547 -0.0624378957 0.0001507205 -0.1795708438
-0.3028396868 0.6799688885 0.0837513819 -0.0617312138 -0.0012940470 -0.1804978973
-0.1309152055 0.0913386599 0.0583544679 -0.0615216855 -0.0008225216 -0.1805566724
0.0919862902 0.6506901532 0.4232966458 -0.0616190486 0.0012349430 -0.1801220883
0.0568267244 0.0913386599 0.3274730841 -0.0613997549 -0.0008699942 -0.1806151187
0.2646350676 0.6498389108 -0.1144522080 -0.0623999511 0.0006890523 -0.1807310457
-0.1396898704 0.6551273905 0.0886857390 -0.0616144138 -0.0013038607 -0.1805164886
-0.4673063379 0.0975098613 -0.3033456861 -0.0626312819 -0.0003271555 -0.1807054187
0.2338840079 0.9180373148 -0.2780335995 -0.0616010301 0.0002388832 -0.1792519401
-0.1311500763 0.6368053838 -0.0840482247 -0.0616068653 -0.0012779466 -0.1802772909
0.0459844092 0.1366211942 0.2449599203 -0.0605303439 0.0004909022 -0.1809017459
-0.3173540980 1.0748762300 -0.3141391912 -0.0615978084 -0.0003022422 -0.1818029949
-0.2000781201 0.6339739075 -0.1545086494 -0.0615343620 0.0012506690 -0.1809033966
0.0539709873 0.6586784236 -0.0333609249 -0.0615388702 -0.0012872592 -0.1803252659
-0.2203131929 1.1662899117 -0.3371983039 -0.0615760776 -0.0002946533 -0.1818051440
-0.1804517530 0.0913386599 -0.1030251349 -0.0616713530 -0.0009496924 -0.1803316870
0.2361666393 1.2256976317 -0.3490496608 -0.0614937606 -0.0002437542 -0.1818131048
-0.0525503266 0.6314687999 -0.1029303423 -0.0615767079 -0.0012764265 -0.1802673598
-0.2794143243 0.0913386599 0.1467409553 -0.0619453925 -0.0007909367 -0.1811372092
-0.1607790432 0.9338126027 -0.2828001219 -0.0615711976 -0.0002593392 -0.1818125803
0.0804011842 0.6322378127 -0.1155470623 -0.0616152450 0.0012640696 -0.1808507046
0.2696578653 0.8152528104 -0.2633328679 -0.0615369260 -0.0001105237 -0.1818331706
-0.1820346272 0.9657158278 -0.2882248684 -0.0615824596 0.0002759119 -0.1792587566
-0.0344902831 0.1238572610 -0.0728605163 -0.0626519570 -0.0001023476 -0.1808317479
0.0726071990 0.6519037230 0.0076031853 -0.0615298786 -0.0012967206 -0.1803962373
-0.2525341761 0.6451740589 -0.2506348878 -0.0615680529 -0.0006247329 -0.1816683748
-0.3275685538 0.9325974397 -0.2820531700 -0.0616034362 -0.0002500135 -0.1818140495
0.0872300017 0.0913386599 -0.3609814139 -0.0613497535 -0.0009676457 -0.1804316467
-0.4306311832 0.9753834482 -0.2982401211 -0.0628742140 0.0000671639 -0.1805963577
-0.0315982780 0.1413095789 -0.0812424224 -0.0627608732 0.0003730975 -0.1808614956
0.0194067225 0.1435321799 -0.2149952408 -0.0623329267 0.0007133693 -0.1807420742
-0.3121103560 0.9983118502 -0.2953246042 -0.0615563981 0.0002826475 -0.1792604059
-0.1295138473 0.7481519312 -0.2601291397 -0.0615755792 -0.0000257379 -0.1818384356
0.1456606656 0.6743857373 0.1775982549 -0.0616895881 0.0012987222 -0.1804864160
0.1834017151 0.8077462496 -0.2627452668 -0.0615763047 -0.0001217127 -0.1818331641
0.1920252015 0.8412504183 -0.2669332774 -0.0615758702 -0.0001671484 -0.1818272049
0.3486675429 0.7634889540 -0.2587272491 -0.0628662480 -0.0000910607 -0.1806871040
0.0547042919 0.6373078782 -0.1380456323 -0.0616014659 0.0012591778 -0.1808736697
-0.3608661537 0.6814459913 -0.2600011768 -0.0615775378 -0.0001432047 -0.1818290721
-0.1390318811 0.7435019322 -0.2601291397 -0.0615760542 -0.0000198335 -0.1818385139
-0.0460386852 0.0944490988 0.0510928813 -0.0627777669 -0.0003099134 -0.1802497875
-0.1433649493 1.0938172467 -0.3193102407 -0.0615687327 -0.0003050607 -0.1818026726
0.1384011302 0.6666819046 -0.0014726023 -0.0614884212 -0.0012899902 -0.1803662326
-0.3736099466 0.6870065245 0.2716228469 -0.0612966322 0.0012720696 -0.1804588996
0.0688130615 0.6570416818 0.0698087925 -0.0616219897 0.0013033257 -0.1805698565
-0.1097216926 0.6590295999 0.3264336097 -0.0615567282 0.0013012197 -0.1804398137
-0.4210246488 0.7150077399 0.1787006852 -0.0605445119 0.0007817284 -0.1805394590
0.3576888757 0.0913386599 0.0091178974 -0.0615941849 -0.0008851695 -0.1804756237
-0.3569778017 0.6451693602 -0.1417904717 -0.0616855914 -0.0012368546 -0.1801339923
-0.2210795986 0.1049834409 -0.1585345274 -0.0608213072 -0.0002737485 -0.1814518147
0.2389240882 0.6868114042 0.0959508486 -0.0617473429 0.0012929966 -0.1805570847
0.0059549557 0.6514315309 0.2288457595 -0.0615501336 -0.0012989349 -0.1804261638
-0.1052495966 0.6390648778 -0.1240982255 -0.0615888846 -0.0012638517 -0.1802117267
-0.3419031557 1.2147152983 -0.3460321524 -0.0616709576 -0.0002629940 -0.1818083656
-0.4679006186 0.0352284952 -0.3402461250 -0.0624998756 -0.0002239259 -0.1813404768
0.0590180863 0.6682468503 0.2005716947 -0.0616182357 0.0013025180 -0.1804729409
0.0477547195 0.1333016380 0.2507552357 -0.0605098789 0.0004112549 -0.1809069027
-0.0367773314 0.5438331267 -0.0128545737 -0.0607291399 0.0002660512 -0.1814565839
0.2925939136 1.2583111741 -0.3684677862 -0.0615549758 0.0012474395 -0.1801572445
0.1610434621 0.6618998220 -0.0516095828 -0.0616666073 0.0012782180 -0.1807764449
-0.3159148264 0.6710500533 0.3422682298 -0.0617530881 -0.0012884571 -0.1806354337
0.2058913548 0.6556403184 -0.0362063682 -0.0616952746 0.0012809216 -0.1807454550
0.2754034454 0.9070751307 -0.2743198505 -0.0616605398 0.0002188905 -0.1792510202
-0.2267549550 0.6721494185 0.0668547097 -0.0616621226 -0.0012996095 -0.1804773500
0.2224782245 1.0393923455 -0.3046036360 -0.0615977053 0.0002962100 -0.1792635779
-0.1101015453 0.0913386495 -0.0367698481 -0.0620526502 -0.0009498059 -0.1798127151
-0.0849777913 1.2255226608 -0.3490824122 -0.0615789548 0.0002599224 -0.1792554305
0.0865921760 1.0099862632 -0.2997902439 -0.0615812109 -0.0002902717 -0.1818060913
0.1029231396 0.0213510903 -0.5073211576 -0.0625099815 -0.0004813769 -0.1812594842
-0.2545770670 0.6571251849 -0.2540842036 -0.0615819155 0.0003904075 -0.1792927371
0.0223014482 0.6538253397 0.3938297189 -0.0615968989 0.0012963435 -0.1803934006
-0.1804196070 0.1435321799 0.0843224482 -0.0616649215 0.0009454830 -0.1807433503
0.0341151944 0.6391306221 -0.0799661356 -0.0616006151 0.0012804127 -0.1807797044
-0.0491976028 0.3551310057 0.0188823616 -0.0618045470 0.0000000000 -0.1792556406
-0.2587605890 0.6587236193 -0.0588163257 -0.0616610200 -0.0012758093 -0.1802774579
0.1097629464 0.6576248922 0.1233858766 -0.0614969823 -0.0013021344 -0.1805377209
-0.1261115944 0.6995856599 -0.2603245183 -0.0615889055 -0.0000234153 -0.1818384500
-0.2418444643 0.6731124372 0.0610765570 -0.0616724660 -0.0012981846 -0.1804662014
-0.3171330154 0.6677477406 0.0745988398 -0.0617340857 -0.0012941997 -0.1804894119
-0.2076127845 1.0743048063 -0.3152392126 -0.0615733362 -0.0003006034 -0.1818037426
0.0444175036 0.6517090399 0.2277360822 -0.0615396518 -0.0013012380 -0.1804537820
0.3363884549 0.7207860127 0.3166779857 -0.0621070228 0.0011818414 -0.1804956660
-0.4095273558 0.6550776553 -0.1364750719 -0.0613610443 0.0012163321 -0.1809493673
-0.1447234996 0.6539019154 0.0645791271 -0.0610336265 0.0011249935 -0.1809076777
0.1186723046 0.6588844941 0.3804384836 -0.0616616554 0.0012962156 -0.1804144542
-0.4528129125 0.6415789849 -0.2471166975 -0.0628648909 0.0000507739 -0.1803825913
0.1499251619 1.2706702617 -0.3778956675 -0.0616730493 -0.0012004014 -0.1810259769
-0.4264447749 0.0385925737 0.2751591471 -0.0611610387 -0.0001336193 -0.1816559253
0.0330527235 0.6582124438 0.3188859530 -0.0615451125 -0.0013014454 -0.1806230599
-0.3409112270 0.6797422303 0.0053771604 -0.0614183227 0.0012815114 -0.1807176450
-0.0671062003 0.6678142404 0.1826921324 -0.0615660669 0.0013039416 -0.1804882271
0.3174719275 0.6940893169 0.3716110770 -0.0607866206 -0.0010263412 -0.1806060370
-0.4419232800 0.7222349205 0.3228484107 -0.0619649011 0.0012326805 -0.1804946208
-0.4517810831 0.1208850293 -0.2934341862 -0.0621849816 0.0003902940 -0.1797054952
0.0105883441 0.8100538465 -0.2628706069 -0.0615744518 -0.0001273496 -0.1818325704
-0.2001684632 0.6611953570 -0.0280775706 -0.0616355104 -0.0012862193 -0.1803265329
-0.1528340582 0.6536494527 -0.2538686118 -0.0615741204 0.0001700556 -0.1792404066
-0.4357663549 0.7219291787 0.2895562468 -0.0617709852 -0.0012849901 -0.1805673564
-0.1006606731 0.6511171080 0.4060254225 -0.0615881239 -0.0012920989 -0.1807097716
0.4411160002 0.1285047913 -0.0075112203 -0.0615706795 0.0005696766 -0.1815125954
-0.4621088876 0.0448067629 -0.2841306051 -0.0623624605 0.0000030611 -0.1794945186
-0.0352611357 1.2770956180 -0.3716637194 -0.0615816180 -0.0012363001 -0.1809443437
-0.3590775157 0.6729670130 0.2046397959 -0.0620673857 -0.0011767564 -0.1803336782
0.1010478225 0.0482300511 0.4617865000 -0.0628467367 0.0001059424 -0.1802825455
-0.0177654764 0.1649062288 -0.0085496391 -0.0603803567 0.0004132239 -0.1807253566
0.0751476859 0.1025940425 0.3404284030 -0.0604268220 -0.0002753508 -0.1809132142
0.3049712389 0.8314626993 -0.2610174956 -0.0618130936 0.0001081789 -0.1792575692
-0.3833644940 0.6931694635 0.1225576894 -0.0618390351 -0.0012767474 -0.1805185763
-0.4089816960 0.6885825404 -0.0020951758 -0.0611865404 0.0012200992 -0.1807516935
-0.3856523409 1.1430477236 -0.3239715382 -0.0624161676 -0.0001931695 -0.1815066010
-0.2017145227 1.0360539553 -0.3059453083 -0.0615740643 -0.0002987818 -0.1818041615
0.2278752145 0.6614762116 0.4202436889 -0.0616970740 0.0010681012 -0.1797960562
0.1661360256 0.6625298213 0.0652898241 -0.0616898373 0.0012983634 -0.1805799024
0.3325529841 0.6924129537 -0.0435588537 -0.0622728207 0.0010668695 -0.1807994571
-0.0768731006 0.1165944414 -0.0289018955 -0.0626060202 0.0000351445 -0.1813018067
-0.3411814889 0.8811577220 -0.2723697205 -0.0616082054 -0.0002079181 -0.1818215536
-0.3262947553 0.1227552888 -0.2376272840 -0.0608222936 0.0000165727 -0.1814852630
-0.0406106583 0.3188627373 -0.0252295098 -0.0613521870 0.0000000000 -0.1818186256
0.1604485643 0.6675868658 0.2946145648 -0.0614504452 -0.0012958438 -0.1806206316
0.0809247440 0.1400647308 -0.4073684687 -0.0624648746 0.0007989915 -0.1808173686
-0.3871333646 0.6953372118 0.1539835461 -0.0612812834 0.0012706800 -0.1805180153
-0.0015395992 0.6527479963 0.0537007449 -0.0615540950 -0.0013024423 -0.1804752335
0.1044638832 0.6696913790 0.0447799393 -0.0615084061 -0.0012990928 -0.1804425969
-0.3007714899 0.0913386599 0.1623421478 -0.0619162463 -0.0008359040 -0.1810882399
0.2338477320 0.6580995531 -0.0293091589 -0.0613875025 -0.0012687018 -0.1803315800
-0.1126523314 0.6332850522 -0.0541450526 -0.0610015105 0.0010578100 -0.1800428624
-0.2177169463 0.6584114264 0.1374261448 -0.0616590340 -0.0013018029 -0.1805448023
0.1011641684 0.0714397513 0.4546634494 -0.0618861737 0.0008058301 -0.1815018135
0.1837388552 0.6540761700 -0.0860851316 -0.0614849164 -0.0012681942 -0.1802418124
-0.0802125373 0.6468004077 -0.0973131230 -0.0615654236 0.0012742578 -0.1808138090
0.1268426939 0.6462082761 -0.0607691032 -0.0616409359 0.0012832703 -0.1807592798
0.1495780463 0.0230755198 -0.4804850908 -0.0603362154 -0.0001425405 -0.1801578695
-0.3765315963 0.1037981548 -0.2753915492 -0.0609505579 -0.0005625313 -0.1813287320
-0.3074952405 0.6690103684 0.3718086660 -0.0613981682 0.0012876807 -0.1804206691
-0.0456287065 1.2225706070 -0.3497531290 -0.0615747963 -0.0002704733 -0.1818103842
-0.4530258320 0.6695316186 -0.0571102761 -0.0628760329 0.0000633290 -0.1805540262
0.2449033347 0.6668467617 0.4119710603 -0.0613880701 -0.0012225092 -0.1809331521
-0.1254287179 0.7223171892 -0.2588243017 -0.0615744322 0.0000008429 -0.1792291981
0.0621440449 0.6691064149 -0.2570679584 -0.0615804710 0.0001903263 -0.1792437705
0.0970581472 0.6340330806 0.4370522388 -0.0616236338 -0.0004888615 -0.1817397807
-0.3972273226 0.6759823801 -0.2579628894 -0.0615645611 0.0001743407 -0.1792425231
-0.2211192996 0.6563943595 0.2220957478 -0.0616707776 -0.0012979028 -0.1804534127
-0.2397565357 0.6383746694 -0.1392709835 -0.0616336575 -0.0012542090 -0.1801799670
-0.0188244816 0.6504006984 0.0186852097 -0.0615592661 -0.0012988123 -0.1804138579
-0.0227698367 0.2683712650 -0.0051193231 -0.0602902433 0.0000000000 -0.1806346325
-0.3976346865 0.8269942816 -0.2621418523 -0.0617799338 -0.0001028017 -0.1818161451
-0.1957642161 0.6717182413 0.1646958968 -0.0615017750 0.0013019008 -0.1804958956
-0.2892652979 0.6230775864 -0.2125609142 -0.0615319885 0.0012946133 -0.1804996484
0.0082267596 0.6265621185 -0.1269384716 -0.0615538628 -0.0012624751 -0.1802062934
-0.4495493430 0.1175148115 -0.3296076816 -0.0623602722 0.0001308178 -0.1815142121
0.0979509931 0.1071821295 -0.4567157586 -0.0626674285 -0.0000061210 -0.1808975039
-0.0149456275 0.6509221469 0.0270726014 -0.0615577160 -0.0012996460 -0.1804273408
0.2409886616 0.6613491439 -0.0234745810 -0.0618052542 0.0012613008 -0.1807320126
0.0793368618 1.2272943541 -0.3504774641 -0.0615689337 -0.0002815462 -0.1818080694
-0.2001549438 1.0138123757 -0.3007958799 -0.0615706508 -0.0002916652 -0.1818057703
-0.4510481073 0.7075830485 0.1217009510 -0.0603084458 -0.0002740042 -0.1805151002
0.0617166113 0.1051555151 0.2964606431 -0.0604478142 -0.0002685761 -0.1809132011
0.2802687531 0.6784233758 0.3795625132 -0.0612691745 -0.0012601095 -0.1806590748
-0.4467163936 0.0979321173 -0.2896269181 -0.0622961642 -0.0002180097 -0.1795580799
0.1456517653 0.6644697970 0.3164267183 -0.0614627629 -0.0012967924 -0.1806241664
-0.0422213634 0.1230391198 0.0635891895 -0.0625674022 0.0004271113 -0.1802970005
-0.2970737186 0.6790687069 0.1494490083 -0.0617331814 -0.0012945180 -0.1805557473
-0.3065653125 0.6785269891 0.0376852403 -0.0617238036 -0.0012904404 -0.1804176315
0.2516526497 0.0913386599 0.0052232939 -0.0616041643 -0.0009879542 -0.1805064518
-0.3348616379 0.9408860760 -0.2835332777 -0.0616109521 -0.0002547996 -0.1818130461
0.1068902764 0.0506358265 -0.4477413934 -0.0611001576 -0.0004253367 -0.1816701676
-0.0275979135 0.1469728498 -0.0424618685 -0.0610630806 0.0002253129 -0.1816853716
-0.4300615118 0.0980490608 0.2839546177 -0.0608613044 -0.0002324908 -0.1795388048
-0.4576693799 0.0416294863 -0.3449020375 -0.0615721801 0.0000000000 -0.1818343280
-0.0892266753 0.6301770625 -0.0701559486 -0.0619607374 -0.0010646969 -0.1811649357
-0.1106221183 0.6560059902 0.0457512007 -0.0615305231 0.0013005151 -0.1806159055
0.3367976900 0.9653055176 -0.2916306156 -0.0602726698 0.0000886285 -0.1805239601
0.2027752412 0.6485544205 -0.0742535079 -0.0616838168 0.0012724885 -0.1807977895
-0.1190085183 0.6598435709 0.2954597149 -0.0615979363 -0.0013016842 -0.1806210126
-0.0379381609 0.0887289839 0.0147709554 -0.0615719713 -0.0013046097 -0.1805206132
0.2659399056 0.6837623488 0.1982372586 -0.0603811879 -0.0000079295 -0.1803448476
0.3557436050 0.7151965682 0.2719985137 -0.0604346458 0.0005993904 -0.1805212774
0.1263520448 0.0796330770 -0.4616004197 -0.0609599971 -0.0009758792 -0.1802561082
-0.4499917496 0.7044450345 -0.2667489286 -0.0628714190 0.0001238487 -0.1805122870
