0.0818341657 0.4654848707 -0.4540075798 -0.0479882809 0.0000437732 -0.0204530073
0.3548352989 0.6950796778 0.0878901609 -0.0481087448 0.0008025152 -0.0196559708
-0.4333316871 0.9780534603 -0.2089001642 -0.0481512971 -0.0007823138 -0.0194919488
-0.3454063769 0.9965279189 -0.3404008485 -0.0486809856 0.0000003837 -0.0202340804
-0.3836165354 0.7142979334 0.1173060099 -0.0483341055 0.0007682059 -0.0195976266
-0.1772360482 0.6950796778 0.0265076657 -0.0481180288 -0.0008026316 -0.0196628469
-0.4025449235 0.4222420689 -0.2138375615 -0.0488291836 0.0000429938 -0.0200311132
-0.4109941924 0.3009871584 -0.0880565025 -0.0481179462 -0.0008026324 -0.0196623389
-0.3398078151 0.4863952480 -0.0677172543 -0.0481289013 -0.0008025209 -0.0196660294
-0.3870357077 0.3009871584 -0.1370118872 -0.0481567566 0.0008014261 -0.0196715684
0.4738499275 0.2645137264 0.0073976636 -0.0473161051 -0.0000198973 -0.0196493451
0.1519987108 0.6950796289 0.3383751624 -0.0481156571 0.0008025875 -0.0196550189
-0.4517437587 0.3009871584 0.0615753826 -0.0481487994 0.0008020072 -0.0196579348
-0.0768350130 0.3009871584 0.0822536322 -0.0481219882 0.0008025289 -0.0196543126
-0.2890450619 0.0497632134 0.1141760052 -0.0481179462 -0.0008026324 -0.0196623389
0.0891477643 0.4863952480 -0.0799599527 -0.0481176026 -0.0008026091 -0.0196658448
0.1840332677 0.7167507532 0.0942745641 -0.0481174678 0.0008026156 -0.0196608998
0.2779610035 0.7167507532 -0.0350888482 -0.0481161932 0.0008026091 -0.0196606285
-0.3685683774 0.3009871584 0.2418212350 -0.0481179462 -0.0008026324 -0.0196623389
-0.3614663004 0.2660947172 -0.3488541595 -0.0487742041 -0.0000178883 -0.0192005997
-0.3550925394 0.7162291208 -0.0079169668 -0.0481287030 0.0008025217 -0.0196574492
0.4166714307 0.2878579653 -0.2230476016 -0.0475075402 0.0001065743 -0.0199978786
-0.0629701888 0.3009871584 0.4252385177 -0.0481201879 0.0008025104 -0.0196490698
-0.0615655451 0.3139535616 0.4622957492 -0.0482380360 0.0000000000 -0.0188689472
-0.4223286079 0.6105935031 -0.1295421982 -0.0488799582 0.0000984565 -0.0198926727
-0.0665690465 0.2713632173 -0.4602328306 -0.0482495602 -0.0000179260 -0.0204538420
0.3292465409 0.7162785012 -0.1526562879 -0.0481094238 0.0008025313 -0.0196666803
-0.4518735788 0.2944103635 -0.0837152989 -0.0484825179 0.0004499317 -0.0197205931
-0.1902210918 0.1704021605 -0.4163106037 -0.0484603307 -0.0000723316 -0.0203839367
0.0900887409 0.4360942388 0.4550283099 -0.0479759637 0.0000445654 -0.0188741474
-0.3360988491 0.6950796778 0.0260422505 -0.0481267599 0.0008025281 -0.0196664628
-0.2091957508 0.6950796778 0.1063766702 -0.0481180377 -0.0008026316 -0.0196627571
-0.3235346924 0.7164055290 -0.0767342059 -0.0481223590 0.0008025843 -0.0196681275
0.2320350617 0.4863952480 -0.0014958488 -0.0481146554 0.0008026124 -0.0196599037
-0.4250926051 0.3488079388 -0.1738088291 -0.0488626638 0.0000322433 -0.0199594911
-0.1672694492 0.7163035834 -0.2952475336 -0.0481219352 0.0008025923 -0.0196665158
-0.0416760055 0.4863952480 0.3225954788 -0.0481153545 -0.0008023579 -0.0196455470
0.2027482857 0.0497632102 0.1805323942 -0.0481179462 -0.0008026324 -0.0196623389
0.0444603751 0.7161720978 0.3685797431 -0.0481192015 0.0008025530 -0.0196532764
-0.3007556624 0.4112159156 -0.3344179695 -0.0476545648 -0.0000147917 -0.0190072263
0.3984962449 0.3009871584 -0.1314312426 -0.0481179462 -0.0008026324 -0.0196623389
0.4365339866 0.6465784193 0.1151746661 -0.0473505052 0.0001137418 -0.0194586549
-0.0576124488 0.7159481208 -0.3644450640 -0.0481196694 0.0008025722 -0.0196709993
-0.2413284809 0.4863952480 -0.2384940628 -0.0481261322 -0.0008025120 -0.0196712802
-0.2464709701 0.0520557018 -0.3291369282 -0.0482463906 -0.0007742915 -0.0198294943
-0.0526776343 0.3009871584 -0.4396469551 -0.0481734121 0.0007792212 -0.0197954482
-0.0305013853 0.7160696129 0.3658936381 -0.0481197625 0.0008025851 -0.0196550405
0.3123448920 0.6469249655 -0.3955254908 -0.0476879960 0.0000979179 -0.0203328853
0.2966847910 0.3009871584 -0.0411042692 -0.0481179462 -0.0008026324 -0.0196623389
0.3121500393 0.0507715677 0.2760750336 -0.0480182616 -0.0007872010 -0.0195755294
-0.2898403213 0.9582271071 -0.3326022977 -0.0476905901 -0.0000028959 -0.0189836241
-0.1237463096 0.4268437829 -0.4431791454 -0.0483456072 0.0000426262 -0.0204303265
0.2247665445 0.2792251600 0.4132727106 -0.0477434363 -0.0000166883 -0.0189531778
0.0563870956 0.3009871584 0.3348423597 -0.0481179462 -0.0008026324 -0.0196623389
0.0608707087 0.4863952480 0.3904311210 -0.0481155294 0.0008025594 -0.0196530364
-0.0594157777 0.4863952480 0.2959467749 -0.0481168417 0.0008025939 -0.0196562268
0.3729668608 1.0743816963 -0.3105549153 -0.0475019683 0.0000000000 -0.0201763054
-0.0037259778 0.7166471912 -0.1784593720 -0.0481153320 0.0008026204 -0.0196637852
0.0829881456 0.3009871335 0.0292494461 -0.0481166876 0.0008024414 -0.0196508131
-0.2957252720 0.0708113562 -0.3542168646 -0.0474580354 -0.0000275383 -0.0201182566
-0.3503913054 0.0735992967 -0.3828650712 -0.0485764973 -0.0000836383 -0.0203120169
0.4077002107 0.6950796778 0.0330579329 -0.0481142565 -0.0008026204 -0.0196613677
-0.3453371804 0.1742985083 0.2980198829 -0.0487290665 -0.0000972526 -0.0191515966
-0.3924919580 0.4863952480 0.2098083059 -0.0483089277 -0.0007544793 -0.0195845670
-0.3461045901 0.7426816983 -0.3592026262 -0.0485806453 0.0000839048 -0.0203127601
-0.0605735589 0.3009871584 0.2217535134 -0.0481217057 0.0008024510 -0.0196485216
0.0965527636 0.5593548490 0.4455579922 -0.0479602353 0.0000712417 -0.0188792409
0.1070137818 0.6518402568 -0.4318050245 -0.0479306527 0.0001082101 -0.0204350307
-0.2837126803 0.6950796778 -0.2696314885 -0.0481239137 0.0008025746 -0.0196685914
-0.2108395332 0.7166567931 0.0141682333 -0.0481197400 0.0008026172 -0.0196658030
0.0591117911 0.0497632134 -0.3820678766 -0.0481153914 -0.0008023780 -0.0196797841
-0.0108848819 0.2129714397 0.4642932180 -0.0481495265 -0.0000415820 -0.0188620293
0.1391755511 0.7167508022 0.2509060845 -0.0481164460 0.0008026091 -0.0196613910
0.3020036266 0.0497632102 0.0259547716 -0.0481179462 -0.0008026324 -0.0196623389
-0.0416500355 0.6950796778 0.2851303671 -0.0481198757 0.0008026011 -0.0196562509
0.2377621699 0.3009871584 0.3642432790 -0.0481179462 -0.0008026324 -0.0196623389
0.0687376357 0.7167507532 -0.0718288962 -0.0481189302 0.0008026244 -0.0196640429
0.1605959018 0.1434680469 0.4311602345 -0.0478507514 -0.0001066987 -0.0189135494
-0.3236067792 0.2968477029 0.3300038587 -0.0482843800 0.0005782019 -0.0194985096
0.2757423501 0.3009871584 -0.1371948601 -0.0481059476 0.0008023282 -0.0196684381
-0.2260337871 0.4863951990 -0.0616181926 -0.0481288274 -0.0008024775 -0.0196688161
-0.3008416620 0.0497632070 -0.2008463209 -0.0481269838 -0.0008024920 -0.0196686725
-0.3168880154 0.6950796778 -0.2273496015 -0.0481231312 0.0008025995 -0.0196668103
0.3284980164 0.4943175198 -0.3308618728 -0.0474466846 -0.0000005915 -0.0192223390
-0.3889705206 0.1237941345 0.2228346962 -0.0488100529 -0.0001210490 -0.0192756747
0.0664823389 0.6950796778 -0.2644602065 -0.0481162590 0.0008026075 -0.0196675054
-0.1595408053 0.3009871584 -0.1290467621 -0.0481179462 -0.0008026324 -0.0196623389
-0.0085618205 0.4863952480 -0.1119964937 -0.0481196461 0.0008025939 -0.0196678939
-0.3703513739 0.1837185644 -0.3784694539 -0.0485861762 -0.0000591091 -0.0203115385
-0.0330728759 1.0721436923 -0.4661917792 -0.0481575922 0.0000011927 -0.0204638211
0.2578930868 0.0367891435 0.2646182440 -0.0488525627 0.0000242612 -0.0198184726
-0.4198967794 0.3009871584 -0.1221183443 -0.0481644435 0.0008010922 -0.0196737379
-0.2423949916 1.0778313888 -0.4149943973 -0.0484803957 0.0000006919 -0.0203780414
-0.0658588846 0.3009871584 -0.3413873359 -0.0481179462 -0.0008026324 -0.0196623389
0.0664007481 0.3009871584 0.3584444018 -0.0481179462 -0.0008026324 -0.0196623389
-0.0244840661 0.4863952480 -0.3208030770 -0.0481191638 -0.0008025754 -0.0196704687
-0.4022157928 0.6950796778 -0.0560717698 -0.0481208830 -0.0008026252 -0.0196629473
-0.1387997457 0.3009871584 0.3386870244 -0.0481266443 0.0008022560 -0.0196410129
0.0290242631 0.0497632102 -0.0650218975 -0.0481179462 -0.0008026324 -0.0196623389
0.1910093458 0.7167507532 0.1631166447 -0.0481143407 0.0008026116 -0.0196640774
-0.1371748180 0.3009871584 -0.2454588976 -0.0481179462 -0.0008026324 -0.0196623389
0.0610982991 0.3009871584 0.0207103071 -0.0481179462 -0.0008026324 -0.0196623389
0.0843449275 0.7166544414 0.0949480987 -0.0481186412 0.0008026252 -0.0196606501
-0.3472334139 0.5525873406 -0.2835051641 -0.0487416108 0.0000603283 -0.0201630555
0.2933739074 0.3009871584 0.1476294861 -0.0481087464 0.0008025024 -0.0196538872
0.2588047192 0.6950796778 0.0851655024 -0.0481152164 0.0008025907 -0.0196571033
0.0202569037 0.3009871584 -0.3753908015 -0.0481227507 0.0008025233 -0.0196633398
0.0586788648 0.6794305994 0.4363738667 -0.0480266636 0.0001702753 -0.0188846916
0.0370925401 0.4863952480 0.0024946317 -0.0481189623 0.0008026091 -0.0196659266
0.3591693872 0.6950796778 0.1612926818 -0.0481069092 0.0008024904 -0.0196546432
0.1513130757 0.6950796778 -0.2458298655 -0.0481160110 0.0008026220 -0.0196653054
-0.0413728135 0.6950796778 -0.2481480886 -0.0481179229 -0.0008026316 -0.0196631592
0.4378330223 0.6650890806 0.0987617055 -0.0473465506 0.0001312665 -0.0194845975
0.2046884384 1.0036207126 -0.3766784238 -0.0483810515 -0.0000016703 -0.0189044235
-0.0318734389 0.3009871584 -0.1796073507 -0.0481179462 -0.0008026324 -0.0196623389
-0.3053528929 0.0533734332 0.2816275701 -0.0482969757 -0.0007649063 -0.0195019737
0.0975774868 0.6950796778 0.0080394533 -0.0481191902 0.0008026204 -0.0196599013
0.1632005130 0.3009871584 0.3698040954 -0.0481179462 -0.0008026324 -0.0196623389
0.1670034151 0.9328343528 -0.4021047346 -0.0481148528 -0.0007826140 -0.0194842877
0.4355930101 0.3009871584 -0.1481886561 -0.0481179462 -0.0008026324 -0.0196623389
-0.0114209048 0.4863951990 0.1868530386 -0.0481216816 -0.0008025811 -0.0196639979
-0.0082961363 0.6950796289 0.2810150636 -0.0481186862 0.0008026236 -0.0196591428
-0.1595171686 0.6950796778 0.2967588374 -0.0481183065 -0.0008026324 -0.0196617449
-0.3474422533 0.2541535269 -0.3293309975 -0.0487719319 -0.0000173248 -0.0191973635
0.0280134038 1.1034511573 -0.4669215157 -0.0480841866 0.0000033654 -0.0204639608
-0.2216666080 0.4863952480 0.0596445139 -0.0481270175 -0.0008025305 -0.0196643527
-0.0079473701 0.0497632070 0.1461670602 -0.0481179462 -0.0008026324 -0.0196623389
0.2999552340 0.6110755529 -0.4041567037 -0.0487445958 0.0000084597 -0.0201491780
0.4308758783 0.0541402489 0.0047953206 -0.0477921649 -0.0007304188 -0.0196583586
-0.3293935318 0.7411304683 -0.3710410868 -0.0485761241 0.0000847845 -0.0203158518
-0.1181257822 0.3009871584 -0.0226850943 -0.0481179462 -0.0008026324 -0.0196623389
0.3188941799 0.6950796778 -0.1616524433 -0.0481163722 0.0008026132 -0.0196604848
0.3701175254 0.0497632102 -0.0763081807 -0.0481070873 -0.0008024960 -0.0196643294
0.1476343601 0.3009871335 -0.2253604608 -0.0481152333 0.0008025698 -0.0196590898
0.3756517401 0.6969573200 -0.2257421816 -0.0475583870 0.0004584974 -0.0200074026
0.0411224195 0.4863952480 0.1108189011 -0.0481195185 0.0008026075 -0.0196654194
0.3134192163 0.3009871584 0.2084030626 -0.0481079141 0.0008024920 -0.0196530275
0.3315245691 0.5812793925 0.3156865401 -0.0475460393 0.0000855799 -0.0191063257
0.2917095375 0.3858698480 -0.3424857633 -0.0485591428 -0.0000051360 -0.0189918952
-0.1805204289 0.3009871584 -0.3546472072 -0.0481179462 -0.0008026324 -0.0196623389
-0.3195308625 0.3009871584 -0.2434534924 -0.0481179462 -0.0008026324 -0.0196623389
-0.1380591271 0.9541008790 -0.3917298637 -0.0479664027 -0.0000021856 -0.0188741867
-0.3156355188 0.0039574121 -0.3803042315 -0.0474660609 -0.0000257565 -0.0201297543
0.3117194519 0.3376000366 -0.3299432110 -0.0485523573 -0.0000020515 -0.0189874615
-0.1527554407 0.6628814000 -0.4115005407 -0.0484040148 0.0001191179 -0.0204021918
-0.3558543403 0.7529475452 -0.3510862362 -0.0485855301 0.0000816301 -0.0203095704
-0.2534394786 0.0497632102 0.2015021824 -0.0481179462 -0.0008026324 -0.0196623389
-0.3677224140 0.0599681886 0.2157408005 -0.0485390737 -0.0006364843 -0.0194168826
-0.0750995965 0.0497632070 0.0306737582 -0.0481179462 -0.0008026324 -0.0196623389
0.0870279944 0.5661071701 0.4467796260 -0.0479765239 0.0000739024 -0.0188761965
0.1531402596 0.3009871584 0.2174592052 -0.0481179462 -0.0008026324 -0.0196623389
-0.2933550471 0.3137586351 -0.3402313968 -0.0476469085 -0.0000001983 -0.0190124867
0.2041261936 0.4863952480 -0.2767304544 -0.0481152541 0.0008024912 -0.0196740589
0.3146329627 0.8862655057 -0.3695913617 -0.0476428383 0.0000859186 -0.0203017472
-0.2335480929 0.5702359458 -0.3834611180 -0.0485436825 0.0000766265 -0.0203380374
-0.2449805226 0.7162463646 0.0785063324 -0.0481193989 0.0008026268 -0.0196609471
-0.4332570287 0.0963808622 -0.0913307845 -0.0488894260 -0.0001465422 -0.0198250148
-0.4551536727 0.2916936165 -0.0637002043 -0.0486153286 0.0003048173 -0.0197389188
-0.1510679606 0.3009871584 0.2247730607 -0.0481246626 0.0008024791 -0.0196508307
0.2698071370 0.7167508022 0.0485244670 -0.0481168313 0.0008026099 -0.0196601991
0.1474846868 0.2245677236 -0.4432733512 -0.0478766211 -0.0000404527 -0.0204265316
-0.1090506999 0.4863952480 0.4082307840 -0.0481233085 -0.0008021244 -0.0196375335
-0.0452304672 0.4530831612 -0.4575452569 -0.0482086091 0.0000426102 -0.0204580703
0.4122200634 0.7087516672 -0.1150273325 -0.0476712748 0.0006524406 -0.0197936680
0.2454949290 0.6071617406 0.3812655869 -0.0476964020 0.0000935893 -0.0189859975
0.2946495022 0.4524497357 -0.3393651035 -0.0485579517 -0.0000269396 -0.0189916528
-0.3019529235 0.3009871584 -0.1887264558 -0.0481179462 -0.0008026324 -0.0196623389
0.0533425150 0.6950796778 0.1301763460 -0.0481181950 -0.0008026316 -0.0196615635
0.0559252898 0.1590984120 -0.4567641791 -0.0480339314 -0.0000999968 -0.0204536799
-0.3869506391 0.6950796778 0.0221636329 -0.0481226030 -0.0008026148 -0.0196630773
-0.2950372491 0.6067749737 0.3324711307 -0.0486529753 0.0000926455 -0.0190720067
0.4447048770 0.2018433650 0.1544750329 -0.0473631113 -0.0000463954 -0.0193952108
0.2366742266 0.1622895180 -0.3983713725 -0.0477218045 -0.0000958744 -0.0203531269
0.4725538800 0.2364061112 -0.0118918730 -0.0473167850 -0.0000335605 -0.0196821270
-0.0149692705 1.0315643130 -0.4669342535 -0.0481408252 0.0000006798 -0.0204645210
-0.1372595254 0.0558639012 -0.4013323044 -0.0482585345 -0.0006888930 -0.0200463222
0.1473344878 0.4863951990 0.1928285447 -0.0481172431 -0.0008026268 -0.0196617369
-0.2303403186 0.3009871584 -0.0538011604 -0.0481179462 -0.0008026324 -0.0196623389
-0.2945951254 0.6950796778 -0.0440619921 -0.0481188491 -0.0008026308 -0.0196631728
-0.3519124078 0.0497632102 -0.0175478190 -0.0481215115 -0.0008026099 -0.0196626094
0.0567885097 0.4863952480 0.0137845838 -0.0481185554 0.0008026116 -0.0196657645
-0.3522577540 0.1914594059 -0.2911260080 -0.0487387518 -0.0000684084 -0.0201657283
0.4434286208 1.0541076829 -0.1657243798 -0.0488016228 0.0000599839 -0.0192518004
-0.4171118889 0.2549132457 0.1921670737 -0.0488486691 -0.0000292134 -0.0193328960
0.2379794112 0.6950797268 -0.0202309397 -0.0481177985 -0.0008026316 -0.0196617168
-0.1100854657 0.3009871584 0.3103650831 -0.0481241585 0.0008023684 -0.0196448262
-0.2694814111 0.3009871584 -0.0519213014 -0.0481179462 -0.0008026324 -0.0196623389
0.1555984811 0.3009871584 0.2257438711 -0.0481120861 0.0008023932 -0.0196476547
0.0954809989 0.0710921724 0.4337783918 -0.0479788468 -0.0004040628 -0.0189850030
0.4718684287 0.3195665018 0.0448202959 -0.0473191688 0.0000022987 -0.0195877109
-0.2388237942 0.7160232697 0.2639174351 -0.0481231151 0.0008025939 -0.0196575969
0.4018091118 0.3634500771 0.2470071153 -0.0474427950 0.0000399101 -0.0192306109
0.3369162508 0.0522557723 0.2554901374 -0.0479498926 -0.0007736333 -0.0195308380
-0.1714490508 0.0497632102 -0.0198169853 -0.0481179462 -0.0008026324 -0.0196623389
-0.3698091412 0.5500465370 -0.3706261764 -0.0485831021 0.0001016213 -0.0203084756
0.1614758381 1.0527814589 -0.3890189214 -0.0482969244 -0.0000003901 -0.0188799785
-0.1665801646 0.4863952480 -0.2266439423 -0.0481219553 0.0008025891 -0.0196680785
-0.2947911291 0.1966325372 -0.3508159160 -0.0486398780 -0.0000613524 -0.0202688545
-0.1105910302 0.4863952480 0.1598559626 -0.0481243231 -0.0008025586 -0.0196633398
-0.0225282266 0.4863952480 0.3318753776 -0.0481143327 -0.0008022817 -0.0196425596
-0.2567557390 0.0236743496 0.3011627339 -0.0477048850 -0.0000910225 -0.0190297441
0.2452234088 0.3009871584 0.1224126753 -0.0481047886 0.0008022399 -0.0196465993
0.2077374761 0.6950797268 0.0172990367 -0.0481178836 -0.0008026324 -0.0196619464
-0.0790146408 0.0497632102 -0.2114152370 -0.0481179462 -0.0008026324 -0.0196623389
-0.1622270820 0.0497632102 -0.2738044764 -0.0481188371 -0.0008026220 -0.0196637812
-0.1202636474 0.7167507532 -0.0613511303 -0.0481189856 0.0008026204 -0.0196619785
-0.0374615576 0.7160917070 0.3471966233 -0.0481183298 0.0008026003 -0.0196562557
-0.3594050232 0.7159481208 -0.0999303576 -0.0481246666 0.0008025819 -0.0196659178
-0.3308998152 0.6950796778 -0.1145635065 -0.0481196855 -0.0008026284 -0.0196635589
-0.1033564322 0.4863952480 0.4271235087 -0.0481211077 0.0008024414 -0.0196463496
0.3208497874 0.2016658909 -0.3259889573 -0.0477237878 -0.0000221085 -0.0189824145
0.4516482550 0.4704050604 -0.1185633561 -0.0473444918 0.0000469813 -0.0198693402
0.0402560155 0.7163249423 0.3491988934 -0.0481205603 0.0008025690 -0.0196550743
0.2141010228 0.4863952480 -0.1287260575 -0.0481085265 -0.0008024687 -0.0196585553
0.1347237062 0.1920672836 0.4456216779 -0.0478995972 -0.0000754547 -0.0188943906
0.3643913233 0.3009871584 0.2205489772 -0.0480966997 0.0008021276 -0.0196484060
0.2363955783 0.3009871833 -0.0291332843 -0.0481112049 0.0008025329 -0.0196564813
0.3438689610 0.3011485766 -0.4082304405 -0.0476757655 -0.0000222217 -0.0203317263
-0.0309835362 0.3009871584 -0.1511326628 -0.0481179462 -0.0008026324 -0.0196623389
-0.1394598940 0.6950796778 -0.3458113431 -0.0481206791 0.0008025803 -0.0196706092
-0.0942458327 0.4220301435 -0.4511001923 -0.0482960094 0.0000428903 -0.0204434254
-0.0890592203 0.3009871584 0.1505789051 -0.0481237516 0.0008024141 -0.0196491637
0.4193769344 0.6497219814 -0.1645261628 -0.0473793791 0.0001083803 -0.0199564314
0.3008867314 0.4303632844 -0.4040570119 -0.0487893899 0.0000023413 -0.0201020570
0.3353111577 0.2503005092 -0.3304477466 -0.0475509859 -0.0000224456 -0.0202298923
0.2500380026 0.3009871584 -0.0443599373 -0.0481179462 -0.0008026324 -0.0196623389
-0.3904083660 0.4308993690 -0.2346430292 -0.0488072565 0.0000501902 -0.0200698883
-0.2062947074 0.1688794657 -0.4083406170 -0.0484896717 -0.0000714190 -0.0203697815
0.4281697373 0.2402206732 0.1992972460 -0.0473930824 -0.0000337940 -0.0193206117
-0.2987165522 0.3646957883 -0.3503289669 -0.0486476820 0.0000259411 -0.0202644071
-0.2289496496 0.4863952480 0.3379759282 -0.0481267559 0.0008022785 -0.0196442251
-0.1475513615 1.0095493369 -0.4497267430 -0.0483043535 0.0000016069 -0.0204428154
-0.1585001980 0.9276361521 -0.4244813712 -0.0481178996 -0.0007824109 -0.0194833326
-0.2661201920 0.6950796778 0.0064373420 -0.0481184743 -0.0008026316 -0.0196629778
0.3357672190 0.3916305384 -0.3424727807 -0.0474459309 -0.0000045453 -0.0192235181
-0.0176688684 0.9636952364 -0.4049259017 -0.0481058746 -0.0000011534 -0.0188598638
-0.3825327561 0.6950796778 0.1263458751 -0.0481245213 -0.0008025899 -0.0196614279
0.2631343978 0.2441062192 -0.3884169470 -0.0476761034 -0.0000191741 -0.0203314012
-0.2696045686 0.4863952480 0.0563911557 -0.0481293740 -0.0008024976 -0.0196642010
-0.3480979927 0.7108760169 -0.3620488996 -0.0485807288 0.0000822963 -0.0203128997
-0.2914742450 0.7159830987 0.2554446514 -0.0481275882 0.0008025658 -0.0196592439
0.4520858719 0.3231418512 0.1434740606 -0.0473537261 0.0000091083 -0.0194175231
-0.3990183428 0.5777922717 0.1986817995 -0.0488361047 0.0000736897 -0.0193125998
-0.1891882242 0.9309515176 -0.4109335933 -0.0481154989 -0.0007815160 -0.0194795915
-0.1820979781 0.3009871584 0.2661680044 -0.0481179462 -0.0008026324 -0.0196623389
0.2699064379 0.6950796778 -0.2176852144 -0.0481181444 0.0008026300 -0.0196619777
0.3336314053 0.7561407821 -0.3687127232 -0.0476740029 0.0000826005 -0.0203258294
0.2894079216 0.4515410916 0.3653902295 -0.0476293509 0.0000566835 -0.0190290531
-0.3550029640 0.7159481698 -0.0520154517 -0.0481262566 0.0008025786 -0.0196631945
-0.3810191005 0.4152766466 -0.3742353030 -0.0488795055 0.0000109134 -0.0194669123
-0.3406035401 0.6361731985 0.2786890509 -0.0487408266 0.0001066747 -0.0191685602
-0.4086296261 0.6030842563 -0.1713715747 -0.0488534488 0.0000899326 -0.0199705867
-0.1468200935 0.2277867291 0.4391951317 -0.0483840790 -0.0000277005 -0.0189062985
-0.1687078950 0.0497632102 -0.1455004820 -0.0481179462 -0.0008026324 -0.0196623389
-0.3656331651 0.1646388977 -0.2698834621 -0.0487627096 -0.0000839834 -0.0201327320
-0.4084129491 0.4863952480 -0.0470380616 -0.0481305708 -0.0008025136 -0.0196644787
0.1508534997 0.6950796778 0.1665577892 -0.0481178619 -0.0008026316 -0.0196617112
-0.0821851616 0.9599216295 -0.4004307877 -0.0480333720 0.0000000000 -0.0188644171
0.0013184690 0.3009871335 -0.4411353326 -0.0481403532 0.0007966970 -0.0197117899
-0.3701001099 0.3009871584 -0.1379486387 -0.0481179462 -0.0008026324 -0.0196623389
-0.0201397932 0.9285622358 -0.4214783581 -0.0481161306 -0.0007799243 -0.0194728237
-0.3491978407 0.6840668009 -0.2530496139 -0.0487450244 0.0002349233 -0.0201042795
0.2482256378 0.6950796778 0.0178927744 -0.0481176355 -0.0008026316 -0.0196614993
0.1663996533 0.7167507532 0.1803717353 -0.0481198548 0.0008026124 -0.0196586034
0.1069790615 0.7163619782 -0.2756285493 -0.0481195795 0.0008026204 -0.0196651569
-0.2018643939 0.3009871584 -0.0121488414 -0.0481295498 0.0008024366 -0.0196553439
-0.1517187888 0.3009871584 0.0721496811 -0.0481179462 -0.0008026324 -0.0196623389
-0.3710043210 0.1121833004 -0.3713762188 -0.0488151079 -0.0001064074 -0.0199968552
-0.3774862240 1.0168255441 -0.2566815449 -0.0475159847 0.0000006204 -0.0191317082
-0.0991962302 0.3009871584 -0.0943153474 -0.0481179462 -0.0008026324 -0.0196623389
-0.0992344476 0.6950796778 0.0014052436 -0.0481175344 0.0008026260 -0.0196641544
-0.4501485853 0.5081811039 -0.0168734585 -0.0489178721 0.0000477663 -0.0196934321
-0.0904938576 0.7159944151 -0.3798903741 -0.0481189984 0.0008025473 -0.0196727627
-0.0667527634 0.7167131788 -0.1185821987 -0.0481205852 0.0008026220 -0.0196618557
0.3070637039 0.5246779339 -0.3443370253 -0.0475904914 0.0000594117 -0.0202640507
-0.3015008793 0.6283124566 -0.3728418416 -0.0474641322 0.0000019247 -0.0201278601
-0.1563798767 0.7167507532 -0.0327441831 -0.0481185473 0.0008026180 -0.0196643487
0.3112011015 0.9632018213 -0.3185220607 -0.0486053286 -0.0000047106 -0.0190250054
-0.3009971279 0.2175880947 -0.3336128384 -0.0476542269 -0.0000038615 -0.0190073395
-0.2032747443 0.2381133706 0.4157492410 -0.0484812104 -0.0000274211 -0.0189471878
0.1677779530 0.7165026740 0.0468224986 -0.0481171435 0.0008026268 -0.0196608749
-0.2993422371 0.4863952480 0.1337088541 -0.0481190281 0.0008025674 -0.0196567068
-0.4399040243 0.1505558563 0.1014868665 -0.0488928838 -0.0001109696 -0.0194869131
0.3409440609 0.7160332143 -0.1670328946 -0.0481090450 0.0008025313 -0.0196690617
-0.2556923386 0.4863952480 0.0660762466 -0.0481256233 0.0008025706 -0.0196635870
0.2051964518 0.6950796778 0.3651581451 -0.0481169862 -0.0008026292 -0.0196604358
-0.0748207218 0.7166746244 -0.2046359956 -0.0481150350 0.0008026164 -0.0196652051
-0.0222159167 0.7167508022 0.2709743688 -0.0481147284 0.0008026091 -0.0196603516
0.4354706359 0.5779500644 0.1468028125 -0.0473623143 0.0000793627 -0.0194052092
-0.2837814121 0.4412285098 -0.3579134372 -0.0486241921 0.0000444690 -0.0202827962
0.3262049004 0.3009871584 -0.1720719799 -0.0480965753 0.0008018097 -0.0196832932
0.4280840073 0.2319777201 -0.1988505658 -0.0473950111 -0.0000317834 -0.0200078834
-0.2651766679 0.7165958508 0.1386505865 -0.0481202425 0.0008026075 -0.0196613653
0.3821210538 0.3603082295 -0.2756795469 -0.0474748153 0.0000365719 -0.0201409269
-0.3880349329 0.4730370326 -0.2342286084 -0.0488080455 0.0000417080 -0.0200693016
0.2117165664 0.2604479509 -0.4184369383 -0.0477635157 -0.0000162019 -0.0203818314
-0.2639322545 0.2228930175 -0.3771249073 -0.0485845934 -0.0000339915 -0.0203142361
-0.1551991370 0.3009871584 0.0969038787 -0.0481263746 0.0008024534 -0.0196518806
-0.0499050867 0.6950796778 -0.2394129950 -0.0481179092 0.0008026116 -0.0196669556
0.2253527447 0.4863952480 -0.2158958747 -0.0481164027 0.0008025778 -0.0196665599
-0.1587182957 1.0553835474 -0.3873028684 -0.0479358128 0.0000005755 -0.0188808671
0.4393465800 0.0739596642 0.1025940378 -0.0474231811 -0.0003616453 -0.0194936898
-0.4466142641 0.1879180793 -0.0877186512 -0.0489016164 -0.0000734979 -0.0198167967
-0.1711350329 0.1989465594 0.4282195836 -0.0484285553 -0.0000529103 -0.0189242622
0.0269715524 0.4863952480 0.1878778598 -0.0481201349 0.0008026091 -0.0196643567
0.1999821093 0.3009871584 0.0664897910 -0.0481105611 0.0008024318 -0.0196509511
0.2162040626 0.6950796778 0.2405898524 -0.0481174702 -0.0008026316 -0.0196613252
-0.4394033341 0.6104713256 -0.0414300970 -0.0489112247 0.0000940838 -0.0197362637
0.1416474270 0.3009871584 0.2469384573 -0.0481142412 0.0008025128 -0.0196513821
0.2804161509 0.7163481143 -0.0077639585 -0.0481159693 0.0008026228 -0.0196604358
0.4579539456 1.0222479185 -0.1380280616 -0.0488311083 0.0000008989 -0.0192943359
0.0189404461 0.6950796778 -0.2809902262 -0.0481177632 -0.0008026316 -0.0196633743
-0.1304567397 1.0617672772 -0.4533947788 -0.0482789558 0.0000026134 -0.0204485543
-0.3289551316 0.0041323458 -0.3493560247 -0.0481220259 -0.0008024013 -0.0196445766
-0.2505246090 0.0497632102 -0.2994923876 -0.0481235269 -0.0008025794 -0.0196688860
-0.3513904318 0.0714508993 -0.2581287963 -0.0486929087 -0.0003791106 -0.0200741993
0.1087775994 0.2344691192 0.4548136411 -0.0479411559 -0.0000295313 -0.0188805035
0.0619604892 0.7142850986 0.4050711043 -0.0480889149 0.0007689724 -0.0194402152
-0.0706914132 0.4863952480 -0.2873782917 -0.0481202441 0.0008025819 -0.0196698130
0.1607313067 0.7159763382 -0.3443845195 -0.0481126889 0.0008025811 -0.0196690858
0.3068500391 0.2359136513 -0.3557918052 -0.0476002699 -0.0000249892 -0.0202749625
0.2274442972 0.6950796778 -0.1407311775 -0.0481179662 -0.0008026324 -0.0196622265
-0.3445766292 0.3009871584 0.2236150636 -0.0481179462 -0.0008026324 -0.0196623389
-0.2651460988 0.6950796778 -0.2695111225 -0.0481226496 0.0008025899 -0.0196681756
0.4446535856 0.4897088501 -0.1391557594 -0.0477837308 -0.0005217135 -0.0197704952
0.1386523993 0.9395352363 -0.4534309326 -0.0479533295 0.0000000000 -0.0204475052
-0.1696733293 1.0290321803 -0.4441096877 -0.0483354026 0.0000019841 -0.0204348300
-0.0408126250 0.4863952480 0.4264844986 -0.0481196895 -0.0008021412 -0.0196368922
-0.2652975226 0.4939783217 0.3692542448 -0.0484728469 -0.0001831551 -0.0191798934
-0.2815368674 0.6166935882 -0.3366683437 -0.0476325943 -0.0000349964 -0.0190306230
-0.1866267224 1.0369349553 -0.4387783351 -0.0483678104 0.0000021551 -0.0204245901
-0.0129373712 0.4863952480 -0.1030810968 -0.0481199503 0.0008025859 -0.0196685480
0.0988661982 0.7165174689 0.2422496906 -0.0481202168 0.0008026188 -0.0196594919
0.1551770060 0.3543611855 -0.4415107342 -0.0478595282 0.0000332731 -0.0204211757
0.3216688802 0.2909452147 -0.4220968177 -0.0476843344 -0.0000272309 -0.0203371047
0.1882328565 0.6950796778 0.0578639116 -0.0481177383 0.0008026212 -0.0196596436
-0.3544353062 0.3009871584 -0.0254894952 -0.0481430549 0.0008021308 -0.0196589004
0.1290810662 0.7162232415 0.3224581388 -0.0481192039 0.0008026043 -0.0196572903
0.0598297458 0.4863952480 0.1965381480 -0.0481192753 0.0008026164 -0.0196640902
-0.2266551370 1.0347795461 -0.3662501297 -0.0478011463 -0.0000003660 -0.0189251964
0.2720532733 0.4863952480 0.2011609023 -0.0481121287 0.0008025730 -0.0196564740
-0.4295601872 0.3704920200 -0.1584334378 -0.0488687927 0.0000373962 -0.0199418075
0.3141305332 0.6950796778 0.0226016968 -0.0481143528 0.0008025947 -0.0196586460
-0.0113790443 0.9286172017 -0.4212549695 -0.0481167406 -0.0007797044 -0.0194719312
-0.4152371121 0.1389511086 -0.1739765544 -0.0488533268 -0.0001091203 -0.0199648510
0.1745272858 0.9338819294 -0.3980805748 -0.0481147404 -0.0007821597 -0.0194823181
0.2072698046 0.7129213482 -0.3602256342 -0.0479766275 0.0007478134 -0.0199148615
0.0400847875 0.7167507532 -0.1642892530 -0.0481160367 0.0008026188 -0.0196629537
0.2993404248 0.3113037092 -0.3376297978 -0.0485542772 0.0000055189 -0.0189888251
-0.1083101848 0.0497632102 -0.0876878799 -0.0481179462 -0.0008026324 -0.0196623389
0.3121463408 0.3218451174 0.3538106499 -0.0475917428 0.0000068874 -0.0190565569
0.2202363057 0.4863952480 -0.0551649661 -0.0481130670 0.0008025843 -0.0196591107
-0.1195010688 1.0787387599 -0.3950893676 -0.0479778627 0.0000014953 -0.0188722356
-0.0508480682 0.3009871584 0.2613114763 -0.0481179462 -0.0008026324 -0.0196623389
0.3460211123 0.1692517563 -0.3647166090 -0.0474485636 -0.0000402223 -0.0192224859
0.4152588875 0.5151540220 0.2072821014 -0.0474038963 0.0000567397 -0.0193002899
-0.3228349614 0.6950796778 0.0208711739 -0.0481189495 -0.0008026308 -0.0196629047
-0.3474247157 0.6192592781 -0.3268891754 -0.0487723524 -0.0000033678 -0.0191976677
0.0102862875 0.6950796778 0.3435934482 -0.0481184117 0.0008026156 -0.0196577197
-0.3647380172 0.5940649779 0.2547280925 -0.0487755654 0.0000828774 -0.0192108806
-0.2300428221 0.6803751027 0.3690568446 -0.0485376587 0.0001993113 -0.0190087946
-0.3900484704 0.0583878961 0.1668020471 -0.0485417056 -0.0006570485 -0.0194847990
0.1531151902 0.0964276404 0.4264714678 -0.0478611600 -0.0001357147 -0.0189145142
0.3659391727 0.6671881522 0.2587114689 -0.0474731482 0.0001123525 -0.0191979309
-0.2617932078 0.3009871584 0.2211588631 -0.0481179462 -0.0008026324 -0.0196623389
-0.0761658254 0.3009871584 -0.2143542337 -0.0481179462 -0.0008026324 -0.0196623389
-0.2623686054 0.0497632070 -0.2074642901 -0.0481183146 -0.0008026292 -0.0196626583
0.3278478376 0.0497632102 0.1863133045 -0.0481138295 -0.0008026027 -0.0196597961
-0.3156274603 0.6950796778 -0.2519545673 -0.0481191365 -0.0008026308 -0.0196634072
-0.3539820862 0.8723858047 -0.3363682378 -0.0488843911 0.0000232426 -0.0194724730
-0.0322981261 0.0497632102 0.1985702520 -0.0481179462 -0.0008026324 -0.0196623389
0.3209464428 0.6973504558 -0.3200608724 -0.0474510726 0.0000060045 -0.0192157365
-0.4399366994 0.6007672821 0.0460657383 -0.0489111806 0.0000878024 -0.0195817153
0.3798212751 1.0234531401 -0.2547126362 -0.0487193081 0.0000013155 -0.0191310131
0.2698187719 0.6950796289 -0.1938080388 -0.0481179590 -0.0008026324 -0.0196621992
0.3285644454 0.7799141622 -0.3317806582 -0.0474452728 -0.0000012401 -0.0192244756
-0.4449686324 0.4367877244 -0.0928692599 -0.0489017079 0.0000443342 -0.0198262228
0.3138955345 0.3009871584 -0.2633902669 -0.0480929345 0.0008015890 -0.0196899318
-0.0372221894 0.6950796778 -0.0521958715 -0.0481177993 -0.0008026324 -0.0196627233
-0.0783924184 0.3009871584 0.1410854402 -0.0481243825 0.0008023555 -0.0196470134
0.2666898330 0.7040830345 0.3384375494 -0.0477761267 0.0005766737 -0.0192223759
-0.0659366420 1.1125090873 -0.4530886965 -0.0481192320 0.0007884788 -0.0195122900
0.4648710656 0.4010075573 -0.0764117492 -0.0473284328 0.0000366081 -0.0198011630
0.1333510522 0.3009871584 0.2789419556 -0.0481179462 -0.0008026324 -0.0196623389
-0.2196062618 0.3009871584 0.2625257861 -0.0481282287 0.0008024061 -0.0196481764
-0.3200112958 0.2043538451 0.3294758085 -0.0486838060 -0.0000416406 -0.0190947951
-0.3279016765 0.4863952480 -0.1148419709 -0.0481285176 -0.0008025184 -0.0196670969
0.0870267086 0.4863952480 0.1547785436 -0.0481184871 -0.0008025995 -0.0196648078
0.0162318369 0.3009871584 -0.3498063304 -0.0481179462 -0.0008026324 -0.0196623389
0.4530663332 0.3898374014 -0.1292191908 -0.0473480852 0.0000347997 -0.0198845420
-0.0621854342 0.4863952480 0.0366074038 -0.0481228278 -0.0008025498 -0.0196674115
0.2345427487 0.0497632102 -0.2571164922 -0.0481135285 -0.0008025554 -0.0196670230
0.4368700496 0.2606825090 0.1823167745 -0.0473802451 -0.0000219448 -0.0193475938
0.1425157661 0.3009871584 -0.0383395865 -0.0481137604 0.0008024583 -0.0196530099
-0.0790782558 0.4863952480 0.1965194587 -0.0481213838 0.0008026099 -0.0196630163
-0.4388933367 0.1216027433 -0.0864420154 -0.0488963744 -0.0001176202 -0.0198146023
0.3889455852 0.2873425052 0.2687781771 -0.0475318880 0.0000832667 -0.0192453264
0.4672685768 0.4166502428 -0.0543161093 -0.0473232767 0.0000408676 -0.0197618492
0.3526877042 0.7162418578 -0.0456841548 -0.0481101036 0.0008025578 -0.0196630805
-0.0475746234 1.1074943988 -0.4251678266 -0.0481218277 0.0007891113 -0.0195157421
-0.0573719208 0.6950796778 -0.0306815357 -0.0481171443 0.0008026220 -0.0196647676
0.3001156963 0.3009871584 -0.2266509726 -0.0480953641 0.0008015023 -0.0196907408
-0.1422692424 0.6950796778 0.3732581727 -0.0481182744 -0.0008026316 -0.0196615844
0.2672021822 0.0674211235 0.2844471207 -0.0486672822 0.0003679564 -0.0194142629
-0.0929116842 0.7167507532 -0.2062009065 -0.0481174766 0.0008026132 -0.0196639722
-0.3700487695 0.7157329134 0.1330639173 -0.0481607995 0.0007994845 -0.0196421679
-0.1002603338 0.4310386442 0.4499337202 -0.0483030123 0.0000446312 -0.0188826569
0.4244600120 0.6142364574 0.1649384277 -0.0473765923 0.0000924681 -0.0193699800
0.0604091733 0.6108598559 -0.4451721563 -0.0480221151 0.0000938952 -0.0204529952
0.0954321450 0.0497632102 0.1448576513 -0.0481179462 -0.0008026324 -0.0196623389
-0.2673058189 0.3947922022 -0.3737015701 -0.0485926856 0.0000359756 -0.0203083593
0.2751911287 0.5927030897 0.3631256487 -0.0476424499 0.0000919480 -0.0190225301
-0.1120019560 0.9297657927 -0.4173796129 -0.0481162574 -0.0007818386 -0.0194808725
-0.4575269348 0.3571627082 -0.0230498153 -0.0489182766 0.0000341809 -0.0197027121
-0.3206991718 0.3009871584 0.0805389637 -0.0481388676 0.0008022151 -0.0196529071
0.0773337607 0.0497632102 0.3768348448 -0.0481151883 -0.0008023981 -0.0196460575
-0.2299163208 0.4426830844 -0.3956904847 -0.0485283466 0.0000502014 -0.0203499388
0.1244409454 0.3009871584 -0.3283107321 -0.0481179462 -0.0008026324 -0.0196623389
0.4431815697 0.4863952480 -0.1251874494 -0.0480033278 -0.0007922801 -0.0197017883
-0.3305698755 0.9404429984 -0.3547588277 -0.0486334585 0.0000642331 -0.0202731397
0.3935047268 0.2367636808 0.2603395871 -0.0474528047 -0.0000266522 -0.0192149203
-0.0381564246 0.3277804285 -0.4642487361 -0.0481988355 0.0000204455 -0.0204601531
0.0459163527 0.0949519204 0.4489658001 -0.0480496373 -0.0001559009 -0.0188783693
0.1647712903 0.6950796778 -0.0581295042 -0.0481185489 0.0008026268 -0.0196609102
0.0134183615 0.7161879699 -0.3651605209 -0.0481226054 0.0008025217 -0.0196731696
0.3069927680 0.3009871584 -0.0697626836 -0.0481082335 0.0008024406 -0.0196682800
-0.2505207636 0.0497632102 0.1673486887 -0.0481179462 -0.0008026324 -0.0196623389
-0.1073343283 0.5922736532 -0.4357648380 -0.0483198829 0.0000827915 -0.0204340226
-0.4445051251 0.1058408436 0.0155234837 -0.0489096435 -0.0001251079 -0.0196355663
-0.3240649716 1.0805164647 -0.3079553246 -0.0476320229 0.0001043181 -0.0190395395
0.1556357859 0.6950796778 -0.1298198665 -0.0481176492 -0.0008026324 -0.0196626639
0.1636329617 0.0497632102 -0.1786575075 -0.0481179462 -0.0008026324 -0.0196623389
-0.4386381293 0.6293541547 -0.0180709154 -0.0489129921 0.0001011622 -0.0196938053
0.1227784617 0.7165580316 -0.0407348833 -0.0481168875 0.0008026284 -0.0196619167
-0.2930872986 1.0313711017 -0.3846297211 -0.0485798290 0.0000005185 -0.0203183890
-0.2068549922 0.6950797268 0.1858843833 -0.0481180208 0.0008026292 -0.0196630404
-0.1454401461 0.6950796778 0.2019187590 -0.0481179181 0.0008026324 -0.0196623381
-0.3007501017 0.1733020891 -0.3660186818 -0.0474613479 -0.0000193507 -0.0201234520
-0.2711169512 0.0497632102 -0.2133696325 -0.0481188981 -0.0008026244 -0.0196631640
-0.1955606625 0.3009871584 0.1357736830 -0.0481179462 -0.0008026324 -0.0196623389
-0.2968789092 0.4078558973 -0.3493646474 -0.0486432097 0.0000384292 -0.0202677525
0.2410975234 0.4434522575 0.3985932667 -0.0477159204 0.0000505819 -0.0189699970
0.0709225609 0.4863952480 -0.1787060675 -0.0481176684 -0.0008026051 -0.0196668336
-0.1598352526 0.3009871584 0.2397048699 -0.0481251490 0.0008024647 -0.0196501116
-0.0590629629 0.0497632102 -0.2586412683 -0.0481179462 -0.0008026324 -0.0196623389
-0.4192233306 1.0733457788 -0.2448083512 -0.0485510940 0.0006571826 -0.0197881178
-0.0712104547 0.4054618880 0.4571776448 -0.0482541593 0.0000355879 -0.0188724659
-0.0868137060 0.7162206948 -0.3138542122 -0.0481205178 0.0008026220 -0.0196639650
-0.3055732933 0.0497632102 -0.1385836317 -0.0481250767 -0.0008025217 -0.0196658552
0.4603147155 0.2062901027 0.1002139292 -0.0473358130 -0.0000424898 -0.0194886147
0.3066199637 0.3009871584 -0.2510634117 -0.0481179462 -0.0008026324 -0.0196623389
0.0020745287 0.9352787955 -0.4672893726 -0.0481293307 0.0000000674 -0.0204646992
0.1144080530 0.7167507532 -0.2442504181 -0.0481208934 0.0008026099 -0.0196654547
-0.4376781199 0.3563192186 -0.1372846691 -0.0488829616 0.0000339642 -0.0199015538
0.2274871378 0.0497632102 -0.1742422939 -0.0481179462 -0.0008026324 -0.0196623389
0.1941780632 1.0713546781 -0.3799171219 -0.0483472944 -0.0000003981 -0.0188932774
0.4594726474 0.3834735368 0.1094828175 -0.0473385483 0.0000351280 -0.0194742909
-0.4332186460 0.4518896957 0.1375170721 -0.0488826317 0.0000477622 -0.0194244154
-0.2991436370 0.2434298553 -0.3662612502 -0.0474603069 -0.0000159451 -0.0201221429
-0.4392258231 0.0968208179 -0.0581401287 -0.0488979476 -0.0001549771 -0.0197667975
0.1633524521 0.3009871584 -0.3469065607 -0.0481140004 0.0008025257 -0.0196689462
-0.0691535133 1.0067703000 -0.4018171466 -0.0480442204 0.0000000000 -0.0188632324
0.2737247224 0.0497632070 -0.1226527811 -0.0481179462 -0.0008026324 -0.0196623389
-0.2779458907 0.0497632102 -0.0491605043 -0.0481179462 -0.0008026324 -0.0196623389
0.0527478037 0.0497632102 -0.0297339728 -0.0481179462 -0.0008026324 -0.0196623389
-0.1726911133 0.6274209583 0.4089826636 -0.0484370014 0.0001057131 -0.0189340262
-0.3688537124 0.3671441992 -0.3886137597 -0.0485850726 0.0000212625 -0.0203145692
-0.2152075327 0.7163780469 0.2600981457 -0.0481204014 0.0008025891 -0.0196571266
-0.1623667489 0.6641811709 0.4082112375 -0.0484220732 0.0001221318 -0.0189297715
0.3199876093 0.3326986100 0.3465393652 -0.0475813390 0.0000225122 -0.0190666708
-0.4510611736 0.4539486951 -0.0470445437 -0.0489145436 0.0000425508 -0.0197458921
-0.0814964926 0.9955000357 -0.4005040504 -0.0480314890 0.0000000000 -0.0188645608
-0.3450904728 1.0101240731 -0.3407168024 -0.0486790617 0.0000008436 -0.0202359185
-0.2415069960 0.4863952480 -0.2150892371 -0.0481245727 0.0008025658 -0.0196689726
0.4417629523 0.3287384048 -0.1696045859 -0.0473718110 0.0000155839 -0.0199561930
-0.1395633405 0.7167507532 0.1517683044 -0.0481181468 0.0008026148 -0.0196609303
-0.2250826573 0.6950796778 -0.1379684059 -0.0481184759 -0.0008026308 -0.0196633012
-0.3597876501 0.1660391446 -0.3845287307 -0.0485821486 -0.0000593033 -0.0203143581
0.4061700457 0.4863952480 0.1065434893 -0.0481002072 -0.0008023635 -0.0196558464
0.1740853091 0.9994792978 -0.3855153899 -0.0483230822 -0.0000008283 -0.0188865320
-0.2389385385 0.7065758294 0.3447510296 -0.0484231190 0.0006026084 -0.0192320709
-0.3622024059 0.9645325529 -0.2747753847 -0.0477240655 -0.0004833252 -0.0191711222
0.0524717760 0.1778209498 -0.4594658623 -0.0480391774 -0.0000808419 -0.0204563936
0.2916365686 0.6355702940 -0.3431728552 -0.0476096864 0.0001098860 -0.0202732248
-0.2369769041 0.6950797268 -0.2043046842 -0.0481185867 -0.0008026308 -0.0196632948
0.1809114570 0.3009871584 0.2319875182 -0.0481179462 -0.0008026324 -0.0196623389
-0.4436892901 0.5646046839 0.0477399669 -0.0489118411 0.0000763721 -0.0195775359
0.1170308029 0.0497632102 -0.1166507970 -0.0481179462 -0.0008026324 -0.0196623389
0.2279666890 0.4553230755 0.4049955637 -0.0477368442 0.0000529858 -0.0189584335
-0.0740159528 0.4863952480 0.0033633866 -0.0481239723 -0.0008025201 -0.0196690368
-0.3585402975 0.9601749997 -0.3272669279 -0.0487088064 -0.0000020050 -0.0202050894
-0.3754530180 0.3009871584 -0.1888841875 -0.0481543319 0.0008014245 -0.0196762686
0.2435859336 0.6950796778 0.2482244133 -0.0481145863 0.0008025923 -0.0196563673
-0.3556599772 0.6950796778 -0.1902011781 -0.0481193748 -0.0008026308 -0.0196632226
0.1481812225 0.2627666886 0.4449523924 -0.0478748529 -0.0000202159 -0.0188979286
-0.0864499514 0.7167507532 0.2143244608 -0.0481154757 0.0008026132 -0.0196596774
-0.3227551830 0.2251230859 -0.3990596892 -0.0474652358 -0.0000168753 -0.0201291050
0.0855968607 0.3867728095 0.4582697522 -0.0479799552 0.0000375793 -0.0188727765
0.3293265393 0.3592116642 -0.3360696513 -0.0475611962 0.0000299711 -0.0202390134
-0.2059312353 0.5993898148 0.3963737320 -0.0484973328 0.0000941103 -0.0189618454
0.2080900733 0.1638521622 -0.4136523734 -0.0477697016 -0.0000953688 -0.0203787894
-0.1226872394 1.0484332130 -0.3945229347 -0.0479764461 0.0000005474 -0.0188724523
-0.0520678512 0.6950796778 0.0402946009 -0.0481168763 0.0008026252 -0.0196639401
-0.2063427168 0.4863952480 0.0080117745 -0.0481246714 -0.0008025698 -0.0196651898
0.1921069152 0.3009871584 -0.0236421027 -0.0481112602 0.0008024583 -0.0196531086
0.0024052887 1.0863122317 -0.4672962800 -0.0481162446 0.0000023718 -0.0204647169
-0.1421842099 0.3009871584 -0.3245878292 -0.0481425396 0.0008016532 -0.0196736407
0.2288181391 0.0497632102 -0.0695310222 -0.0481179462 -0.0008026324 -0.0196623389
0.0508261628 0.3009871584 0.0121207709 -0.0481183298 0.0008024871 -0.0196527956
-0.1069866793 1.0155617312 -0.3973141202 -0.0479975978 0.0000001437 -0.0188689464
0.0801684979 0.4863952480 0.0261626253 -0.0481182841 -0.0008025642 -0.0196680496
-0.3033038140 0.0606683546 -0.3648378314 -0.0474613639 -0.0000257364 -0.0201230900
0.3053499288 0.7121557998 -0.2869915008 -0.0478883796 0.0007368583 -0.0198806758
-0.3521020923 0.1053833126 -0.2736207434 -0.0487452066 -0.0001332041 -0.0201440476
0.1332157453 0.3009871584 -0.0030190324 -0.0481179462 -0.0008026324 -0.0196623389
0.2321724748 0.0497632102 -0.1498223839 -0.0481179462 -0.0008026324 -0.0196623389
0.2998426576 0.4863952480 0.0151192034 -0.0481073683 -0.0008024871 -0.0196574789
-0.2568576356 0.5605668312 -0.3686679716 -0.0485855614 0.0000657075 -0.0203110794
-0.1152246593 0.3009871584 -0.3400100653 -0.0481380617 0.0008018739 -0.0196720989
0.3010853316 0.2471833032 -0.3358375918 -0.0485568593 -0.0000018541 -0.0189904111
-0.3345821315 0.3009871335 -0.0663424028 -0.0481179462 -0.0008026324 -0.0196623389
-0.2927304153 0.4863952480 0.2681973658 -0.0481412289 -0.0008009292 -0.0196257204
-0.1276285921 0.7167507532 -0.2398549718 -0.0481212835 0.0008026091 -0.0196623044
-0.2889797108 1.0934359862 -0.3471884420 -0.0481177238 0.0007882139 -0.0195110074
-0.2619924942 1.0020389625 -0.3490283147 -0.0477410276 -0.0000009961 -0.0189540222
-0.1677803047 0.3009871584 -0.1319717361 -0.0481305202 0.0008023868 -0.0196580592
0.0776929837 0.0497632102 0.2761455280 -0.0481179462 -0.0008026324 -0.0196623389
0.4468423072 0.6769291328 0.0117031075 -0.0473335078 0.0001652845 -0.0196408235
0.3065104983 0.6950796778 -0.0751345683 -0.0481155961 0.0008026019 -0.0196592664
0.1652067273 0.3009871584 -0.1165907240 -0.0481137572 0.0008025273 -0.0196563601
-0.2943381787 0.5755062590 0.3376818975 -0.0486481491 0.0000696661 -0.0190647526
0.2255619517 0.7163161735 -0.2746906588 -0.0481159861 0.0008025473 -0.0196715964
-0.3376317815 0.4019938730 0.3102113325 -0.0487111212 0.0000433542 -0.0191241955
0.2960911199 0.0369326558 -0.3402973354 -0.0485511397 -0.0000540140 -0.0189906977
-0.3714338056 0.7159481208 -0.0428407933 -0.0481270344 0.0008025682 -0.0196647227
-0.0624176285 0.4863952480 0.1892289951 -0.0481236681 -0.0008025578 -0.0196636809
0.0742007926 0.6950796778 0.3664677868 -0.0481178282 -0.0008026316 -0.0196613187
-0.1612412190 0.4863952480 0.1853945440 -0.0481172366 0.0008025835 -0.0196578441
-0.1057749900 0.6950796778 0.1934496249 -0.0481184037 -0.0008026316 -0.0196616695
0.3365359266 0.5787775343 -0.3914396784 -0.0476818045 0.0001075463 -0.0203274627
0.0932888484 0.7165186440 -0.1253273490 -0.0481165094 0.0008026276 -0.0196626575
0.3574565672 0.3009871833 0.1345890971 -0.0481179462 -0.0008026324 -0.0196623389
0.2945826325 0.1921228121 0.3634408914 -0.0476232597 -0.0000620868 -0.0190342060
0.2715445737 0.3054107490 0.3851821193 -0.0476574350 0.0000026928 -0.0190055054
0.3415859855 0.3009871584 0.2688883279 -0.0481179462 -0.0008026324 -0.0196623389
0.0350001119 0.6758109639 0.4393272546 -0.0480659043 0.0001530965 -0.0188766243
0.2629745969 0.3009871584 0.2429013399 -0.0481043375 0.0008022544 -0.0196448014
-0.3615660412 0.4261324652 -0.2784358035 -0.0487574339 0.0000498411 -0.0201439344
0.1993803060 0.0497632102 0.0419078631 -0.0481179462 -0.0008026324 -0.0196623389
0.0901891807 0.0497632134 0.2345027499 -0.0481179462 -0.0008026324 -0.0196623389
0.1407204491 0.2897750192 0.4475142618 -0.0479325967 0.0002114543 -0.0190945230
0.3902780313 0.4863952480 0.1728216434 -0.0481057983 0.0008025016 -0.0196561113
-0.3392499800 0.4863952480 0.0728294867 -0.0481210363 -0.0008025241 -0.0196570704
0.0498595775 0.0497632102 -0.3176956198 -0.0481179462 -0.0008026324 -0.0196623389
0.3372258847 0.1799549511 -0.3232365221 -0.0475465762 -0.0000670102 -0.0202214912
-0.0536952230 0.0875238656 0.4452253091 -0.0482253039 -0.0001822979 -0.0188886975
0.3659069382 0.6950796778 0.2076463079 -0.0481068193 0.0008025016 -0.0196547612
0.2575426455 0.0274494020 0.2763150295 -0.0488639320 -0.0000489100 -0.0195580970
0.3790056111 1.0369024262 -0.2556224072 -0.0487165045 0.0000018910 -0.0191278266
-0.0878440902 0.2206283877 0.4551309417 -0.0482821431 -0.0000396637 -0.0188782328
-0.1744831723 0.3009871584 -0.1916396238 -0.0481179462 -0.0008026324 -0.0196623389
-0.2387961772 0.4863952480 -0.3784468943 -0.0481220621 0.0008025939 -0.0196684878
-0.2438475339 0.6950796778 -0.2974776991 -0.0481235365 0.0008025666 -0.0196701011
-0.0794212447 0.7166292122 -0.0250393356 -0.0481183603 0.0008026284 -0.0196632290
0.3252916507 0.3880436038 -0.3379009262 -0.0475690026 0.0000435276 -0.0202455629
-0.1203486061 0.1083557198 0.4344370456 -0.0483431736 -0.0001263215 -0.0189030326
0.3256122823 0.7160824478 -0.1863773088 -0.0481108557 0.0008025827 -0.0196652115
-0.1005156392 0.2659501519 -0.4533596050 -0.0483045413 -0.0000189213 -0.0204426501
-0.2069544760 1.0024143143 -0.4316196509 -0.0484178153 0.0000011991 -0.0204065324
0.1973727208 0.9682516843 -0.3793811352 -0.0483689373 -0.0000023477 -0.0189001535
-0.3986145529 0.1077290797 -0.1990967347 -0.0488270446 -0.0001321221 -0.0200133902
0.4728827418 0.3141573548 0.0343993628 -0.0473175418 0.0000000000 -0.0196043190
0.0805097291 0.6871859662 0.4310974310 -0.0479909368 0.0002693514 -0.0189179551
-0.1953184987 0.4863952480 -0.2717961071 -0.0481237588 -0.0008025417 -0.0196708990
0.4291362376 0.6502233321 -0.1376616992 -0.0473617693 0.0001049931 -0.0199099293
-0.0503795709 0.0557955924 -0.4223298083 -0.0481714914 -0.0006952691 -0.0200572605
-0.3934473860 0.4863952480 -0.2113864562 -0.0481291766 -0.0008025176 -0.0196685440
0.3536843561 0.2234190595 -0.3742890930 -0.0474466966 -0.0000246191 -0.0192233752
0.2122997295 0.0497632102 0.0229759868 -0.0481179462 -0.0008026324 -0.0196623389
0.0813267150 0.0497632102 -0.1973197643 -0.0481179462 -0.0008026324 -0.0196623389
0.4294621601 0.4951298520 -0.1790893678 -0.0474732381 -0.0000845654 -0.0199387823
0.0261313399 0.7167214580 0.2518581575 -0.0481226167 0.0008026124 -0.0196602095
-0.4440478397 0.1637106951 -0.0893581957 -0.0488988473 -0.0000939545 -0.0198187824
-0.2710530208 0.5895405686 0.3551017251 -0.0486082422 0.0000820499 -0.0190328768
0.0536461781 0.3306021100 0.4647153545 -0.0480348215 0.0000208147 -0.0188648256
-0.4536859437 0.4202228978 0.0413867019 -0.0489161729 0.0000407248 -0.0195919568
-0.3363111662 0.6950796778 0.1910756525 -0.0481214513 -0.0008026148 -0.0196622971
-0.0585945611 0.7167507532 0.0121095646 -0.0481182255 0.0008026268 -0.0196617979
