0.3846153846 0.4665817308 0.3447917500 -0.4615384615 0.3076923077 0.3522655192
0.3760419231 1.0384615385 0.3684120962 -0.5004076923 0.2692428846 0.3520616731
-0.4486116154 1.2753751538 -0.4940296346 -0.4664873077 0.3219725385 0.3629692500
-0.0117815385 0.7869888462 0.1249401346 -0.5043811154 0.3457062308 0.3550093269
-0.4230769231 1.5029473077 -0.3110597115 -0.4618382308 0.3076923077 0.3501457885
-0.3283626923 1.0769230769 -0.5954227885 -0.4903288462 0.3411751923 0.3493031346
0.2731125000 0.7817262692 -0.5708114038 -0.4981465769 0.3057696923 0.3476060192
-0.3870973462 0.3076923077 0.4274966731 -0.4972679231 0.2932337308 0.3222124808
-0.0864093462 0.7019415385 0.0855755577 -0.5013050000 0.3460737692 0.3524114038
0.2043309615 0.7406521538 -0.0512526731 -0.4951645385 0.2696433846 0.3542582115
0.3372265000 0.7734008077 -0.5708114038 -0.4956266538 0.2897748077 0.3469087885
-0.1739007692 0.6986264231 -0.2616172500 -0.4956801538 0.2694880000 0.3525424423
0.3846153846 0.6469641154 0.0940289423 -0.5384615385 0.3076923077 0.3522655192
-0.5000000000 1.6191503077 -0.1543367115 -0.5383025769 0.3076923077 0.3518804423
-0.4230769231 0.1788109615 -0.2561887115 -0.4619595769 0.3100010769 0.3503172885
0.0476701154 0.2073207308 -0.5921019038 -0.5066763462 0.3380164615 0.3493315192
0.0372476538 0.2796099231 -0.5708114038 -0.5020733462 0.3022986154 0.3880448269
-0.1504296538 0.2516575000 0.2753424423 -0.4944915385 0.3026570769 0.3160055192
-0.2012333462 0.6923076923 -0.4326728654 -0.5068692692 0.3453565385 0.3509694808
0.3216681923 0.2832065769 -0.5986204038 -0.5043358077 0.3308771923 0.3431547885
-0.4350448077 1.4875216154 0.2753424423 -0.4735431923 0.3076923077 0.3562763269
-0.3008455385 0.2957403077 0.4080956346 -0.4975682308 0.2975192692 0.3165639038
-0.4230769231 1.5202182692 -0.0074241346 -0.4616568846 0.3076923077 0.3540003654
-0.4333670385 1.2372638077 -0.0741724423 -0.5357886154 0.2944406923 0.3524857115
-0.3450749615 0.2038800000 0.2753424423 -0.4943542308 0.3029721923 0.3164988654
-0.3076923077 0.8470109615 0.2614762885 -0.5382335000 0.3076923077 0.3563271346
-0.2678706923 1.0542920769 -0.5089391346 -0.4642037308 0.3214922692 0.3499468269
-0.4788706538 0.0568219231 -0.3383883654 -0.5290738077 0.3059136923 0.3737559038
-0.4273219231 1.2221509615 -0.4609412885 -0.5355550385 0.2944746538 0.3474750962
-0.4482742692 1.2745318846 -0.5448442500 -0.4664891154 0.3196070000 0.3447205192
-0.4230769231 0.1911370769 -0.4060944038 -0.4623612308 0.3077616923 0.3495307500
0.2336287692 0.7439075000 -0.0740420192 -0.4949670769 0.2697065000 0.3537359423
-0.4398886923 1.2535678462 0.2633918269 -0.5359110769 0.2944516154 0.3559722115
0.2788127692 0.2623546923 -0.6314983269 -0.5069157692 0.3426262692 0.3420554423
-0.1297482692 0.7035322308 0.0721726731 -0.4956238846 0.2695050000 0.3528644423
0.3410705385 0.8310953462 -0.1353460962 -0.5045083846 0.3458055385 0.3517337115
-0.3674645769 1.3032768077 -0.2557082500 -0.4644008846 0.3218557692 0.3506252115
-0.3450523846 0.9219754615 -0.2927300192 -0.5271871923 0.2805051154 0.3521250962
-0.3277961923 0.9047192692 -0.5268042500 -0.5268713077 0.2808210000 0.3506158654
-0.3076923077 0.8617426538 -0.1014339038 -0.5384615385 0.3076923077 0.3522655192
-0.1755784231 0.2243698077 0.2753424423 -0.4949854615 0.3044271538 0.3158207885
-0.4230769231 1.4440922308 0.0774410192 -0.4617147692 0.3076923077 0.3541179808
-0.2307692308 0.8644098077 -0.0580170577 -0.4616533462 0.3076923077 0.3530218654
-0.5000000000 1.7033163077 0.0465225577 -0.4615384615 0.3076923077 0.3522655192
-0.3250752308 0.9019983077 -0.4961803654 -0.5265274231 0.2811648846 0.3574783269
-0.2307692308 0.8966267692 -0.0711938654 -0.4616362308 0.3076923077 0.3530472885
-0.3489213846 1.0261496154 -0.3342829423 -0.5357539231 0.2937411923 0.3521699038
-0.3076923077 0.6925026923 -0.5165031731 -0.5346266154 0.3076923077 0.3389815577
0.4064946538 0.7631147692 -0.3097391731 -0.4935251154 0.2701684615 0.3494927885
-0.2307692308 0.6566070385 -0.1509301346 -0.5179004231 0.2777302308 0.3528082885
-0.1466219615 0.1214065769 0.3522655192 -0.4978331154 0.3153255000 0.3147735192
0.0623468462 0.7962548462 -0.3129462885 -0.5046013077 0.3458008846 0.3510011731
-0.4230769231 1.5158026154 -0.4173219423 -0.4618768846 0.3076923077 0.3490160577
-0.5000000000 1.4679746538 -0.2988356731 -0.5383416154 0.3076923077 0.3504639808
-0.0077354231 1.0604433077 0.2753424423 -0.5017009615 0.2695685769 0.3494419808
0.3846153077 1.0046300000 0.6163131346 -0.4635911154 0.3036774615 0.3506202885
0.2745186154 0.3076923077 0.4495409038 -0.4998487308 0.2811504231 0.3506015577
-0.4035665769 1.3651049615 -0.3525311346 -0.4729189231 0.3347733846 0.3509299808
-0.4651049231 1.6717463462 0.2753424423 -0.5032991538 0.3076923077 0.3576042500
0.3846153846 0.7579843462 0.2974493654 -0.4615384615 0.3076923077 0.3522655192
0.4764863462 0.7841786154 0.2339940577 -0.4861865385 0.2739567692 0.3543810577
-0.3388436154 1.2317244615 -0.5309828654 -0.4643823846 0.3217360385 0.3489220192
-0.3859091154 1.3474476154 -0.2326100962 -0.4730342308 0.3346580769 0.3499970192
-0.1737738077 0.7692307692 -0.1236386346 -0.5020314231 0.3458936154 0.3540327500
-0.4264768846 1.1238845000 -0.5432532115 -0.5328479231 0.2951430769 0.3495406346
-0.1609091538 0.6648767308 0.2671405577 -0.4941404231 0.2698644615 0.3524798269
-0.5000000000 0.2794070000 -0.6427240192 -0.4960120769 0.2986710385 0.3205275962
-0.2673796538 1.0767996923 0.3661596346 -0.5025588846 0.2693160000 0.3522672500
-0.4594303846 1.4413437308 0.2753424423 -0.4978708462 0.3076923077 0.3556845962
-0.4489804615 0.0275197692 -0.0095964038 -0.5338967308 0.3039901538 0.3636959038
0.3846153846 0.5097530769 0.4815712500 -0.4615384615 0.3076923077 0.3522655192
-0.4341816538 0.1583565385 0.1531905577 -0.5376774615 0.3092853077 0.3552375962
0.3402231538 0.7628890000 -0.0939152500 -0.5049851154 0.3458252308 0.3522538269
0.3035421538 0.8264042692 0.0166525962 -0.5046023462 0.3458171154 0.3527170192
-0.2307692308 0.8598609615 -0.4837622115 -0.4616209231 0.3076923077 0.3502311346
-0.5000000000 0.1641143077 0.2757443654 -0.4942780385 0.3033662308 0.3168719423
0.0346006923 0.7217932308 -0.5287266346 -0.5033821923 0.3446963077 0.3509990577
-0.1092640385 0.7058082692 0.2013712115 -0.4955977692 0.2695128846 0.3530050577
-0.3614909615 1.2883428462 -0.4914581346 -0.4644306154 0.3218173462 0.3489417885
0.4702835000 0.8461538462 0.1991732115 -0.4973536154 0.3433367692 0.3533581346
-0.4827832308 1.2135523846 -0.6105916346 -0.4701638462 0.3312180000 0.3497449423
-0.0925107692 0.7010699231 -0.4037627115 -0.5039484231 0.3459435385 0.3521460962
-0.4431306923 0.0959281923 0.0547509423 -0.5379380000 0.3058505769 0.3549889038
-0.1951153462 0.7692307692 0.0001357885 -0.4987648846 0.3458000769 0.3522524423
-0.2307692308 0.8152731154 0.1300070962 -0.4615945385 0.3076923077 0.3533500577
-0.4230769231 0.1075341154 -0.2705096346 -0.4625358462 0.3042907308 0.3497913654
0.2479457692 0.8194547692 -0.0652428269 -0.5045993846 0.3458129615 0.3522850962
-0.3347610000 0.0925362308 0.3603778654 -0.4972488846 0.3134090000 0.3151519423
-0.4886279231 1.3461538462 0.0527903269 -0.5247505385 0.2809212692 0.3531449038
-0.4264466923 0.0697227308 -0.4916076346 -0.4734083462 0.2967430000 0.3500084038
0.1102410769 0.2459369231 -0.5708114038 -0.5064514615 0.3069706923 0.3880340192
-0.2861753462 1.0249058462 -0.5708114038 -0.4826627308 0.3079695385 0.3398199038
-0.2610271923 0.6923076923 0.0913878269 -0.5000000000 0.2693293077 0.3538682500
0.1498013462 0.8071867308 -0.0416515577 -0.5045671923 0.3457889615 0.3528289038
-0.0911368077 0.2329550000 0.2753424423 -0.4953392692 0.3052848846 0.3154638654
-0.4230769231 0.2933444615 0.1017450192 -0.4616409231 0.3088049231 0.3516586346
-0.4620958077 0.0496978462 0.3612441346 -0.4967319231 0.3138205385 0.3153312115
-0.4489238077 0.2572671154 -0.0089731731 -0.5375864615 0.3132759231 0.3551038654
0.3722869615 0.8349973846 -0.5209161346 -0.5043102692 0.3457778846 0.3493219808
-0.5000000000 1.6193678846 -0.4394750577 -0.5383219615 0.3076923077 0.3495949423
-0.4230769231 0.1466654231 0.0696084808 -0.4616598846 0.3090108846 0.3515462885
-0.4230769231 1.4506459615 0.1595767500 -0.4616802308 0.3076923077 0.3550323269
-0.0563105000 0.7814226923 -0.5243210962 -0.5045780000 0.3457895000 0.3498542885
-0.2103570385 0.2122041923 0.3789854038 -0.4978276154 0.3066045769 0.3155690577
0.3846153077 0.4980895769 0.5177304038 -0.4615384615 0.3076923077 0.3522655192
-0.3529826538 0.9991576923 0.2753424423 -0.4965692308 0.3093018462 0.3744920962
-0.2611773462 0.1337856154 -0.6213446346 -0.5045896538 0.3310728846 0.3338630577
-0.4737055385 1.3461538462 -0.3026050192 -0.5234826923 0.2796328077 0.3514472115
-0.1538461538 0.6544407692 -0.3419829808 -0.4769363846 0.2795237308 0.3503398269
0.3959940385 0.7692307692 -0.4062121346 -0.5038794231 0.3459277308 0.3522780962
-0.4230769231 0.1698416923 0.1065205577 -0.4616380769 0.3087743077 0.3516753269
-0.3880869231 1.1240634231 -0.1240351731 -0.5358268462 0.2940449615 0.3535367500
-0.2238050000 0.3076923077 0.3357536731 -0.4963176538 0.2839785769 0.3296481731
-0.3958898077 0.1528160385 0.2753424423 -0.4952535385 0.3062151538 0.3161735192
0.4798696923 0.7875620000 -0.4643367500 -0.4831640385 0.2752752692 0.3482799423
-0.0114471538 0.7870306538 -0.2277212115 -0.5045489231 0.3457714231 0.3519794808
-0.2888380385 0.2602975769 -0.6477344808 -0.4965328077 0.3050647308 0.3161280577
-0.1538461538 0.6705501154 -0.2840888654 -0.4851646923 0.3090333462 0.3506146731
-0.0593619615 0.7810413077 -0.3813129423 -0.5045902308 0.3457843846 0.3508829808
-0.1800462692 0.6979435769 0.2543824423 -0.5038751923 0.3427165769 0.3613695577
-0.2307692308 0.8166960000 0.1910899808 -0.4616251538 0.3076923077 0.3540417115
-0.5000000000 1.6218412692 -0.2071537115 -0.5383273846 0.3076923077 0.3512695577
0.1027104615 0.7293610385 -0.0440595962 -0.4953275385 0.2695937308 0.3539185962
0.1908839231 0.7391580385 -0.5162908654 -0.4939556923 0.2700355385 0.3490417115
0.2162426538 1.0445582308 0.2863618654 -0.5026789231 0.2693274231 0.3527201731
-0.2307692308 0.8819570000 0.1148156346 -0.4616101923 0.3076923077 0.3536894038
-0.3076923077 0.8622796154 0.2192342500 -0.5384615385 0.3076923077 0.3522655192
0.0312673077 0.1969485385 0.2753424423 -0.4970262308 0.3104965769 0.3143763654
0.1760443077 0.3014697308 -0.6477344808 -0.4980758077 0.3053735385 0.3143713654
-0.2139561923 0.6538461538 -0.3897795192 -0.5101872692 0.2733667308 0.3516248654
-0.4159711923 1.3775096154 -0.4378278269 -0.4728382692 0.3348540385 0.3515740192
0.0304996923 1.0569410385 -0.6013766731 -0.5026525000 0.2693278846 0.3523703654
-0.4230769231 0.1233483846 -0.1708836731 -0.4620906923 0.3076001154 0.3504634423
-0.3769217692 0.0696866923 0.3584982500 -0.4970695000 0.3142582692 0.3151453269
-0.3809799231 1.0459731154 0.2753424423 -0.5107568462 0.3037727692 0.3720324038
0.1718928846 0.0140507692 0.3522655192 -0.4943004231 0.3222644615 0.3173613269
-0.4230769231 1.6472157692 0.0194122500 -0.4616606538 0.3076923077 0.3541662115
-0.4308530769 1.7770068846 0.0428058269 -0.4758583846 0.3367499615 0.3527588654
0.2626873846 0.7471362308 -0.4521525192 -0.4937996154 0.2700839231 0.3491385962
0.1954441154 1.0476661154 0.4458039423 -0.5020546154 0.2692951154 0.3515816346
-0.2307692308 0.8614766154 -0.4268373269 -0.4616201154 0.3076923077 0.3505563654
-0.0714914615 0.2063044615 0.3648863269 -0.4983415385 0.3104849231 0.3149731346
-0.4033931538 0.2669580385 0.2753424423 -0.4924376538 0.2967279231 0.3175574038
-0.1536698846 0.7692528077 -0.1472903269 -0.5044166154 0.3457108462 0.3533302115
-0.3885005385 0.2573970000 -0.6477344808 -0.4959870000 0.3042165000 0.3164353269
0.3846153846 0.6704470769 -0.4377572500 -0.4615384615 0.3076923077 0.3522655192
-0.0119599615 0.6883950000 -0.4947588269 -0.4942770385 0.2713075000 0.3588841346
-0.4230769231 1.6616243077 0.0665677115 -0.4616672308 0.3076923077 0.3544575962
0.3846153846 0.7281102308 -0.1342487115 -0.5384615385 0.3076923077 0.3522655192
-0.4379188462 1.2486432692 -0.5321835577 -0.4662385000 0.3201080385 0.3490858654
-0.4351235000 0.1236955385 0.1428301731 -0.5377773077 0.3075803462 0.3551729808
0.0707093077 0.7973002308 0.0463284808 -0.5044730385 0.3457472692 0.3539514423
-0.3286334615 1.1393403462 -0.5708114808 -0.4848594231 0.3137741538 0.3480291731
-0.4247727308 0.0688337692 0.2566887500 -0.5378036154 0.3054760000 0.3552868269
-0.5000000000 1.6627786923 -0.5006275577 -0.5384615385 0.3076923077 0.3522655192
-0.2811290385 1.0874380000 -0.5069101731 -0.4642359231 0.3215382692 0.3498011731
-0.5000000000 0.0242222308 0.3388846346 -0.4962554231 0.3149683462 0.3153599808
0.3592383462 0.8333663077 -0.4874749423 -0.5043339231 0.3457805769 0.3495445192
0.3017595769 0.3076923077 0.3671677500 -0.4999767308 0.2693955769 0.3520097500
-0.3991860000 0.0198825769 0.3522655192 -0.4965915385 0.3170839231 0.3152055962
0.2850536923 0.8240932308 -0.4899725962 -0.5043793846 0.3457824615 0.3496249038
0.3846153846 0.7490029615 0.4709402115 -0.5384615385 0.3076923077 0.3522655192
-0.3494813077 1.1663067308 0.2753424423 -0.4926338077 0.3101257308 0.3559350577
-0.2212234231 0.0194503077 0.2753424423 -0.4976430385 0.3161343846 0.3148980962
0.4154384231 0.7641085000 -0.2355433654 -0.4936866154 0.2701158462 0.3502645577
0.1888675769 0.7282832308 0.2753424423 -0.4984346154 0.2935984231 0.3761050192
-0.3076923077 0.8016165385 -0.0859840577 -0.5381300385 0.3076923077 0.3544252115
0.3331991923 0.7618856154 0.1708559808 -0.5050722692 0.3457965385 0.3522730962
-0.2307692308 0.7713964231 0.1382794038 -0.4676906154 0.3254473077 0.3572362115
-0.4205363462 1.3663710000 0.2753424423 -0.4860718462 0.3292771154 0.3562601731
-0.4230769231 1.3968948846 0.1671224808 -0.4617370385 0.3076923077 0.3545862500
-0.4462861538 0.1036313077 0.0200409423 -0.5379532308 0.3060606154 0.3549418654
-0.3048033846 0.2545535385 0.2753424423 -0.4933942308 0.2995663077 0.3168767500
0.0494604231 0.7213514615 0.1021216346 -0.5025860385 0.3459809615 0.3523605577
-0.0972308077 0.1590835000 0.3554210192 -0.4982005000 0.3137408077 0.3147158654
0.0977361538 0.2700501923 0.3654384038 -0.4990350000 0.3093773846 0.3147867500
0.3846153846 0.7899755385 0.4112834423 -0.4615384615 0.3076923077 0.3522655192
-0.3548499615 1.0409710385 -0.2319498269 -0.5357570769 0.2937903462 0.3527814808
-0.0969313846 0.2246708846 0.3717906346 -0.4982637692 0.3083518462 0.3152138654
-0.3560409615 1.0439485385 0.2193127115 -0.4669507308 0.3206386154 0.3431516731
-0.3187023462 0.9506020000 -0.5320777115 -0.4727851538 0.3263150769 0.3535843269
-0.0639241154 0.2826438077 -0.5708114038 -0.5014081538 0.2996340769 0.3873637115
-0.1538461538 0.6641705000 -0.0696462115 -0.4862940769 0.2946875769 0.3518755962
-0.4891424231 1.7800882692 -0.3261500577 -0.5229406538 0.3374970385 0.3517160962
0.1024525769 0.2579896538 -0.6477344808 -0.4991725000 0.3102025769 0.3150819808
0.1370150385 0.0000000000 0.2775290577 -0.4967503077 0.3168254231 0.3150809808
-0.4557326538 0.0874629231 -0.6123697500 -0.5117605769 0.3197901923 0.3462303654
-0.4017575000 1.1582398077 -0.1530277500 -0.5357899615 0.2941736154 0.3526471346
0.0362270000 1.0565591923 -0.6328360192 -0.5025595000 0.2693188846 0.3519479808
0.0872110769 0.7040535769 0.2504163654 -0.4941355000 0.2708546923 0.3517000962
0.3846153846 0.9145519615 0.4002660577 -0.4615384615 0.3076923077 0.3522655192
-0.4230769231 1.7582027692 -0.1586305192 -0.4616357692 0.3076923077 0.3530660192
0.3846153846 0.3477923462 0.3086228654 -0.4615384615 0.3076923077 0.3522655192
-0.5000000000 1.4684312692 -0.2374012500 -0.4615384615 0.3076923077 0.3522655192
0.2683940385 0.8220108077 0.0666136731 -0.5045942308 0.3458071154 0.3532081731
0.3846153846 0.6477609231 0.2298089808 -0.5384615385 0.3076923077 0.3522655192
0.4550335769 0.7685080385 0.2728453269 -0.4948783846 0.2697284615 0.3556850962
-0.4873400000 0.1775345769 -0.4315511731 -0.5337440769 0.3093163846 0.3636018654
0.3206883077 0.8285475769 -0.0583569423 -0.5045568462 0.3458114231 0.3522335577
0.1196975769 0.0000000000 0.3348514808 -0.4945835385 0.3223183846 0.3173214038
-0.1538461538 0.6685775000 -0.3175236346 -0.4837626154 0.3056706923 0.3504491346
-0.2307692308 0.8586494615 -0.0204703269 -0.4617073077 0.3076923077 0.3537984038
0.3846153846 0.4261161154 0.5185888269 -0.5384615385 0.3076923077 0.3522655192
-0.1066371538 0.7061001154 -0.3311187115 -0.4955944231 0.2695136538 0.3528351731
-0.4230769231 1.4386651538 -0.5133499423 -0.4620458462 0.3076923077 0.3468104423
-0.2307692308 0.8806710769 0.2361594808 -0.4616256538 0.3076923077 0.3545247885
0.3916981923 0.7521304615 -0.5064052115 -0.4944172308 0.2737626538 0.3643583269
-0.1937650000 0.7692307692 0.1546449038 -0.4993589231 0.3459617308 0.3528800192
-0.4798060769 1.7894246154 -0.4329185192 -0.5104897692 0.3397525000 0.3514585962
0.2425108077 0.7489301154 0.0819667500 -0.5046475385 0.3458370769 0.3522644038
0.0353193077 0.7928764615 -0.3379055192 -0.5046067308 0.3457999231 0.3508825577
-0.3193408462 0.8962639231 -0.0427869808 -0.5271948077 0.2804975000 0.3520367500
0.0495341923 0.7018081923 -0.4938883269 -0.5001020000 0.2920598846 0.3826847500
-0.4230769231 1.5413558846 -0.0433794038 -0.4616518462 0.3076923077 0.3537782115
0.3703553846 0.7590993077 -0.2080060192 -0.4939699231 0.2700254231 0.3509818269
-0.4417236923 0.2856937692 0.0702279038 -0.5374330769 0.3149967308 0.3552741731
0.0266108846 0.7180872692 -0.3910432115 -0.5041909615 0.3459201923 0.3521712885
-0.2008033462 0.6923076923 -0.3729063654 -0.5065081923 0.3453786538 0.3510129808
-0.1045330385 0.7753949231 -0.4763981731 -0.5046055385 0.3457873846 0.3502761346
-0.2272256154 0.6538461538 -0.2215059423 -0.5159684615 0.2731807692 0.3524445192
-0.4950761923 1.2953827308 0.2410306346 -0.5305230385 0.2965525385 0.3500725577
-0.4731131923 1.2404752692 -0.5631846346 -0.5288854615 0.2969674231 0.3336581346
-0.4266241538 1.7727780000 0.0859296346 -0.4742088462 0.3357260000 0.3527978269
-0.5000000000 1.6789794231 0.1888729423 -0.4881949231 0.3076923077 0.3522655192
-0.4446455000 1.2654599231 0.2379102500 -0.4661935769 0.3200471538 0.3493695192
-0.3359931923 1.2153643846 -0.5708114038 -0.4672134231 0.3206288462 0.3485605192
-0.1530284231 0.7693329615 -0.4355654038 -0.5045540385 0.3457642692 0.3508518269
0.3480835769 0.3096220385 0.6205219423 -0.5249906154 0.3368235769 0.3500612115
-0.5000000000 1.5195906538 0.2170887885 -0.5384615385 0.3076923077 0.3522655192
-0.3570067692 1.0463631154 0.2514026731 -0.4691517692 0.3198195769 0.3600422885
-0.4538216923 0.1798296154 -0.0628502115 -0.5378406154 0.3093266538 0.3549085962
0.2952594615 0.2850865385 -0.6477344808 -0.5016065000 0.3188493077 0.3216707500
0.2615181154 0.8211513462 -0.1450354038 -0.5045538846 0.3458070385 0.3517768269
-0.0619182692 0.1837171538 -0.5708114038 -0.5151450000 0.3242280769 0.3721246731
0.3846153846 0.7205488462 -0.6076699038 -0.4615384615 0.3076923077 0.3522655192
-0.3256515385 0.9679750385 0.0461167115 -0.5356540000 0.2935833462 0.3542581731
0.3615957308 0.7659422692 -0.1310900577 -0.5049608077 0.3458289615 0.3522594423
-0.3076923077 0.8547187692 -0.2982052115 -0.5384615385 0.3076923077 0.3522655192
-0.5000000000 1.7397710385 -0.3629562500 -0.5204579231 0.3076923077 0.3522655192
-0.2307692308 0.9005684231 0.2107996731 -0.4616451923 0.3076923077 0.3547165192
0.2256105769 0.2424624615 0.2753424423 -0.4966929231 0.3092558846 0.3141821731
-0.1891172308 0.6670712692 0.2753424423 -0.5030318462 0.3021725000 0.3877018269
-0.3834058077 1.0162068077 0.2491595962 -0.5333485769 0.2946432692 0.3598780962
-0.4230769231 0.2625240000 -0.0794221346 -0.4617478077 0.3099660769 0.3510252885
-0.1700114231 0.0000000000 0.3328217115 -0.4957271538 0.3198007308 0.3162628654
-0.5000000000 1.6627431923 -0.5499810962 -0.4615384615 0.3076923077 0.3522655192
0.3846153846 0.7534893462 0.4150623269 -0.4615384615 0.3076923077 0.3522655192
-0.4230769231 1.5467706923 -0.4235249038 -0.4618335385 0.3076923077 0.3493534423
-0.4230769231 1.7518401538 -0.5336762885 -0.4615840769 0.3076923077 0.3507417115
0.1927880385 0.7393696154 0.2069050192 -0.5040552692 0.3454200769 0.3475805192
-0.4230769231 1.5880402692 0.1174742885 -0.4616743462 0.3076923077 0.3547721731
-0.3666116538 1.0973808462 0.3093494423 -0.4786371154 0.3368016538 0.3402526346
-0.0179803846 0.7159508846 -0.2403806731 -0.4954813846 0.2695475385 0.3532834423
0.3846153846 0.6572773077 0.2588086731 -0.4615384615 0.3076923077 0.3522655192
-0.3256642692 0.9680068846 -0.2700470192 -0.5356894615 0.2935693077 0.3524435192
-0.4230769231 1.3852203077 -0.3551899038 -0.4620400769 0.3076923077 0.3480339808
-0.4410110385 0.0475340769 -0.2475324038 -0.5065310000 0.3008695385 0.3583897885
0.4596801154 0.7692307692 -0.3990128269 -0.4981653077 0.2712533846 0.3589927115
0.3846153846 0.6177088077 0.1103916346 -0.4615384615 0.3076923077 0.3522655192
-0.4478443077 1.1933356154 0.1984193654 -0.5180481538 0.3011605385 0.3303826731
-0.5000000000 1.3636709231 0.2724124038 -0.4724610769 0.3257703846 0.3522655192
-0.4851348462 0.2333304231 -0.4072947885 -0.5372123846 0.3106478462 0.3561546731
-0.4615384615 1.3158068846 -0.3097707885 -0.5353716923 0.2938409615 0.3494695962
-0.5000000000 1.4431112692 0.0007141346 -0.4615384615 0.3076923077 0.3522655192
-0.4230769231 1.7597349615 -0.4795384038 -0.4615908846 0.3076923077 0.3510830577
-0.0047451154 0.7174215000 0.2747891346 -0.4954645385 0.2695528462 0.3535220577
-0.4230769231 1.4254532692 0.0276247115 -0.4617701538 0.3076923077 0.3532590962
0.0345808077 0.7217910385 0.2540937885 -0.4954143846 0.2695678462 0.3537000192
-0.4461944231 0.0590508462 0.0210500577 -0.5361862692 0.3046818846 0.3587944808
-0.4827399615 0.1441931154 -0.3809512115 -0.5329379231 0.3082873846 0.3653891731
-0.5000000000 1.5475139615 0.0156255962 -0.5383178462 0.3076923077 0.3530057115
-0.4275000769 0.0385552692 -0.1487651731 -0.5043244231 0.2996009231 0.3534400577
-0.2730794615 1.0673140000 -0.2005040192 -0.4641190000 0.3212671154 0.3522052885
0.0627282308 0.7249185000 -0.4086840577 -0.4948412308 0.2697525000 0.3514170962
-0.4653305385 0.2258364231 -0.1894474808 -0.5378500385 0.3109494231 0.3547615192
-0.1758502308 0.1657475000 0.3642342500 -0.4979126923 0.3112704615 0.3150785577
-0.2634158846 1.0431550769 -0.1804046731 -0.4640704615 0.3210933846 0.3524851346
-0.5000000000 1.6778612692 -0.4075062500 -0.4904311538 0.3076923077 0.3522655192
0.3276763462 0.1598723846 0.3017506346 -0.4954247308 0.3142719231 0.3155115962
0.3846153846 0.4858285385 0.5822013654 -0.5384615385 0.3076923077 0.3522655192
0.1769972692 0.7182303077 -0.4974201346 -0.4943658462 0.2725958077 0.3625696346
-0.3742465769 1.3202318077 0.2086614423 -0.4643300385 0.3219142308 0.3540016346
0.1887518077 0.2409115769 -0.6288853269 -0.5063470385 0.3408903846 0.3406242885
-0.5000000000 1.4885865769 -0.0333285192 -0.5383787308 0.3076923077 0.3521045962
0.3676216538 1.0169937308 0.4084567500 -0.4820565769 0.2824475385 0.3400651731
0.4424545769 0.7671103077 0.2477803654 -0.5040258846 0.3458816923 0.3519773269
-0.1411747692 0.6941179231 -0.3400965192 -0.5031048846 0.3459959231 0.3522024038
-0.4230769231 1.6648194231 -0.2898588654 -0.4616174231 0.3076923077 0.3522551346
-0.3625995385 1.2911143077 -0.4376928654 -0.4644231923 0.3218252308 0.3493287885
0.3846153846 0.5919235769 -0.6393229423 -0.4615384615 0.3076923077 0.3522655192
0.2144726923 0.8152706538 -0.4256567500 -0.5044535385 0.3457888846 0.3501115962
0.4045413077 0.8390291923 0.1728937115 -0.5046112308 0.3458251923 0.3535475962
-0.4503906923 1.2084736538 -0.2232794423 -0.5372696154 0.3027068846 0.3518305577
-0.2241904615 0.7566016154 -0.5708114038 -0.5125897308 0.3334586154 0.3469475962
-0.4909066923 1.2468473077 -0.6477344808 -0.4642159615 0.3201002692 0.3476484038
0.2067858077 0.0483956538 0.3522655192 -0.4949120769 0.3212311538 0.3170312115
-0.4545631154 1.2168185769 -0.4253114423 -0.5377130000 0.3045728462 0.3513912500
-0.4864164231 1.6467904231 0.2753424423 -0.5244773462 0.3076923077 0.3578179038
-0.0378253077 0.7837333846 0.0650582500 -0.5043923462 0.3457089231 0.3546160192
-0.4970049231 1.6897275000 0.2753424423 -0.5349738077 0.3076923077 0.3581521346
-0.4230769231 1.6603000385 -0.3636245577 -0.4616293846 0.3076923077 0.3516023654
-0.4579540385 0.0000000000 0.3419098269 -0.4966153462 0.3173238462 0.3152343654
0.1635409231 0.0000000000 0.2956811731 -0.4959898077 0.3185698462 0.3157989808
0.3846153846 0.6886844231 0.4317312500 -0.5384615385 0.3076923077 0.3522655192
-0.5000000000 1.4492014231 0.1094232500 -0.5384615385 0.3076923077 0.3522655192
0.2315470000 0.1833792692 0.2753424423 -0.4966657308 0.3110406923 0.3143825577
0.1989471154 0.8133299231 -0.2917186731 -0.5045253077 0.3457986154 0.3509554038
-0.3076923077 0.7139453846 0.1135835962 -0.5333999615 0.3076923077 0.3645477115
-0.1778846538 0.6981837692 0.1502955577 -0.4956852692 0.2694866538 0.3526646731
-0.2103536154 0.7692307692 -0.3371298654 -0.4920613846 0.3439758077 0.3490429808
-0.3076923077 0.7239129615 0.0069003269 -0.5341030385 0.3076923077 0.3566987885
-0.5000000000 1.6371791538 0.0644810962 -0.5381557692 0.3076923077 0.3548008269
-0.4548751154 1.2910340385 0.1706812885 -0.5359079615 0.2945786923 0.3549692115
0.1831313462 0.8113529615 -0.4665467885 -0.5044543077 0.3457868846 0.3499005577
-0.4081699231 1.1742710000 -0.3957005192 -0.5356269615 0.2942870000 0.3491058654
-0.2801171154 0.1746961923 0.2753424423 -0.4954936154 0.3065631538 0.3158031731
-0.2307692308 0.9297912308 -0.5632904423 -0.4664014615 0.3100641923 0.3357654423
-0.5000000000 1.7429674615 0.1368726731 -0.4615384615 0.3076923077 0.3522655192
-0.5000000000 1.6480343077 -0.0185239038 -0.5381847308 0.3076923077 0.3539292115
0.0015575769 0.7886562308 -0.1546332885 -0.5045228077 0.3457621154 0.3525467500
-0.1942085385 0.6963699615 -0.1778315962 -0.4957060385 0.2694802692 0.3524755192
-0.3435786154 0.9205016923 -0.3370011346 -0.5271890000 0.2805033077 0.3519224038
0.3846153846 0.8080144231 0.3598612115 -0.4615384615 0.3076923077 0.3522655192
-0.2446252692 0.9961784615 -0.3301978269 -0.4640658077 0.3211070385 0.3515891346
0.2424083846 0.2148342308 0.3522655192 -0.4983820000 0.3150657692 0.3149457885
-0.3704523462 1.3107462692 -0.1992673654 -0.4643975769 0.3218703462 0.3510093654
-0.4404954231 1.2550846923 -0.3945607885 -0.5355755385 0.2945783077 0.3478624423
-0.1891832692 0.6538461538 0.1898650577 -0.5028563462 0.2717652308 0.3542260577
-0.1662468462 0.6949759231 -0.5708114038 -0.5035846538 0.3323731538 0.3391332115
0.0402934231 0.7934982308 0.0683154808 -0.5044424615 0.3457334231 0.3542814423
0.0489182692 0.0000000000 0.3228078269 -0.4951994615 0.3212232692 0.3168587115
-0.2307692308 0.8028294615 0.2728792115 -0.4622605000 0.3098315385 0.3561673269
-0.2398075000 0.6923076923 -0.1260565962 -0.5000000000 0.2692400769 0.3518550962
0.0120835385 0.1287426923 0.3522655192 -0.4973903846 0.3164167692 0.3152534038
0.4116902692 0.8399228462 -0.1430677500 -0.5044604231 0.3458030385 0.3515950577
-0.1650042308 0.2073530385 0.3736496346 -0.4979926923 0.3081124615 0.3153521731
-0.4230769231 1.5613385769 0.1343304423 -0.4616766923 0.3076923077 0.3548763269
0.1511273846 0.3076923077 0.3451041731 -0.4993863846 0.2735798462 0.3455158654
-0.0886212308 0.2531273077 0.3781492885 -0.4983218077 0.3062137308 0.3153974423
0.3710185385 1.0135967692 0.3513012115 -0.5005983077 0.2809548077 0.3456891346
0.2974706923 0.0561123462 0.2753424423 -0.4964879231 0.3148691154 0.3148187500
0.4056072308 0.7603701923 0.2753424423 -0.4981494615 0.3016311538 0.3668850192
-0.4230769231 1.2186928462 0.1469591346 -0.4649764231 0.3221880000 0.3531677885
0.3846153846 0.6229966538 -0.1617687500 -0.4615384615 0.3076923077 0.3522655192
-0.5000000000 0.2647258077 0.3850839038 -0.4954868462 0.2951888846 0.3173600192
0.3846153846 0.4503428462 0.5428150962 -0.4615384615 0.3076923077 0.3522655192
-0.4230769231 1.4723812308 0.1366443654 -0.4616770385 0.3076923077 0.3548905962
-0.4800606538 1.5988454231 0.2753424423 -0.5182103077 0.3076923077 0.3573213654
0.0851734231 0.1562870385 0.3522655192 -0.4977099231 0.3159793462 0.3151527885
-0.5000000000 0.2073916154 0.2794220577 -0.4931470385 0.2998301154 0.3173890192
0.2886078077 1.0416959615 0.4553855577 -0.5019703846 0.2692916923 0.3514477115
-0.3315148846 1.0850920385 -0.6477345577 -0.4824309231 0.3346615385 0.3337834423
-0.2849835385 0.6923076923 -0.1816529423 -0.5000000000 0.2692763846 0.3522128654
-0.1773343462 0.6538461538 -0.0365072500 -0.4981749615 0.2716540385 0.3532389423
-0.3076923077 0.8032519615 -0.1187953269 -0.5381398846 0.3076923077 0.3541092115
-0.4729081154 1.3771661538 0.2753424423 -0.5210036538 0.3146166538 0.3593615962
0.3846153846 0.4969981538 0.2833542885 -0.5384615385 0.3076923077 0.3522655192
-0.4230769231 0.3042799231 -0.2419832115 -0.4618437308 0.3110079615 0.3504569808
-0.4275774231 0.2983879231 0.2258370192 -0.5372429615 0.3163136923 0.3555496731
0.3846153846 1.0297043846 0.3028287500 -0.4617183077 0.3079960385 0.3492212500
-0.0736415385 0.7037655000 -0.2727596346 -0.5034148462 0.3459660769 0.3522095192
0.0653729615 0.2754393077 0.2753424423 -0.4953511538 0.3046984231 0.3151150577
-0.4482150769 1.2041225385 -0.4785222885 -0.5370452692 0.3017339231 0.3515675192
-0.2487980385 0.7427862308 -0.5708114038 -0.5260830385 0.3182703846 0.3423600192
-0.5000000000 1.3172651538 -0.5375996346 -0.5313940769 0.2993898077 0.3465784808
-0.2307692308 0.9087223846 0.2428212500 -0.4616637692 0.3076923077 0.3551375962
-0.4426618846 0.3076923077 0.4066325192 -0.4966034615 0.2900696538 0.3200014038
-0.4230769231 1.4538870000 0.2679293654 -0.4616953846 0.3076923077 0.3557018654
0.3595278077 0.8334025385 0.0472427500 -0.5045813462 0.3458176923 0.3528329038
0.4477065000 0.7676938846 0.1292780962 -0.4945347308 0.2698400385 0.3541635962
-0.3155331538 1.1734482692 -0.4680611346 -0.4643131923 0.3216601923 0.3496733269
0.3769540769 1.0384615385 0.4262858654 -0.5003643077 0.2692416154 0.3520833654
-0.1668030385 0.0100959231 0.2753424423 -0.4975187308 0.3164008077 0.3149344423
-0.1505501923 0.7012209231 0.1629503654 -0.4956504231 0.2694970769 0.3527976346
-0.0204920769 0.7156718077 -0.1836351731 -0.4954845769 0.2695466154 0.3532910577
-0.2307692308 0.7870214615 -0.1422305577 -0.4645644231 0.3173091154 0.3547494038
0.4736815385 0.8461538846 -0.4951630192 -0.4943123462 0.3423324615 0.3497380962
0.0904411923 0.2760766923 -0.5708113269 -0.5026630385 0.3038688462 0.3883719808
-0.2307692308 0.8104192692 0.2418680577 -0.4615898846 0.3076923077 0.3539475192
0.2189155000 0.2493638846 -0.6477344808 -0.5060885385 0.3394274615 0.3349951346
-0.5000000000 1.6211703462 0.2707474038 -0.4615384615 0.3076923077 0.3522655192
-0.3231091154 1.1923882308 -0.2628492115 -0.4642931538 0.3217018462 0.3511099038
0.3846153846 0.9380206154 -0.6399406731 -0.4615384615 0.3076923077 0.3522655192
-0.2264456154 0.7692307692 0.0066464038 -0.4753375000 0.3324045000 0.3541440962
0.4799668077 0.7660676538 -0.5476071731 -0.4941268846 0.2723735769 0.3499999038
-0.4744456923 1.7848215769 0.2753424423 -0.5140307692 0.3386211538 0.3540211346
-0.3148944231 0.9410822308 -0.3924354423 -0.5356766538 0.2934828846 0.3516970192
-0.3076923077 0.8262611538 -0.1010139038 -0.5382160385 0.3076923077 0.3537194423
0.1709945385 0.8098358846 0.2286904423 -0.5044527308 0.3457458846 0.3550519808
-0.3144911154 1.1708431923 -0.0633815577 -0.4642209615 0.3215961538 0.3527083654
-0.1778326923 0.6538461538 -0.4371375962 -0.4881624615 0.2774783846 0.3503110962
0.1717606923 1.0475236538 -0.6441510192 -0.5026970769 0.2693301923 0.3527890962
-0.2307692308 0.8191129231 0.0144087500 -0.4615941538 0.3076923077 0.3526567115
-0.4230769231 0.1021241538 0.1756194808 -0.4615973077 0.3083314615 0.3519169038
-0.4230769231 0.2035356923 -0.1008659423 -0.4617604615 0.3101035000 0.3509503269
0.1780391154 0.7377308462 -0.0621650192 -0.4952315000 0.2696225000 0.3542669038
0.1653883846 0.7363251923 0.2316074808 -0.4952476538 0.2696178077 0.3543079038
-0.5000000000 1.4659691538 0.0258224038 -0.5296002692 0.3076923077 0.3522655192
-0.4702438462 0.1346218462 -0.2434938654 -0.5350980769 0.3075513462 0.3608734808
-0.5000000000 1.4456505385 0.2383348269 -0.4615384615 0.3076923077 0.3522655192
0.3212691154 0.1086141923 0.2991419423 -0.4955278077 0.3155720000 0.3155815962
0.3846153846 0.5929289231 0.4065340577 -0.5384615385 0.3076923077 0.3522655192
-0.4350802692 1.7812341538 -0.1111701731 -0.4775127308 0.3377680000 0.3522347500
-0.0272111538 0.3076923077 0.3289395577 -0.4982881154 0.2785297308 0.3379014423
-0.3328461538 1.0902222692 -0.5708114038 -0.4982753462 0.3017611923 0.3383111731
0.3846153846 0.6710139231 0.2876327115 -0.4615384615 0.3076923077 0.3522655192
0.3105564231 0.8272810769 -0.1524948654 -0.5045196154 0.3458051923 0.3516676346
-0.2070124615 0.6949473077 0.0591916346 -0.4957223846 0.2694754615 0.3524964038
-0.4230769231 1.7525467692 0.1863446346 -0.4616839615 0.3076923077 0.3551977115
-0.3668171538 1.1360479615 -0.6037067885 -0.4797735385 0.3400071154 0.3506646346
-0.0468375385 0.7826068462 -0.4967661346 -0.5045848077 0.3457911538 0.3500115577
0.3846153846 0.6850315385 0.3450930192 -0.4615384615 0.3076923077 0.3522655192
-0.4317662692 0.2342310769 0.1797597115 -0.5374549615 0.3130351923 0.3553854423
0.1738708077 0.8101954231 -0.1586988654 -0.5046026538 0.3458085385 0.3518059038
-0.3273194615 1.2029140000 -0.2334039808 -0.4642979615 0.3217186154 0.3512781346
0.3584208846 0.7577733077 -0.4386632500 -0.4933946538 0.2702122308 0.3484412885
-0.3505431154 1.2609731923 -0.5261834038 -0.4644102308 0.3217768846 0.3488159038
-0.3153895769 0.9423200769 0.2357720962 -0.5356075000 0.2935147308 0.3553047885
-0.4758163462 1.3461538462 -0.3447163654 -0.5233938462 0.2795468846 0.3512489808
-0.3676868077 1.3038324231 0.0108736346 -0.4643511923 0.3218766538 0.3526080192
-0.5000000000 0.1056898077 0.3077645192 -0.4949774615 0.3082246538 0.3162524808
-0.2307692308 0.9406185000 -0.3037845192 -0.4655003846 0.3134286923 0.3425965577
0.3623460000 0.7660494615 0.0593421731 -0.5052217692 0.3457950000 0.3522596731
-0.3165938077 1.0029384231 -0.5708113269 -0.5150201154 0.2979840769 0.3440241346
-0.3815463846 0.0847755769 0.2753424423 -0.4969977308 0.3120529615 0.3152950962
-0.2307692308 0.6838004615 -0.0513970192 -0.5224335385 0.3226184615 0.3536905962
-0.4115503077 1.1827219615 0.1491690962 -0.5358540385 0.2942335000 0.3552007885
-0.2307692308 0.9558722308 0.2411737500 -0.4650729231 0.3180033462 0.3581304423
-0.4230769231 0.1436213846 -0.0166231346 -0.4617107692 0.3095635769 0.3512448269
-0.0731820769 0.7098173846 -0.0232581346 -0.4955517692 0.2695265769 0.3530979808
-0.3196647692 0.2312040000 -0.5708114038 -0.5070453077 0.2980609615 0.3846992885
0.4255343846 0.8416533077 0.0730071731 -0.5045517692 0.3458176538 0.3529061731
-0.4230769231 1.5208140000 0.0504593269 -0.4616649615 0.3076923077 0.3543580577
0.0078335000 0.7154047692 -0.1218998654 -0.5034039231 0.3459491538 0.3522562115
-0.5000000000 1.5998417692 -0.3160579423 -0.5383391923 0.3076923077 0.3503575577
0.0240684615 0.2803935000 -0.6477344808 -0.4978476923 0.3062777308 0.3150347885
-0.1132603462 0.7253070769 -0.5708114038 -0.5219723846 0.2982865385 0.3352816731
0.3846153846 0.4548937692 0.4474003269 -0.4615384615 0.3076923077 0.3522655192
-0.2202834231 0.7692307692 0.2149568269 -0.4765937692 0.3316876538 0.3566298269
0.2047079615 0.2120475769 0.2753424423 -0.4967326923 0.3101818846 0.3142832500
-0.5000000000 1.7646015000 0.2701744423 -0.4707968077 0.3076923077 0.3522655192
-0.4742238846 1.7950068077 0.2339411346 -0.5171012692 0.3410891154 0.3536388269
0.1412160769 0.8061135385 0.0240058654 -0.5045303077 0.3457740769 0.3534325577
0.2825619615 1.0408000385 0.2753424423 -0.5017850000 0.2694809615 0.3500835962
-0.4467929615 0.3076923077 -0.1979891731 -0.5185686154 0.3148229615 0.3536205962
-0.4230769231 1.6273428077 -0.0624884038 -0.4616491923 0.3076923077 0.3536601346
-0.1739441538 0.7692307692 0.1960444038 -0.5020127692 0.3458958462 0.3548974038
0.1360117692 0.0000000000 0.3100867885 -0.4954953077 0.3199688846 0.3163646346
-0.3338736154 0.9885301538 0.2354149038 -0.5356530769 0.2936536154 0.3553782885
-0.3387755385 0.9156986538 0.1938032885 -0.5271795769 0.2805127308 0.3534705577
0.3846153846 0.6754043462 0.0028792115 -0.4615384615 0.3076923077 0.3522655192
0.1669521154 0.7381360385 -0.2810065192 -0.5045150385 0.3458817692 0.3522082115
-0.4230769231 0.1708211538 -0.4365777885 -0.4626123462 0.3055750000 0.3492288269
-0.4230769231 1.7247823462 0.0012947500 -0.4616581154 0.3076923077 0.3540542500
-0.5000000000 1.6286266154 -0.3209001731 -0.5383385000 0.3076923077 0.3503276346
-0.1868423462 0.7692307692 0.0993497115 -0.5005990385 0.3460646538 0.3534474423
-0.1512178846 1.0690555385 -0.6219009038 -0.5025955385 0.2693197692 0.3524056346
-0.4230769231 1.7232476923 -0.1250824423 -0.4616404231 0.3076923077 0.3532733269
0.1860183462 0.2702625385 0.2753424423 -0.4962793462 0.3073525385 0.3143998654
-0.3076923077 0.9161215000 -0.2023692885 -0.4615709615 0.3076923077 0.3516728269
-0.1781962308 0.3076923077 0.3147487500 -0.4960138462 0.2827067692 0.3317037115
-0.4358049231 0.2972480769 -0.5708114038 -0.4985356538 0.2895384231 0.3849152885
-0.2307692308 0.9096423846 -0.4201647500 -0.4618844231 0.3076923077 0.3488207115
0.2045820769 0.2736902692 0.3566351731 -0.4994381538 0.3116900385 0.3143904808
-0.4456391538 0.1949417308 0.0271578269 -0.5377106154 0.3104600385 0.3550785577
-0.4230769231 1.5320245385 -0.3226704808 -0.4618006538 0.3076923077 0.3503917500
-0.1728200000 0.2519281154 -0.5708114038 -0.5048995769 0.2997338462 0.3860886346
-0.4512895385 0.2405201923 -0.0349965192 -0.5376559615 0.3123562692 0.3550377885
0.0243374231 0.2017653077 -0.5726442115 -0.5132295769 0.3320280000 0.3656503269
-0.4986228077 1.7706080385 0.1005952500 -0.5266125769 0.3351755385 0.3539193269
-0.5000000000 1.5915785385 -0.2287822500 -0.5383513846 0.3076923077 0.3508968654
-0.0635856538 0.1041155385 0.2753424423 -0.4973092692 0.3135266154 0.3146252500
-0.2183623077 0.6538461538 -0.2533121346 -0.5129164615 0.2728451154 0.3523314808
-0.3407486154 1.2364869615 -0.2082807500 -0.4643262692 0.3217669615 0.3513024423
0.3846153846 0.7023037308 -0.4454613269 -0.4615384615 0.3076923077 0.3522655192
-0.0330081923 0.2206468462 -0.6477344808 -0.4996424231 0.3134574231 0.3158904423
-0.5000000000 1.5517671923 -0.0237289808 -0.5383329231 0.3076923077 0.3525805192
0.0249185000 1.0573131923 0.3744007500 -0.5024679615 0.2693127308 0.3519697500
-0.0500640000 0.7123860769 -0.4740823269 -0.4951830385 0.2696451923 0.3516705577
-0.2257748077 0.7692307692 0.2444736731 -0.4711720769 0.3280242692 0.3579346346
0.1250051923 0.0230964231 0.3522655192 -0.4946741154 0.3215058846 0.3170703269
-0.1310027308 0.7720861923 -0.4084495192 -0.5045557308 0.3457663462 0.3509824423
-0.4365628077 0.0516116923 -0.2923857500 -0.4990188077 0.2998429231 0.3560879423
-0.5000000000 1.4633488462 0.2165529808 -0.5384615385 0.3076923077 0.3522655192
0.3846153846 0.8278501923 0.4478947115 -0.4615384615 0.3076923077 0.3522655192
-0.1628689615 1.0698322692 -0.5804393269 -0.5025918077 0.2693204615 0.3522702115
0.3594665385 0.3076923077 -0.6417315962 -0.5000000000 0.2692307692 0.3522655192
-0.2105282692 0.1487535385 0.3631382885 -0.4977668846 0.3118208846 0.3150868269
-0.1296263077 0.7035458077 -0.0154244808 -0.4956237308 0.2695050000 0.3528350577
0.3846153846 0.3088743077 0.4998740192 -0.4742722308 0.3319275000 0.3457517500
-0.3076923077 0.8802142308 -0.5239650192 -0.4615384615 0.3076923077 0.3522655192
-0.4663232308 1.8029075000 0.2054969808 -0.5140249615 0.3430075385 0.3532345577
-0.3036695769 0.9893570769 0.2753424423 -0.5116623846 0.2993079615 0.3659796346
-0.4472591923 0.1961047692 -0.5708114038 -0.4823195769 0.3083123846 0.3590082885
-0.3163926538 0.8933157308 0.1611080962 -0.5271925385 0.2804997692 0.3524849808
0.3846153846 0.6417992308 0.4435630577 -0.5384615385 0.3076923077 0.3522655192
-0.4392137692 1.2518805769 -0.2542293654 -0.5356658846 0.2945346154 0.3498157500
0.1424614231 0.2323140000 -0.5708114038 -0.5105477692 0.3337901538 0.3666711731
-0.2850484231 0.8340953077 0.2753424423 -0.5157896154 0.3080163462 0.3562996731
-0.3076923077 0.8176690385 -0.1553746346 -0.5381938462 0.3076923077 0.3534612500
-0.3183095769 0.9496200385 -0.0764128654 -0.5356496538 0.2935226923 0.3535248654
0.3805896154 1.0384615385 0.3387117115 -0.5001914231 0.2692364615 0.3521697885
-0.3722081154 1.0843664231 -0.4736704423 -0.5356359231 0.2939804615 0.3494488269
-0.4739484615 1.2912422308 -0.5708114038 -0.4966194231 0.3085089615 0.3312520962
-0.3969400385 1.0878193077 0.2753424423 -0.5096360000 0.3043516154 0.3721847885
-0.5000000000 1.4300821923 -0.1546064423 -0.5383617692 0.3076923077 0.3513552115
-0.4485020000 0.0868238077 -0.0043336346 -0.5371839615 0.3054788846 0.3566198269
-0.3076923077 0.7546186154 0.1924338654 -0.5379333462 0.3076923077 0.3578842885
0.1762674615 0.1019843462 0.2753424423 -0.4967706154 0.3135186538 0.3146531346
-0.4230769231 0.2234941538 0.0618189423 -0.4616644615 0.3090608077 0.3515190577
0.3459458077 0.7637065769 -0.0058657885 -0.5051124231 0.3458088077 0.3522553269
-0.4230769231 1.6320076154 0.0464025962 -0.4616644231 0.3076923077 0.3543329808
-0.4808684615 1.2172698846 0.3659632885 -0.4663059231 0.3217453846 0.3416611346
0.2260115000 1.0439068846 0.3468690962 -0.5026405000 0.2693384231 0.3532904038
0.3644461923 0.7584427308 -0.4665041731 -0.4932907692 0.2702456923 0.3480682115
0.3322752308 0.7617535769 -0.1543065962 -0.5048928077 0.3458370385 0.3522517500
-0.5000000000 1.6826456538 -0.1772875192 -0.5382192692 0.3076923077 0.3524469038
-0.3886596538 0.0119679231 0.2753424423 -0.4980169231 0.3164111923 0.3149089808
-0.2530208077 0.6923076923 0.1444256731 -0.5000000000 0.2693038462 0.3534710962
-0.4108657692 1.3100541923 0.2753424423 -0.4958830000 0.3097951923 0.3552472500
-0.4230769231 1.4936737692 -0.1227883654 -0.4617493462 0.3076923077 0.3523276731
-0.5000000000 1.6990481154 -0.3024245577 -0.4615384615 0.3076923077 0.3522655192
-0.4551305000 1.8012843462 0.1118664808 -0.5009056154 0.3426172308 0.3529654038
-0.4113493846 1.1822195769 0.2366516346 -0.5358437692 0.2942359231 0.3557020962
0.3107334231 0.8273032308 0.2144055577 -0.5045520000 0.3457934615 0.3542807885
-0.2827298077 0.9533321538 -0.5708114038 -0.5025128846 0.3004065000 0.3415259423
-0.4230769231 0.0509437692 0.0895992500 -0.4617713077 0.3076235385 0.3515129038
0.0181527308 0.7168789615 -0.2434347115 -0.5041800000 0.3459083462 0.3521850962
0.3846153846 0.6520220000 0.1487230192 -0.4615384615 0.3076923077 0.3522655192
-0.3076923077 0.7899442692 -0.5558448654 -0.5373038462 0.3076923077 0.3446842500
0.3846153846 0.7149610769 0.2775628269 -0.5384615385 0.3076923077 0.3522655192
0.4182013077 0.8407366923 0.0253940192 -0.5045343462 0.3458145769 0.3526227885
0.3838560385 0.7508922308 0.2304539808 -0.4941438077 0.2720908077 0.3511340962
-0.2175911538 0.6538461538 -0.0304510962 -0.5126457308 0.2728262692 0.3532550962
0.3846154615 0.6246318077 -0.4953282885 -0.4615384615 0.3076923077 0.3522655192
-0.4230769231 1.5142932308 0.2552760962 -0.4616936154 0.3076923077 0.3556236731
-0.3515530000 0.1269519615 0.3705083269 -0.4972186538 0.3101668846 0.3154805192
-0.3266857692 0.9705605769 0.0155643654 -0.5356600000 0.2935897692 0.3540870192
0.3846153846 1.0053596538 0.4980483269 -0.4615680000 0.3082253077 0.3520878654
-0.1986516538 0.7692307692 -0.4533508654 -0.4972092308 0.3453767308 0.3504744423
-0.4529563077 1.2136048462 -0.3877599423 -0.5375439615 0.3038542692 0.3514358654
-0.4230769231 1.6418665385 -0.5547383269 -0.4617616538 0.3076923077 0.3490158654
-0.3595897692 1.0528205769 -0.3297854808 -0.5357468077 0.2938337308 0.3518918654
-0.3010658462 1.1372799615 -0.1273150962 -0.4641971538 0.3215257308 0.3523967500
-0.5000000000 1.6832134615 -0.1221846346 -0.5384615385 0.3076923077 0.3522655192
-0.4230769231 1.1936039615 -0.0473751731 -0.4636554615 0.3165796923 0.3526534038
0.0324443077 0.0567406154 0.2753424423 -0.4970826923 0.3149301538 0.3147937885
-0.4978736538 0.1663974615 -0.5474215962 -0.5308917308 0.3094486154 0.3696302115
-0.1394260769 0.7024569231 -0.2816580962 -0.4956361923 0.2695011538 0.3526977885
-0.3167012692 0.2400147692 -0.6477344808 -0.4970866154 0.3073972692 0.3164418269
-0.4624436923 0.2728500769 -0.1576921346 -0.5376967308 0.3133427308 0.3548784808
-0.5000000000 1.5401213846 -0.5470027885 -0.5383069231 0.3076923077 0.3489304808
0.0623865385 0.7962598846 -0.3461335192 -0.5045859231 0.3457985769 0.3507970192
-0.4050969231 1.1538461538 -0.6042916731 -0.4943840000 0.3450218846 0.3550735192
-0.4707959615 0.2023166538 -0.2495668654 -0.5379715000 0.3095503077 0.3546295962
-0.3419002692 0.2111521538 -0.6477344808 -0.4979691154 0.3108949615 0.3168486731
0.3919756923 0.7692307692 -0.4733772885 -0.5036619231 0.3312166923 0.3522655192
0.1687300769 0.8095527692 -0.4939408654 -0.5044506538 0.3457853846 0.3497506346
-0.4182762692 1.1995368462 -0.4047111346 -0.5356050000 0.2943801923 0.3485900577
0.0790284231 0.7983401154 -0.0248189808 -0.5045123846 0.3457630769 0.3533019038
-0.4230769231 0.1501055385 -0.2686881731 -0.4622138077 0.3075587692 0.3500667115
0.3846153846 0.8536497692 0.3934812115 -0.4615384615 0.3076923077 0.3522655192
-0.4230769231 1.6359263077 -0.2411851346 -0.4616241923 0.3076923077 0.3525559038
-0.4893568077 0.2968608846 -0.4537362115 -0.5379342308 0.3131405000 0.3544202115
0.3021900385 0.0455021154 0.3522655192 -0.4944877308 0.3221712692 0.3174169038
-0.2939253077 1.1194286538 -0.4643257500 -0.4642593846 0.3215857308 0.3499631731
0.4663579615 0.7692307692 0.0802759423 -0.4994285385 0.3372593462 0.3547804038
-0.1527036923 0.7009816538 0.2611226731 -0.4956531538 0.2694963077 0.3528210962
-0.4230769231 1.4811126154 -0.2672647885 -0.4618472692 0.3076923077 0.3503906731
-0.3522307692 1.2651923077 -0.4528185577 -0.4644005769 0.3217882308 0.3493418654
-0.1210799615 0.1001953077 0.3522655192 -0.4972768462 0.3163721538 0.3151487500
-0.4602061538 1.2307692308 -0.3303648654 -0.5359147308 0.3082879615 0.3519129038
-0.2204846923 0.2151531154 -0.5708114038 -0.5093165000 0.3018150769 0.3851583654
-0.4943563462 0.2139239615 -0.6477344808 -0.4968726923 0.3086460385 0.3172343269
-0.0255990385 0.7151043846 -0.5586956346 -0.5038211923 0.3450595769 0.3452135962
-0.1774643077 0.6538461538 -0.2477213269 -0.4928198462 0.2747372308 0.3516918269
-0.5000000000 1.3527076538 -0.3624338654 -0.5249830385 0.2834341154 0.3507364038
-0.0211984231 0.7858117692 -0.0901926346 -0.5044771154 0.3457429231 0.3532057115
-0.4230769231 1.5529368462 -0.3953742115 -0.4618088462 0.3076923077 0.3497805192
0.1507898462 0.7358271154 -0.0757310577 -0.5045927692 0.3458594231 0.3522184808
0.3846153846 0.6913762692 0.3823787500 -0.4615384615 0.3076923077 0.3522655192
0.3452885000 0.3076923077 0.4116751731 -0.5000000000 0.3444231923 0.3522655192
-0.0814713077 0.1156794615 0.3522655192 -0.4974620769 0.3161134231 0.3150868269
0.0535445385 0.3076923077 -0.6098844038 -0.4990745000 0.2748546538 0.3624458269
-0.0961241923 0.7005536923 -0.0032978269 -0.5016981538 0.3460562692 0.3523670192
-0.3109468846 1.1619826154 -0.2091669808 -0.4642531538 0.3216638462 0.3516572115
-0.1314597692 0.2422168077 0.3793160577 -0.4981511923 0.3060640769 0.3154844038
-0.5000000000 1.6232264615 -0.4966767115 -0.5384615385 0.3076923077 0.3522655192
-0.2023221923 0.1477987308 -0.5936105962 -0.5118513462 0.3268074615 0.3546973654
0.2527054231 0.3069425385 -0.5708113269 -0.4993057308 0.3050217308 0.3900342885
0.0628335769 1.0547854231 -0.6457727115 -0.5025437692 0.2693180385 0.3519203269
-0.1293494615 0.6698598077 0.2681887115 -0.4941560000 0.2701116923 0.3534007115
0.2109875385 0.7413917692 -0.3750530192 -0.4942489231 0.2699399231 0.3504834423
0.2015353846 0.8136534231 0.2045774423 -0.5044844231 0.3457601538 0.3547031731
0.3838483462 0.7605985385 0.0407268654 -0.4945874231 0.2698249231 0.3537158654
-0.4779267308 1.5059826154 0.2753424423 -0.5162220769 0.3076923077 0.3561300192
-0.3076923077 0.7133662308 -0.4962581346 -0.4615384615 0.3076923077 0.3522655192
-0.4871496538 0.2138656154 -0.4294575192 -0.5357358846 0.3102324615 0.3593131346
