0.0027682014 1.2099878063 0.1894467829 -0.5000008793 0.0026228074 0.4974480767
-0.4644151353 0.3773578394 0.0249954163 -0.4996435129 -0.0000657724 0.4995276887
0.4941720347 0.5588425797 -0.0090773731 -0.4978915162 -0.0000132994 0.4966305659
0.4664460539 1.1485892507 0.0156385858 -0.4988988691 0.0013446298 0.4986882617
-0.3377392362 1.2099877249 0.2604271296 -0.5001660439 0.0026142823 0.4975194239
-0.2011646789 1.1784913775 -0.3236217402 -0.5000184937 0.0026186551 0.4973069779
0.3237561368 1.2099878877 -0.3095339887 -0.4997245690 0.0025731716 0.4972114256
0.0066216294 1.0575618680 0.4960447848 -0.4988554880 0.0000348665 0.4994864415
0.0392770192 1.2099878063 0.4011182413 -0.4999882545 0.0026206341 0.4975261143
0.4769985308 0.3270590610 -0.0319754344 -0.4991836861 -0.0000572920 0.4949432365
-0.3333720070 1.1784913775 -0.2428733746 -0.5002032596 0.0026092482 0.4972665969
0.4592329281 0.1710575772 -0.0266604304 -0.5005772482 -0.0000695284 0.4953377713
-0.0625045304 1.1784913775 0.4196259471 -0.5000871847 0.0025788751 0.4976843865
0.3348669850 1.1784913775 0.0239010965 -0.5000948830 0.0026223139 0.4974161734
-0.0756279217 1.1364961391 0.0147053860 -0.4996580118 -0.0023008456 0.4984572905
-0.1224544865 1.1784913775 0.2598504930 -0.5000863396 0.0026206499 0.4975103241
-0.4911494248 1.0430732982 -0.0145671167 -0.5018240291 0.0000238769 0.4966004421
-0.4153897916 1.1969183605 -0.1873599713 -0.5004629188 0.0025640980 0.4972289928
0.0852737922 1.1784913775 0.0081690214 -0.4999790969 0.0026241486 0.4973773619
0.2528300585 1.2099877249 0.2422653754 -0.4992873093 0.0024521256 0.4973438471
0.4740206694 0.5008190581 0.0293592412 -0.4994166730 -0.0000649404 0.4998484142
-0.2790928018 1.2099878063 -0.2076564800 -0.4998931982 0.0025620245 0.4978858849
-0.4609305515 0.5156952676 0.0237509504 -0.4993676226 -0.0000565256 0.4994387533
-0.2627375725 1.1784913775 -0.0597545628 -0.5001411276 0.0025918595 0.4971759501
-0.2483822089 1.1784913775 -0.0681003762 -0.5005043129 0.0025427067 0.4971317843
0.3070926231 1.2099878063 0.0354704776 -0.5001056364 0.0025970249 0.4975172008
0.0496059370 1.1784913775 -0.0494101067 -0.4999761966 0.0026202535 0.4974403994
-0.2088010327 1.1784913775 -0.0380711718 -0.5000618091 0.0026171669 0.4973168310
-0.0196624003 0.9347722844 0.4873550723 -0.5014011423 0.0000161183 0.4988932509
0.0781363209 1.2099878063 -0.2400929565 -0.4999796218 0.0026240567 0.4973709130
-0.0211603809 0.6249701719 0.4861067481 -0.5018454598 -0.0000133230 0.4988063759
-0.0050079046 1.1784913775 -0.3377432927 -0.5000043150 0.0026231932 0.4973418182
0.0686254598 1.1784913775 -0.3777230667 -0.4999791520 0.0026178388 0.4973295503
0.0191195252 0.3102650077 0.4454075431 -0.4982922636 -0.0000475990 0.4957359072
-0.4457930030 0.4561883429 0.0183446698 -0.4981681992 -0.0000398929 0.4990506806
0.4507784205 1.2099878063 -0.0677980814 -0.4983694771 0.0018739929 0.4970688728
-0.0067271608 0.1898342363 -0.4422412596 -0.5004592311 -0.0000514835 0.4995139799
0.1136454971 1.2099878063 -0.0329142038 -0.4999714931 0.0026244819 0.4973986824
0.0191156800 1.1464299264 0.4648265036 -0.4984484859 0.0012323896 0.4983583497
0.0568426930 1.1784913775 0.0653958330 -0.4999715955 0.0026197942 0.4974705415
-0.1928451597 1.2099878063 -0.3797239535 -0.5000288166 0.0025930327 0.4972049006
0.2340517564 1.2099878063 -0.2098203686 -0.4998490009 0.0026092088 0.4972581978
-0.1828164133 1.1784913775 0.0608710875 -0.4999103349 0.0026186393 0.4974117928
0.4185188017 1.1886396712 0.1860949776 -0.4994664741 0.0025535730 0.4976373754
0.4775651541 0.5965691518 0.0286373825 -0.4991415990 -0.0000504074 0.4998164454
0.4518349314 0.8029927277 0.0214357529 -0.5011580423 -0.0000296408 0.4992693787
-0.0228496814 0.2457456520 0.4485353511 -0.5017896481 -0.0000517644 0.4959811042
-0.2875635695 1.2099878063 0.2587180835 -0.5000065880 0.0026154766 0.4974884813
-0.2160320405 1.1784913775 0.0992752632 -0.5000965785 0.0026125710 0.4974419585
-0.3833157157 1.1472507863 0.0224590246 -0.4999881810 -0.0009111759 0.4991441803
-0.0151712982 1.1364961391 0.0911015830 -0.5009224307 -0.0023100268 0.4972248982
0.3580040647 1.1364961391 -0.0095416305 -0.5000645808 -0.0022912235 0.4968136992
0.2539598616 1.1784913775 0.1253425844 -0.4999011038 0.0026199727 0.4973996089
-0.4939373233 0.3659812191 -0.0103852807 -0.5020555357 -0.0000149713 0.4963225360
-0.0192910574 1.2099878063 0.0490344566 -0.5000058505 0.0026232378 0.4974286145
-0.0283201596 0.8807171763 0.4638527337 -0.5021870359 -0.0000072940 0.4971706141
-0.0138387605 0.1932642997 -0.4932102112 -0.5008332249 -0.0000470767 0.4955631624
0.4796680080 0.6893156725 0.0258335783 -0.4989818359 -0.0000274964 0.4996498476
-0.1356998687 1.2099878063 -0.0846316443 -0.5000310109 0.0026195527 0.4973483380
0.0836650728 1.2099878063 0.2300598846 -0.4999693461 0.0026181538 0.4975322902
0.2254362469 1.1784914589 -0.1089761843 -0.4999003899 0.0026119647 0.4973512908
0.1897608640 1.1784913775 -0.2351328726 -0.5003120561 0.0026016470 0.4972794107
0.2356949198 1.2099878063 -0.0300601339 -0.4998616756 0.0026110329 0.4973614772
-0.4422565472 0.4649886026 -0.0137414116 -0.4978859256 -0.0000535938 0.4963504786
0.4905931873 0.6614387031 0.0112665928 -0.4981590101 0.0000005906 0.4985374961
-0.0301813545 0.9973199479 0.4690641276 -0.5023234968 0.0000043964 0.4975762199
-0.1808308259 1.2099878063 -0.2539404900 -0.4999269493 0.0026234504 0.4973997480
0.0508824453 1.2099878063 -0.2414568936 -0.4999850366 0.0026237286 0.4973501201
-0.1957323664 1.1784912961 -0.3732927607 -0.5000260161 0.0026009462 0.4972630430
0.0285979056 0.8040902522 -0.4745294719 -0.4976076783 -0.0000168348 0.4969789295
-0.0071133228 0.0601350003 -0.4422412596 -0.5004916251 -0.0000559114 0.4995141768
0.1432603476 1.2099878063 -0.4273212753 -0.4997616586 0.0025086092 0.4967669900
-0.2280103476 1.1962930252 0.3969223370 -0.5001657316 0.0026045053 0.4976812788
-0.3076281883 1.1784913775 -0.0139576004 -0.4995212727 0.0025480033 0.4974519192
-0.0480869299 1.2099878877 -0.2982526871 -0.5000107429 0.0026237785 0.4973720312
-0.2532238872 1.2099878063 -0.3652017428 -0.5001444085 0.0026052534 0.4971722913
-0.4939122416 0.3439163539 -0.0104229268 -0.5020533729 -0.0000163309 0.4962966486
0.3763108180 1.1784913775 0.0980944752 -0.4998164966 0.0026038623 0.4974718197
-0.3224436255 1.1784913775 -0.2318344537 -0.5000872294 0.0026104214 0.4972464077
-0.4607425939 0.3152432938 -0.0262662998 -0.4993542786 -0.0000607881 0.4953714672
0.0247584542 0.9661512079 -0.4830607153 -0.4978686865 0.0000125697 0.4963213365
0.2186379579 1.2099878063 -0.2168756999 -0.4999348129 0.0026141852 0.4973289467
0.0134783941 1.0102730091 0.4903308391 -0.4984566750 0.0000281998 0.4990976286
-0.0643296802 1.2099878063 -0.0766175250 -0.5000169687 0.0026239281 0.4974265672
-0.1514001035 1.2099878063 -0.4183626201 -0.5001289805 0.0025195883 0.4968158777
0.4516348451 1.0784434229 0.0213642639 -0.5011767879 -0.0000230081 0.4992603392
0.0050556033 0.7283893599 0.4396587519 -0.4994595554 -0.0000318245 0.4952911199
-0.4999024503 0.2650356084 -0.0011449136 -0.5025547751 -0.0000164595 0.4971151752
-0.2038832590 1.1784913775 -0.0735269222 -0.5000386724 0.0026189202 0.4973031485
0.3631352424 1.1784913775 0.0429853365 -0.4999262117 0.0026143742 0.4973863095
-0.0837889876 1.1446563625 -0.0237442836 -0.4998486570 -0.0011316956 0.4959066493
0.3566679232 1.1991186171 -0.2883286715 -0.4996016830 0.0025552580 0.4970406677
-0.3366438560 1.2099878877 0.0519745511 -0.5002187716 0.0026035552 0.4973525270
-0.4922148151 0.9148136379 -0.0129690509 -0.5019128779 0.0000169556 0.4966258020
0.2365686465 1.2099878063 0.0259013034 -0.4998662320 0.0026117600 0.4973925957
0.1049186503 1.1784913775 0.1377156047 -0.4999731703 0.0026243796 0.4973926639
-0.4638240234 0.6490706880 0.0247843535 -0.4995988904 -0.0000392892 0.4995123552
-0.2199912807 1.2099878063 -0.0224653344 -0.5001107126 0.0026120093 0.4973801284
0.1669292865 1.1364961391 -0.0076137157 -0.5002018396 -0.0023001291 0.4969670580
-0.0252048085 1.1475468344 -0.2934436706 -0.5017560099 -0.0008775535 0.4974479481
0.0720033783 1.1784913775 -0.0425502186 -0.4999828948 0.0026239911 0.4973671466
-0.0267691941 0.8134248935 0.4814327043 -0.5021686761 -0.0000041050 0.4984887502
-0.1314295619 1.2099878063 0.4053365869 -0.5000843186 0.0024167918 0.4974597960
-0.0248543740 1.2099878063 0.4050707964 -0.5000111261 0.0026231879 0.4974782555
-0.1584182270 1.2038520185 -0.3408762267 -0.4993135170 0.0021980675 0.4986191454
-0.4095294978 1.1670071837 -0.0215349798 -0.5002900506 0.0011819639 0.4957498207
0.0397080347 1.2099878063 0.0581093757 -0.4999852360 0.0026207391 0.4974554993
-0.2284963506 1.2099878877 -0.1727500116 -0.5001351381 0.0026115316 0.4973289650
0.4815936025 0.8604885135 -0.0258485810 -0.4988332122 0.0000070290 0.4953113852
-0.2094931509 1.1784913775 -0.2370410837 -0.5000595361 0.0026170934 0.4972729486
-0.4422565472 0.9751750634 -0.0167513520 -0.4978794872 -0.0000431396 0.4961033576
0.4396434591 0.3504694982 0.0075021947 -0.5021116781 -0.0000535203 0.4981467436
0.0216067352 1.2099878063 0.4038024799 -0.4999952388 0.0026216472 0.4975101141
0.0511749290 1.2099878063 0.1334950780 -0.4999813436 0.0026200541 0.4974818513
0.0055827801 0.7987190166 0.4969105192 -0.4990035370 0.0000071287 0.4995428044
-0.2811115313 1.1577672995 -0.0302997929 -0.4999660915 0.0000667252 0.4951654071
0.0109612231 1.2099878063 -0.4028677603 -0.4999938005 0.0026232509 0.4973191355
-0.0101919071 0.3048092251 0.4396587467 -0.5007529326 -0.0000547487 0.4952909807
-0.0394027372 1.2099878063 -0.4305998305 -0.5000584206 0.0026028518 0.4972722295
0.3624641690 1.2099878063 0.1792287220 -0.4998862034 0.0026074817 0.4974786046
0.0198403813 1.2099878063 0.3381334652 -0.4999953884 0.0026217732 0.4974948620
0.0182399927 0.8866997314 -0.4879495123 -0.4984255670 0.0000113492 0.4959542614
0.2368225602 1.2099878063 -0.0928931130 -0.4998601139 0.0026111406 0.4973205161
-0.4624605036 0.0000000000 0.0083782417 -0.4994888418 -0.0000847621 0.4981271974
0.1317121925 1.2099878063 -0.0809285226 -0.4998468880 0.0026139674 0.4973358549
-0.0095861153 1.1784913775 0.0101499237 -0.5000024305 0.0026231092 0.4974164726
0.1323248347 1.2099878063 0.0078992860 -0.4998620876 0.0026152272 0.4973895773
-0.3552847549 1.1922942937 0.2841349378 -0.5003100666 0.0025931404 0.4976561631
0.4396434591 0.3882656380 0.0146131120 -0.5021143553 -0.0000583366 0.4987466167
-0.4689264108 0.4692302345 -0.0291891317 -0.5000031103 -0.0000545649 0.4951622653
0.0204237871 1.1784913775 -0.3516844599 -0.4999982861 0.0026233822 0.4973270726
0.0026817332 0.3377099590 -0.4996182567 -0.4993496197 -0.0000158086 0.4950794166
-0.2503058612 1.2099878063 0.3339555007 -0.5000944762 0.0026090041 0.4975929314
0.0151289251 0.7005825566 0.4889553612 -0.4983600728 -0.0000093151 0.4990006144
-0.2719799003 1.1750733693 0.0055445998 -0.4999077076 0.0022779792 0.4979233473
0.1575723773 1.1784913775 0.3835776492 -0.4999067312 0.0026158283 0.4974451396
-0.4422565472 0.6996309734 0.0065303462 -0.4978888154 -0.0000321185 0.4980662807
-0.0108769597 0.8365048623 0.4396587467 -0.5008034686 -0.0000418640 0.4952850568
-0.1571783675 1.2099878063 -0.1274811866 -0.4999365688 0.0026193428 0.4973306055
-0.4422565472 0.8173671545 -0.0140083044 -0.4978820568 -0.0000449008 0.4963327881
-0.0078666990 1.1784913775 -0.1310148576 -0.5000032258 0.0026231433 0.4973862570
-0.2180845106 1.1784913775 0.2789980724 -0.5001092454 0.0026098702 0.4975653484
-0.3704122771 1.2099877249 -0.1113172141 -0.5002420711 0.0026060486 0.4973030802
-0.0004376232 0.8068491215 -0.4422412596 -0.4999308128 -0.0000355516 0.4995162450
-0.4757036102 0.2007161632 0.0290270668 -0.5005386178 -0.0000775810 0.4998160412
0.0297126509 0.5396365456 -0.4793449793 -0.4975209581 -0.0000623472 0.4966061666
-0.4890155890 0.0000000000 0.0010870992 -0.5016387697 -0.0000762161 0.4973199439
0.0194440487 0.7789072695 0.4463161967 -0.4982672948 -0.0000319899 0.4958070314
-0.1653857673 1.1784913775 -0.0946182984 -0.4998895630 0.0026190278 0.4973738894
-0.4709598045 0.8508969901 0.0273328424 -0.5001685059 -0.0000061969 0.4996938167
-0.0958327574 1.2099878063 0.0657308894 -0.5000299898 0.0026243008 0.4974091891
-0.3594063487 1.1967325316 -0.2814183236 -0.5003098015 0.0025892348 0.4971340678
0.0074992800 1.1364961391 -0.3003565015 -0.4994102845 -0.0022990005 0.4975106469
0.2219447076 1.2099878063 -0.2580129914 -0.4999109517 0.0026125290 0.4972872953
-0.2531247653 1.2001908290 -0.1151305130 -0.5003099249 0.0025790719 0.4970554553
0.0205676838 1.1784913775 -0.4431369341 -0.4999919527 0.0026169832 0.4972913531
0.4713102600 1.1577264487 -0.0059431976 -0.4984409163 0.0018158085 0.4970519749
0.4846032621 0.3535363528 0.0192532000 -0.4986129603 -0.0000540321 0.4992587329
-0.0152406639 1.1658117762 0.0643263035 -0.5008919185 0.0014340954 0.4971169521
0.0041725852 0.4638929599 0.4396587467 -0.4995350970 -0.0000416908 0.4952907944
0.3437203109 1.1825484194 0.3023930317 -0.4995796644 0.0025553525 0.4977903746
-0.0075211490 0.5598377750 0.4974727699 -0.5006354798 -0.0000028373 0.4995808180
0.4885722767 0.4957389439 0.0139611018 -0.4983117757 -0.0000155540 0.4989442725
-0.0019527064 0.6499223462 0.5021131256 -0.4999582567 0.0000078846 0.4998973098
0.0576440881 1.2099878063 0.0681254658 -0.4999782517 0.0026197076 0.4974743788
-0.2479773066 1.1854770203 -0.1207920722 -0.5005057250 0.0025447172 0.4970155205
-0.0015904975 0.0162144455 0.4396587467 -0.5000247851 -0.0000605256 0.4952904348
0.0501672769 1.2099878063 -0.0222114207 -0.4999804486 0.0026201695 0.4974486672
-0.0823840395 1.1784913775 0.2295909998 -0.5000240265 0.0026240856 0.4974243730
-0.0254282074 1.0956411187 -0.4583377458 -0.5019741778 0.0000075985 0.4982472277
0.4872203555 0.6430644240 0.0157637028 -0.4984125222 -0.0000035066 0.4990042023
-0.0136993074 1.0722838448 0.4923242717 -0.5006248577 0.0000306382 0.4992323520
-0.0044221367 0.4662295041 -0.5002727499 -0.5002010260 -0.0000105854 0.4950301956
0.0000462984 0.7719968401 0.5015242395 -0.4996025387 0.0000149923 0.4998575797
0.0390337171 1.1784913775 0.2701983953 -0.4999788711 0.0026207129 0.4974973082
0.1355748331 1.1784913775 -0.0079611476 -0.4999114320 0.0026189491 0.4974179031
-0.0353392464 1.1870832568 -0.4583512026 -0.5000685887 0.0025727149 0.4970645473
0.0562815159 1.1784913775 -0.1112812084 -0.4999874460 0.0026238074 0.4973550152
0.0262162244 0.9771751496 0.4797159390 -0.4977159000 0.0000224071 0.4983759510
-0.0141337665 1.1720778069 0.3266099928 -0.5009314150 0.0019795348 0.4973856927
-0.0933685345 1.1784913775 0.0883526876 -0.5000280974 0.0026242614 0.4974118925
-0.1406346032 1.2099878063 0.3598502187 -0.5000403548 0.0024059492 0.4966803276
-0.1278161105 1.2099878063 -0.3606258157 -0.5002900454 0.0024000987 0.4981021840
0.3595272373 1.2099877249 0.0706257730 -0.4999461674 0.0026150382 0.4973812832
0.4396434591 0.4272268254 -0.0076432725 -0.5021114943 -0.0000425595 0.4968633980
0.1839020637 1.2099878063 0.2048233552 -0.5001934379 0.0026119280 0.4975364451
-0.0252191472 0.4156992584 0.4551699163 -0.5019626475 -0.0000400241 0.4964965879
0.4469564679 1.0077453078 -0.0222759805 -0.5015369339 -0.0000144490 0.4956540873
0.4628352455 0.5372118928 0.0253644363 -0.5002911372 -0.0000377117 0.4995595133
0.2872232873 1.1784913775 0.2680117558 -0.4997812862 0.0025993583 0.4975581777
-0.1185400605 1.1393971045 0.0185321837 -0.4997188393 -0.0019272717 0.4987566640
0.1912499154 1.2099878063 -0.1771895697 -0.5002696278 0.0026022192 0.4973407526
-0.0912940747 1.1784913775 0.1151068618 -0.5000273284 0.0026242273 0.4974142495
-0.4870230356 0.2819530962 0.0181741796 -0.5014731588 -0.0000553235 0.4990133337
-0.0338117877 1.2099878063 -0.4102830564 -0.5000059581 0.0026236158 0.4973412381
0.1753892404 1.1479851387 0.0228261601 -0.5001036574 -0.0010085786 0.4991666006
-0.4891664988 0.1041228497 -0.0175415344 -0.5016514076 -0.0000737410 0.4958384595
-0.0268155700 0.2881444122 0.4596398370 -0.5020791108 -0.0000675021 0.4968412560
0.0216384967 1.1784913775 0.1665037868 -0.4999884986 0.0026217391 0.4974605414
0.0259227407 1.0595908680 -0.4670390411 -0.4978054260 -0.0000022494 0.4975687316
-0.0346943649 1.1784913775 0.0399832859 -0.5000076904 0.0026234504 0.4974368771
0.3843592239 1.2099878063 -0.0265325103 -0.4997938086 0.0026056313 0.4973666453
-0.1666709843 1.1784914589 -0.1693668070 -0.4998884738 0.0026195554 0.4973450755
-0.2499900071 1.2099878063 0.1937607648 -0.5003227045 0.0025797176 0.4970894032
-0.0232047223 0.6935548608 0.4495294860 -0.5018101496 -0.0000360608 0.4960543964
0.0050499156 1.1830292570 0.4576260394 -0.4999959055 0.0026225501 0.4975063713
0.4815348879 0.2630907301 -0.0259269967 -0.4988443278 -0.0000645152 0.4953054770
0.0657763584 1.1784913775 0.2963482187 -0.4999651754 0.0026191905 0.4975262298
0.0614689226 1.2099878063 -0.0081810609 -0.4999761126 0.0026195160 0.4974621634
0.0973710272 1.2099878063 -0.4253654048 -0.4998228536 0.0025265779 0.4968534818
-0.1745042616 1.2099878063 0.2081797065 -0.4998537070 0.0026164871 0.4975007308
-0.0290363307 0.2831421152 -0.4684405455 -0.5022358947 -0.0000735862 0.4974613209
0.0091981921 0.7239503215 0.4938976758 -0.4987271269 -0.0000048373 0.4993368466
-0.0322775993 1.1784913775 0.1586197871 -0.5000061733 0.0026233664 0.4974600820
0.0223777756 0.0491721485 -0.4848461350 -0.4979569395 -0.0001087834 0.4961962721
-0.4289696527 1.2009290265 0.1504283639 -0.5012152293 0.0022134719 0.4977978996
-0.0017492132 1.2099878063 0.3003209552 -0.5000031995 0.0026228914 0.4974713079
-0.0245947699 0.5338034963 -0.4560042069 -0.5019144789 -0.0000495071 0.4984355501
0.1192976834 1.2099878063 0.2078109884 -0.4995965885 0.0025716913 0.4975855192
0.2596651142 1.2099877249 -0.2516296967 -0.4998403026 0.0026124135 0.4972984555
0.0185514976 0.8190106381 0.4438172254 -0.4983325082 -0.0000275672 0.4956132575
0.0053923422 0.5576778103 -0.4975852489 -0.4993287822 -0.0000026903 0.4952313869
-0.0347968910 1.1784913775 0.3992338100 -0.5000081182 0.0026233323 0.4974698801
0.4396434591 0.0614395666 -0.0084963323 -0.5021120377 -0.0000551660 0.4967920402
0.2080986990 1.2099878063 0.1429642877 -0.5000075093 0.0026189176 0.4974793972
0.4506970389 1.0325277111 -0.0236118805 -0.5012424213 -0.0000065749 0.4955577896
0.0440525549 1.2099878063 -0.0559184368 -0.4999825772 0.0026205317 0.4974359584
0.1279644140 1.2099878063 -0.4108281336 -0.4997777113 0.0025179479 0.4968921227
0.3095580874 1.1784912961 -0.2775650531 -0.4994703875 0.0024574039 0.4972951641
0.2680186154 1.1784914589 -0.2381616768 -0.4997699238 0.0025873240 0.4972355834
-0.1024768555 1.2099878063 0.0438646302 -0.5000318219 0.0026244032 0.4974029134
0.0041081068 0.4096371618 0.4396587467 -0.4995407086 -0.0000436567 0.4952907235
0.2586647509 1.1784913775 -0.2862206917 -0.4997890107 0.0025912506 0.4971995751
-0.3498353714 1.2099878063 0.2347818922 -0.5002037058 0.0026095789 0.4975285842
0.0267364719 0.2066944531 -0.4693174744 -0.4977424226 -0.0000932924 0.4973931469
0.4601838709 0.9227014408 -0.0270000117 -0.5004974100 -0.0000072809 0.4953132067
-0.0212088014 0.2243572671 -0.4876827008 -0.5016039294 -0.0000591240 0.4959794113
-0.0485791823 1.2099878063 -0.4441620483 -0.5000792109 0.0025708251 0.4970816105
0.0191193257 0.9136106213 -0.4479895232 -0.4983034790 -0.0000375280 0.4990696099
-0.2033360978 1.1784913775 -0.4095634418 -0.5001640387 0.0025804683 0.4970539618
-0.0152034167 0.4198293904 0.4910708976 -0.5015021802 -0.0000238428 0.4991436607
0.3742402454 1.1784913775 0.0803970781 -0.4998361267 0.0026059830 0.4974506935
0.4419591369 0.9537135884 -0.0204912012 -0.5019298413 -0.0000206065 0.4957830809
0.1910136214 1.2099878063 -0.1051063756 -0.5003152136 0.0025965183 0.4973662437
0.0889787171 1.1784913775 0.2164370912 -0.4999541438 0.0026179149 0.4975300724
-0.1297582039 1.2092383960 -0.3418066627 -0.5003179564 0.0023853715 0.4984453875
-0.3173686768 1.2099878063 -0.1624674329 -0.4995975255 0.0025704314 0.4973910261
0.4829817262 0.0777633205 -0.0239978010 -0.4987361690 -0.0000743998 0.4956836205
-0.0241325152 0.1308399999 -0.4854900559 -0.5017903331 -0.0000710454 0.4961449198
0.1594169893 1.2099878063 -0.1964328483 -0.5000142311 0.0026199753 0.4972878255
0.4432003613 1.1855717773 0.1271339306 -0.4992883697 0.0025142680 0.4976285617
-0.0268185753 0.0477760982 0.4596483306 -0.5020792394 -0.0001026626 0.4968393032
0.0071530896 0.0255018762 -0.4962646482 -0.4988616928 -0.0000608852 0.4953345482
0.3136748859 1.1784913775 -0.2537808503 -0.4997628030 0.0024873229 0.4974808382
0.3115380684 1.1784913775 -0.0167408585 -0.5001634638 0.0025962480 0.4973724957
-0.1794920203 1.1784914589 -0.4132218307 -0.5001714246 0.0025526176 0.4969539108
-0.1221903968 1.2099878063 0.0271572235 -0.5001240644 0.0026162404 0.4974308114
-0.1310553764 1.1784913775 -0.1397209981 -0.5000547014 0.0026190855 0.4973076577
0.4477486530 1.2086875497 -0.1176697498 -0.4984668956 0.0020672445 0.4969268160
0.3312339901 1.1784913775 -0.1608184216 -0.5006557137 0.0024584039 0.4976399450
-0.2292168262 1.2099878877 -0.1961529028 -0.5001342115 0.0026123427 0.4973178153
0.4845799521 0.8236749154 0.0192842791 -0.4986102804 0.0000064436 0.4991497316
0.4029418413 1.2099878063 0.2228534465 -0.4995660842 0.0025783895 0.4976168398
-0.0280867921 0.8126564987 -0.4825242892 -0.5022240888 0.0000011417 0.4963609328
0.0077335321 0.3825878214 0.4396587467 -0.4992334583 -0.0000428063 0.4952905240
-0.0679462156 1.2099878063 0.2807966077 -0.5000231289 0.0026238520 0.4974379033
0.1058513278 1.2099878063 -0.2692067434 -0.4999742779 0.0026243874 0.4973919553
-0.4422565472 0.2228979142 -0.0095543262 -0.4978888784 -0.0000571529 0.4967015851
0.4401841321 1.1784913775 0.0941335132 -0.4993249974 0.0025209978 0.4976074302
-0.1726085467 1.2099878063 -0.0058001802 -0.4998558881 0.0026171144 0.4973879605
-0.0465005991 1.1784913775 0.0974657750 -0.5000098033 0.0026235922 0.4974554731
0.4623390298 1.0934496733 0.0251872164 -0.5003326942 -0.0000048793 0.4995411246
-0.0041563252 0.1572853989 0.4396587467 -0.5002419109 -0.0000567828 0.4952907445
0.4966083438 1.0528504905 -0.0058289365 -0.4977054484 0.0000315096 0.4965111708
0.4086325950 1.2099878063 0.0659059072 -0.4995756171 0.0025772347 0.4974927990
-0.4876681770 0.3907960243 -0.0197889674 -0.5015284587 -0.0000402997 0.4957008096
-0.2066119101 1.1690504437 0.0175906137 -0.4999495401 0.0016846705 0.4988415889
-0.0274332596 0.4375007951 0.4613693637 -0.5021242504 -0.0000490846 0.4969767746
0.3559572011 1.2099878063 -0.2433521282 -0.4998431583 0.0026027599 0.4972593894
-0.4373186605 1.2099878063 -0.0161282188 -0.5009538510 0.0023866025 0.4974534389
0.4648427019 0.4151767274 0.0260814079 -0.5001354635 -0.0000593576 0.4996113380
-0.0853356276 1.2099878063 0.4044437471 -0.5001495293 0.0025643972 0.4977221796
0.0195087686 0.4205387530 -0.4490800005 -0.4982680796 -0.0000481843 0.4989783149
-0.0193439635 1.1784913775 0.3537207197 -0.5000033465 0.0026230882 0.4974827122
-0.0515530777 1.2099878063 -0.2451407526 -0.5000121209 0.0026238074 0.4973848738
-0.0265398292 0.5831592427 -0.4614503357 -0.5020553887 -0.0000496882 0.4980081488
0.0244952858 0.9313548379 -0.4630422335 -0.4979085846 -0.0000121183 0.4978825856
0.4905270265 0.9498417350 0.0113549429 -0.4981629445 0.0000199924 0.4982211145
0.4169241008 1.1784913775 -0.0590345492 -0.4995517297 0.0025692267 0.4974370634
0.1614646141 1.2099877249 0.0564078205 -0.5000182102 0.0026199884 0.4974360450
0.0066636430 1.1784913775 -0.0452797726 -0.4999978031 0.0026226761 0.4974035118
-0.0073291494 0.3687367655 0.4976327402 -0.5008537868 -0.0000168532 0.4995908758
0.0524263635 1.2099878063 -0.2230417637 -0.4999846324 0.0026237470 0.4973513590
0.2735555774 1.2099878063 -0.2434955078 -0.4998156619 0.0026087757 0.4972843871
0.0501074809 1.2099878063 -0.0934109563 -0.4999798790 0.0026201984 0.4974338691
-0.0048308448 1.2099877249 -0.4575940232 -0.5000052205 0.0026210121 0.4973118599
0.1965917544 1.2099878063 -0.3349280343 -0.5010472563 0.0022660158 0.4978823573
0.0244522328 1.1784913775 0.0620149512 -0.4999879474 0.0026216236 0.4974413705
0.3230002356 1.1784914589 0.2858274194 -0.4998100162 0.0025356935 0.4974031470
0.0254052570 0.2299588886 0.4630077003 -0.4978324420 -0.0000715468 0.4971009388
-0.4088971125 1.1784913775 0.1773056734 -0.5006181542 0.0024974227 0.4975828473
-0.3882063053 1.2099878063 -0.0099114904 -0.5002804783 0.0026026260 0.4974267011
0.3971403907 1.2099878063 0.0457495733 -0.4996726786 0.0025942296 0.4974599718
-0.1089193031 1.1969628965 0.2947161079 -0.5005240665 0.0025538118 0.4974631844
-0.0220154040 1.1784913775 0.4374629417 -0.5000278481 0.0026138650 0.4975232035
0.2586378372 1.2099878063 -0.3172257106 -0.4998159874 0.0026066444 0.4972125647
-0.0213395247 0.2174993633 -0.4468894370 -0.5016776074 -0.0000496777 0.4991502670
0.4896655545 0.4862542747 -0.0150860020 -0.4982312262 -0.0000297300 0.4961126438
-0.4673032029 1.0154014623 0.0260268981 -0.4998795419 0.0000087455 0.4996002854
0.1885650575 1.1784913775 0.3846484805 -0.4998871457 0.0026144346 0.4974993056
0.0591317773 1.1784913775 0.3292420837 -0.4999682490 0.0026195527 0.4975272036
-0.0587692088 1.2099878877 -0.0038711421 -0.5000160711 0.0026238205 0.4974386697
0.0435594626 1.1784912961 -0.3182500243 -0.4999919658 0.0026236551 0.4973447028
0.1704828238 1.1784913775 -0.1017352236 -0.5000522368 0.0026196131 0.4973368129
0.1034875103 1.2099878063 0.0308491326 -0.4999731729 0.0026243612 0.4973911469
0.0118170887 1.2099878063 -0.0356190856 -0.4999954461 0.0026223717 0.4974099555
-0.0131581148 1.1725656131 0.2853006469 -0.5007755313 0.0022196085 0.4973681072
-0.0288217035 1.1492713793 -0.4197643608 -0.5020466826 0.0000431947 0.4972300925
-0.1664461864 1.1784913775 0.0499531576 -0.4998911772 0.0026189044 0.4974583104
-0.3533970375 1.2099878877 -0.0210988776 -0.5002274331 0.0026053636 0.4973342302
-0.4481639990 0.3718195966 0.0191914827 -0.4983559363 -0.0000458378 0.4991112193
0.3044003162 1.1822317070 0.1210677106 -0.5000711452 0.0025963477 0.4977787419
-0.0039477873 0.4381526058 -0.5006284732 -0.5001220250 -0.0000115671 0.4950034997
-0.3805426388 1.2099878877 0.2265579515 -0.5003141743 0.0025948648 0.4975974406
0.4396434591 0.3995695698 -0.0032339903 -0.5021113342 -0.0000457512 0.4972372343
-0.2530742004 1.2099878063 -0.0206838806 -0.5003129013 0.0025795890 0.4973918687
0.4396434591 1.0812282426 0.0036048293 -0.5021182766 -0.0000318823 0.4978076399
-0.2526348357 1.2099878063 0.0729320413 -0.5003762432 0.0025632975 0.4976641264
-0.0186092516 1.1364961391 0.2758507602 -0.5011775832 -0.0023024992 0.4972738620
-0.4253513509 1.1624612123 -0.0215814370 -0.5004198448 0.0013839715 0.4958163097
-0.0327302423 1.1625976233 0.3157784077 -0.5024450966 0.0006537451 0.4973972047
0.4129727084 1.2099878063 -0.0722089253 -0.4995893154 0.0025773449 0.4973830077
0.0102250282 1.2099877249 -0.3672609426 -0.4999933201 0.0026225869 0.4973397972
-0.0389919844 1.1784913775 -0.1601337706 -0.5000102941 0.0026235974 0.4973978609
0.0178838678 0.0860460518 0.4866596207 -0.4986333175 -0.0000675388 0.4988400403
0.0291296861 0.1492094705 0.4734360786 -0.4975603522 -0.0000818382 0.4979103025
-0.3972306831 1.1359841436 0.0073607784 -0.4998602057 -0.0022588766 0.4980184744
0.0289178227 1.1633791547 0.1908254368 -0.4976976977 0.0011247873 0.4973607607
0.2519335835 1.1784913775 0.2496438049 -0.4993739087 0.0024729421 0.4972416307
-0.0343324735 1.1784912961 0.4210358585 -0.5000430477 0.0026152666 0.4974944578
-0.0204568662 0.6924832080 -0.4444179647 -0.5016148403 -0.0000297431 0.4993432850
-0.2804060743 1.2099878063 0.0417455557 -0.4999581124 0.0025976102 0.4975367522
0.0236121889 0.2652134293 -0.4605694804 -0.4979683649 -0.0000676360 0.4980767296
0.1951843260 1.2099878063 -0.3707543244 -0.4999008519 0.0023531612 0.4980587268
-0.0182150003 1.0275825251 0.4885612097 -0.5011387665 0.0000240449 0.4989758188
0.2065923456 1.1784912961 -0.1360061019 -0.5000145146 0.0026197968 0.4974451632
-0.0286799276 1.0831901210 -0.4820793365 -0.5022590761 0.0000334965 0.4963912455
0.0047973641 1.1784913775 0.0671129684 -0.4999978110 0.0026227339 0.4974251525
-0.4874291060 0.5071050313 0.0175650623 -0.5015084007 -0.0000368639 0.4991199150
0.2034120724 1.1784913775 -0.0483366926 -0.5000258454 0.0026202719 0.4974458982
0.1123352692 1.2099878063 0.0927957287 -0.4999710915 0.0026244662 0.4973981023
-0.0109466061 1.1736713058 0.3108544082 -0.5006400940 0.0022743571 0.4973765246
-0.0284674238 1.2099878063 0.0167185695 -0.5000080605 0.0026233795 0.4974268061
0.2264575186 1.1784914589 -0.3362284509 -0.4998933662 0.0026101169 0.4972082419
0.0271603588 1.2099878063 0.3791121695 -0.4999928451 0.0026213375 0.4975102060
-0.4530711794 0.9859794540 0.0209440202 -0.4987475419 -0.0000128322 0.4992376145
0.0395924926 1.2099878063 0.0789905710 -0.4999854539 0.0026207365 0.4974597146
-0.0548664758 1.2099878063 -0.3677738199 -0.5000119975 0.0026239019 0.4973612463
0.1567600870 1.1784913775 -0.0875249220 -0.5000072573 0.0026203533 0.4973639523
0.1035172666 1.1784913775 0.2073067437 -0.4999731545 0.0026243638 0.4973918319
-0.3410262009 1.1784913775 -0.0670400201 -0.5002281575 0.0026056471 0.4973874828
0.2636337272 1.2029311941 0.1730195239 -0.4993324726 0.0024635824 0.4972040948
0.0948513759 1.1784913775 0.3339266657 -0.4999502094 0.0026175317 0.4975595714
0.4202739428 1.1795208173 -0.1844847174 -0.4991912452 0.0023888834 0.4971686508
0.0075190650 0.1745889280 0.4396587467 -0.4992521750 -0.0000503234 0.4952902458
0.3705357221 1.1784913775 0.2059689197 -0.4999524141 0.0025658067 0.4974864524
-0.4913228021 0.2758131036 -0.0143070349 -0.5018348245 -0.0000377957 0.4960365563
-0.4998050319 0.9396309629 -0.0015837008 -0.5025485992 0.0000246512 0.4977527521
-0.1412390354 1.1784913775 0.3906512116 -0.4996820724 0.0023377857 0.4972783818
-0.2263309213 1.1784913775 0.0524984811 -0.5001412877 0.0026084266 0.4974688302
0.1243404297 1.1784913775 -0.1948444756 -0.4997814961 0.0026114608 0.4973031275
0.0179135847 0.2531586673 -0.4446134893 -0.4983830285 -0.0000598222 0.4993287940
0.2475136083 1.2099878063 -0.0153505720 -0.4998824002 0.0026162876 0.4973365636
0.2711746993 1.1784913775 -0.2209973830 -0.4997641416 0.0025862164 0.4972493867
0.3147536674 1.1784913775 0.0353820461 -0.5001980863 0.0025943293 0.4975067571
0.0789498526 1.1784913775 -0.2590304152 -0.4999822518 0.0026240725 0.4973716926
0.3003525658 1.1935452899 0.3447275208 -0.4995334119 0.0025140712 0.4978898482
0.0182872111 1.2099878063 -0.2038715358 -0.4999914986 0.0026220646 0.4973811835
-0.1222892011 1.2099878063 0.2403224604 -0.5001368756 0.0026148624 0.4975595005
-0.0060312577 0.1770640643 0.4987143775 -0.5009605571 -0.0000301106 0.4996637166
0.4678163979 0.9803720844 0.0271434071 -0.4998994791 0.0000013438 0.4996864596
0.2460104622 1.1784913775 0.2842361437 -0.4998804238 0.0026157810 0.4975122086
-0.4915583875 1.0107146782 -0.0139536765 -0.5018581843 0.0000222444 0.4966271905
0.4396434591 0.6808809472 0.0166346236 -0.5021181427 -0.0000525807 0.4989132774
0.0703124767 1.1784913775 0.0160086479 -0.4999764590 0.0026221643 0.4974078741
0.0319166712 1.1784912961 0.0449429314 -0.4999843279 0.0026212115 0.4974443968
-0.1722701044 1.1925831317 -0.3275299588 -0.4991386199 0.0020205746 0.4981044885
0.0194159722 0.8377247793 -0.4488201576 -0.4982806309 -0.0000380687 0.4990032811
-0.3037529334 1.1784913775 -0.2269933161 -0.4999687162 0.0026172141 0.4973527160
0.4871495463 0.5338144308 0.0158581789 -0.4984187638 -0.0000164254 0.4990570140
-0.0009868658 0.0917924335 -0.4422412596 -0.4999723881 -0.0000578511 0.4995138566
-0.4743726551 0.8924590502 -0.0311342304 -0.5004384565 -0.0000042704 0.4950230406
0.3169708218 1.1784913775 0.3098492391 -0.4996651667 0.0025780929 0.4977210457
0.1650453434 1.1784913775 -0.0459802821 -0.5000352839 0.0026198808 0.4973771651
-0.4999886587 0.7549300277 -0.0013082777 -0.5025634392 0.0000135828 0.4975931938
0.4245814574 1.1784913775 -0.1413107357 -0.4991861454 0.0023999255 0.4972357934
-0.4593755046 0.9159406379 0.0231955791 -0.4992480753 -0.0000131655 0.4993984353
-0.3682964074 1.2099878063 0.1314466920 -0.5002444044 0.0026055316 0.4974911034
-0.0009393272 1.1364961391 0.2485227525 -0.4999467789 -0.0022986146 0.4972975237
0.4695962086 0.1103089793 0.0277791179 -0.4997670157 -0.0001129226 0.4997340560
0.4434752621 0.8673366246 0.0184501618 -0.5018180657 -0.0000418745 0.4990490506
0.2168358793 1.1784913775 0.1621760279 -0.4999491779 0.0026165186 0.4975255080
0.2948229740 1.2099878063 -0.2789289088 -0.4997586770 0.0025987572 0.4971987956
0.4396434591 0.8156965970 -0.0074155481 -0.5021119064 -0.0000296513 0.4968808102
0.2842135463 1.1784913775 0.0638024129 -0.4998695812 0.0025973871 0.4975539178
-0.0209617749 0.3980551664 0.4862722461 -0.5018339294 -0.0000458483 0.4988152290
-0.4505954131 0.1855058369 -0.0226423548 -0.4985504635 -0.0000596989 0.4956308561
0.3828477444 1.1784913775 0.2228217480 -0.4997258157 0.0025899540 0.4975913093
0.0080604178 1.1784912961 -0.1370895686 -0.4999978635 0.0026226368 0.4973857216
0.0438112556 1.2099878063 0.2020316850 -0.4999848135 0.0026204504 0.4974891428
0.0852804012 1.1784913775 0.2486149662 -0.4999557396 0.0026181091 0.4975334871
-0.0158004000 1.2099878063 0.1258772887 -0.5000055460 0.0026231591 0.4974426671
0.0298054866 0.6568428702 0.4753282633 -0.4975121732 -0.0000181734 0.4980634591
-0.0313237746 0.2993590516 -0.4748453050 -0.5024009938 -0.0000661005 0.4969576641
-0.4559643862 0.8756180383 -0.0245598181 -0.4989725917 -0.0000255830 0.4954999490
0.3638354737 1.2099878063 -0.0685192971 -0.4999428471 0.0026156551 0.4973399415
0.0195826198 1.0766169108 -0.4492868165 -0.4982716623 -0.0000312550 0.4989690418
-0.4903190582 0.4203216822 0.0132301537 -0.5017503747 -0.0000367117 0.4986714373
0.0278399231 1.2099877249 -0.3189195754 -0.4999900130 0.0026234530 0.4973322879
0.4851525047 0.0156443497 0.0185208503 -0.4985752039 -0.0001005917 0.4992151418
-0.4917815423 0.6397071305 -0.0136189797 -0.5018757934 -0.0000001050 0.4962855356
0.4810397929 0.8965971534 0.0240045045 -0.4988760394 0.0000083649 0.4995356442
0.1484705839 1.1784913775 0.0682119340 -0.4999658474 0.0026195160 0.4974349243
-0.0100660710 1.1702016329 -0.4203452442 -0.5006571362 0.0021271612 0.4968125995
0.3935229340 1.1823524958 0.2383609810 -0.4995790922 0.0025688330 0.4976946228
-0.3349033818 1.2099878063 -0.2408446922 -0.5003275340 0.0025817570 0.4971185164
-0.2261323337 1.2099878877 -0.0526797299 -0.5001379570 0.0026095421 0.4973921416
-0.2104785377 1.1784913775 0.1591518878 -0.5000731610 0.0026144608 0.4974491055
0.4683303146 0.7943012042 -0.0299094681 -0.4998580403 -0.0000119686 0.4951031098
0.1592657618 1.2099878063 0.4269213442 -0.4999299099 0.0026146655 0.4976101888
0.4165393824 1.2099877249 -0.1531415214 -0.4994416681 0.0024998243 0.4972394496
0.1710868151 1.1784913775 0.1732935455 -0.5000672055 0.0026196997 0.4974928725
-0.1676736915 1.2099878063 -0.4216651230 -0.5001499125 0.0025340084 0.4968469857
0.0161516771 1.2099877249 0.2031777298 -0.4999957217 0.0026220357 0.4974634627
0.1422625066 1.2099878063 -0.0169480761 -0.4999329625 0.0026192640 0.4973948608
0.3584780125 1.2099878063 -0.1104500571 -0.4999675193 0.0026168335 0.4973469285
0.0553606522 1.2099878063 -0.3767623522 -0.4999848581 0.0026237811 0.4973530861
0.0682745817 1.1784913775 0.4397858847 -0.4999627240 0.0026189884 0.4975581383
0.2565448339 1.2099878063 0.0757164201 -0.4999026340 0.0026207942 0.4973654747
0.3975059645 1.1784913775 0.2127681509 -0.4996331138 0.0025856022 0.4976315145
0.4712073323 0.0921287130 0.0283544710 -0.4996412032 -0.0001187205 0.4997756654
-0.1094822020 1.1935137304 0.3132997070 -0.5007399981 0.0024950421 0.4972935368
-0.3152947577 1.1784913775 -0.1311306411 -0.4993094408 0.0025107719 0.4972848622
-0.0244268021 1.0239651471 0.4529512843 -0.5018962635 -0.0000219661 0.4963179927
-0.1534194131 1.1784913775 0.0991751387 -0.4999713015 0.0026197050 0.4974732344
-0.4125762261 1.1784912961 0.1077444718 -0.5005243184 0.0025562160 0.4974544547
-0.3292899334 1.1784913775 -0.0782024542 -0.5002199711 0.0026058859 0.4973842938
0.0032341806 0.6035235554 0.4396587467 -0.4996142790 -0.0000371842 0.4952910280
-0.1364542869 1.1784913775 0.1536207737 -0.5000438168 0.0026202194 0.4974812372
-0.0096605676 0.1643432814 -0.4963438670 -0.5003835661 -0.0000410084 0.4953272253
0.4563249941 1.2004127843 -0.0533475592 -0.4979311728 0.0013849767 0.4971678188
0.4257215153 1.2099878063 0.0612943759 -0.4994412429 0.0025487278 0.4975052296
0.0277096827 1.1808863554 -0.4597965213 -0.4999596505 0.0025889303 0.4971404668
0.0029873930 0.0000000000 0.4403807000 -0.4996397543 -0.0000598065 0.4953462176
-0.2397476965 1.1784913775 0.0972998492 -0.5004856408 0.0025723973 0.4974110631
-0.4141184015 1.1320868989 0.0001007125 -0.4992117756 -0.0020203306 0.4975290907
-0.1110278840 1.2099878063 0.2801350856 -0.5003460329 0.0025940196 0.4975112690
-0.4464823784 1.1784913775 0.0517161098 -0.5017148651 0.0017917242 0.4975434977
-0.4911327448 0.8187390995 -0.0145921091 -0.5018219792 0.0000102390 0.4963718463
0.4809004186 0.1856032186 0.0241903361 -0.4988943310 -0.0000950457 0.4995520932
0.0229830058 1.0000724890 -0.4588079323 -0.4980206804 -0.0000174044 0.4982172903
-0.2187735658 1.2099878063 -0.3887664732 -0.5000745022 0.0026130592 0.4972295702
-0.3483639528 1.1784913775 -0.2474255114 -0.5002115326 0.0026093295 0.4972574078
-0.0902031592 1.1784913775 -0.3538770260 -0.5002905992 0.0025804893 0.4975555897
-0.2843239833 1.1784913775 -0.2235286092 -0.4997093037 0.0024973282 0.4979252266
0.2132547064 1.2099878877 0.3605294025 -0.5005607545 0.0024073167 0.4973058677
-0.0681436195 1.1676678450 -0.0229382034 -0.4997883650 0.0019831700 0.4960347978
-0.4971085911 0.5674121097 -0.0056283672 -0.5023217015 -0.0000001522 0.4969860162
0.4396434591 0.3078240528 0.0040462990 -0.5021111348 -0.0000526647 0.4978546037
0.2520811259 1.2099878063 0.3550468874 -0.4997899319 0.0025843030 0.4976633889
-0.0260905091 1.1493182355 0.3687036628 -0.5019160039 -0.0010156338 0.4973578866
0.1976328898 1.2099878063 -0.1625586649 -0.5000543156 0.0026220934 0.4974103781
0.4340912791 1.2099878063 0.0472578087 -0.4993795440 0.0025353969 0.4975016022
0.0617187549 1.1784913775 -0.0930658079 -0.4999859027 0.0026238704 0.4973591937
0.3884055333 1.1784913775 0.0633349902 -0.4997383565 0.0025986339 0.4974777043
0.0429905951 1.2099878063 0.2777125351 -0.4999857662 0.0026204688 0.4975040432
0.4010021494 1.1784912961 -0.2224226751 -0.4997224167 0.0026052717 0.4972706389
0.0447317203 1.1784913775 0.1696154949 -0.4999768344 0.0026204346 0.4974814839
0.0002391379 0.3652072993 0.4396587414 -0.4998687833 -0.0000471738 0.4952908338
0.3690562823 1.2099878063 -0.0231549933 -0.4999074320 0.0026144608 0.4973290674
0.1034479403 1.1578346625 -0.0303334757 -0.5001014028 0.0004300260 0.4952144077
-0.4692777797 0.0367741384 -0.0293146476 -0.5000261053 -0.0001174764 0.4951532862
-0.3150181744 1.2099878063 0.0331276052 -0.4992485031 0.0024864252 0.4975514532
0.4815819882 0.8844858605 -0.0258641193 -0.4988338185 0.0000099030 0.4953105033
-0.0379301453 1.2099878877 -0.3787514645 -0.5000073308 0.0026236630 0.4973499600
-0.4961369263 0.2842643304 0.0045033463 -0.5022385851 -0.0000269557 0.4976845361
0.4528896838 1.1784913775 -0.0074006896 -0.4983775113 0.0017873541 0.4973880182
-0.0057015268 0.8972232132 0.4989891261 -0.5000309977 0.0000234806 0.4996855882
-0.4439591392 1.1640475037 0.0070735808 -0.5009738013 0.0019468494 0.4980286871
0.0133336942 1.1671357417 -0.4198042510 -0.4988524355 0.0016972481 0.4969248291
0.1531752318 1.1784913775 0.0126106635 -0.4999872177 0.0026194425 0.4974191577
0.0208579260 1.2099878063 0.0474778821 -0.4999925747 0.0026218231 0.4974356329
0.2616782557 1.2099878063 -0.0928784567 -0.4990913726 0.0024275059 0.4971142880
0.0158934746 1.1698913275 0.1534749505 -0.4986887092 0.0017609863 0.4972710720
-0.0070068281 1.1364961391 0.1311018638 -0.5003711854 -0.0023056331 0.4972241685
0.4973052915 0.1272196692 -0.0048996606 -0.4976570620 -0.0000344046 0.4975341748
0.4782087548 0.0000000000 -0.0110836274 -0.4990971680 -0.0001058595 0.4966710099
0.0197878742 0.2950963118 -0.4867886300 -0.4981107996 -0.0000643656 0.4960469370
-0.2282567941 1.1784913775 -0.2784632892 -0.5001400699 0.0026122797 0.4972708200
0.4647162228 0.2196339971 0.0260362315 -0.5001475030 -0.0000874840 0.4996080309
-0.0217128283 0.8540639665 0.4856463517 -0.5017096655 0.0000086484 0.4987765015
-0.0201606580 1.1374584547 0.3833824684 -0.5013132069 -0.0022015243 0.4973028807
-0.0267657479 1.0581073442 -0.4620828811 -0.5020707196 0.0000080185 0.4979530563
-0.3032359693 1.1882502284 0.3399948385 -0.5002321654 0.0026010433 0.4976587720
-0.4820172925 0.8767706712 -0.0282653440 -0.5010581619 0.0000001732 0.4951816671
0.2849109717 1.1784913775 0.2504198507 -0.4997996696 0.0026028413 0.4975206103
-0.2260532960 1.2099878063 -0.2195724110 -0.5001254975 0.0026113007 0.4972881010
0.1087998739 1.1783977412 -0.0014785290 -0.5003857105 0.0025822531 0.4973879237
0.2432833912 1.1784913775 0.1946668724 -0.4998809540 0.0026157390 0.4974675100
-0.0105921663 0.0437417154 -0.4422412596 -0.5007864737 -0.0000547539 0.4995143526
0.1856334959 1.1784913775 -0.3485949410 -0.5005513634 0.0023224154 0.4982790391
-0.2406288931 1.1950700635 0.1597644093 -0.5012638021 0.0022578425 0.4970085125
0.0060102706 0.9855594097 0.4396587467 -0.4993755912 -0.0000243887 0.4952888521
0.4396435405 0.1486072325 0.0150983565 -0.5021119379 -0.0000647882 0.4987908823
-0.0001076929 1.1784912961 0.3872869915 -0.4999972178 0.0026228126 0.4974892189
-0.0203443268 0.4419761594 0.4867867875 -0.5017983752 -0.0000374073 0.4988508987
-0.2216910144 1.1635457603 0.0285999358 -0.4999690941 0.0011425487 0.4996786774
0.0893205006 1.2099878063 0.3331612053 -0.4999679734 0.0026177916 0.4975589362
0.0299710134 0.3001204174 0.4757916257 -0.4974994119 -0.0000604915 0.4980954516
0.0287716819 1.1784913775 0.1490047148 -0.4999850471 0.0026213428 0.4974631871
-0.0909517296 1.2099878063 0.3257194444 -0.5000302917 0.0026241906 0.4974185094
-0.0221965898 1.1784913775 -0.1424335703 -0.5000064620 0.0026233533 0.4973920104
0.0266476415 0.7173200791 -0.4690688442 -0.4977487403 -0.0000187115 0.4974069869
0.1007355702 1.2099878063 0.3890631171 -0.4999639392 0.0026171170 0.4975812068
0.4396434591 0.0713367498 0.0166202875 -0.5021115941 -0.0000679772 0.4989204402
0.0043777214 1.1784913775 -0.2819884719 -0.5000009213 0.0026229071 0.4973524719
-0.2534163461 1.1784913775 -0.3310680367 -0.5000607199 0.0026146787 0.4972580955
0.4808356987 0.1673026412 -0.0268591965 -0.4988974964 -0.0000738486 0.4952970622
-0.4596654659 0.5837088475 0.0232991079 -0.4992675033 -0.0000523497 0.4994065010
-0.1623323329 1.2084833767 -0.2725545067 -0.4998970933 0.0026175737 0.4972451583
-0.4498258451 0.8042500494 0.0197849804 -0.4984882003 -0.0000324886 0.4991549311
-0.0262134632 1.1784913775 0.3183121982 -0.5000056851 0.0026231984 0.4974759326
-0.1556211919 1.1784913775 -0.1131451671 -0.4999482829 0.0026196157 0.4973503406
-0.0208240043 0.5867536309 -0.4454460423 -0.5016411897 -0.0000347642 0.4992628694
0.3783286866 1.1963748870 -0.2604790174 -0.4996343658 0.0025671978 0.4971050228
0.4902665405 0.6881824231 0.0117021333 -0.4981834592 0.0000021181 0.4985505409
0.0760119602 1.1784913775 0.3728173562 -0.4999593801 0.0026185790 0.4975510674
-0.3437036204 1.1784913775 -0.1363092393 -0.5002216929 0.0026070618 0.4973375898
0.1363831575 1.1784913775 -0.2486608880 -0.4999142064 0.0026198441 0.4972836548
-0.4888665741 0.2494465533 -0.0179914137 -0.5016277696 -0.0000543917 0.4958109054
0.0298630778 1.1620894705 0.0758182664 -0.4976265630 0.0009730008 0.4973158835
-0.0321308574 0.9078344020 -0.4794911594 -0.5024661782 0.0000122469 0.4965872425
-0.0263171101 0.2639843809 -0.4838514594 -0.5021191768 -0.0000644364 0.4962675931
-0.1262022256 1.2099878063 0.0581406149 -0.5000915391 0.0026190409 0.4974253625
0.0716908681 1.2099878063 -0.4516290091 -0.4998423341 0.0025353155 0.4968830097
0.1937684854 1.1784913775 0.1923126246 -0.5000931008 0.0026225948 0.4974093098
0.2852619679 1.2099878063 -0.2333095653 -0.4997962339 0.0026060171 0.4972769854
0.2214776471 1.2099878063 0.0577039117 -0.4999314034 0.0026146760 0.4974793211
-0.3134039483 1.1844725729 -0.1544927208 -0.4996518673 0.0024540206 0.4975138123
-0.4768848182 1.0532947240 0.0294489116 -0.5006418500 0.0000254255 0.4998444142
0.0213764491 0.1153974636 -0.4855971490 -0.4980164310 -0.0000957964 0.4961388515
-0.0603032345 1.2099878063 -0.1589617150 -0.5000151997 0.0026239019 0.4974073728
-0.2041470259 1.1784913775 0.0379935331 -0.5000426960 0.0026184950 0.4973389835
0.4606206529 0.9436931334 -0.0271560451 -0.5004628111 -0.0000041943 0.4953019966
0.0808361160 1.2099878063 0.0365891467 -0.4999776349 0.0026240882 0.4973738894
-0.4422565472 0.4023599565 0.0109784740 -0.4978882064 -0.0000404834 0.4984425633
-0.3710489695 1.1784912961 -0.0397830998 -0.5002489478 0.0026050618 0.4973947191
-0.4883388541 0.4863892816 -0.0187829977 -0.5015859738 -0.0000230501 0.4957624219
0.2263697275 1.1784913775 0.3221471037 -0.4998950539 0.0026138414 0.4975826005
0.1616712307 1.2099878063 0.0887937950 -0.5000184464 0.0026199937 0.4974550242
-0.4857972419 0.2014700197 -0.0225954173 -0.5013688689 -0.0000772949 0.4955289310
-0.4894802689 0.4662757225 -0.0170708308 -0.5016818332 -0.0000199950 0.4958672840
0.1382512395 1.1420561696 0.0198616769 -0.5001361118 -0.0017529232 0.4989218943
-0.0769743153 1.2099878063 -0.2130267550 -0.5000192522 0.0026241591 0.4974050525
0.2764710417 1.1784913775 0.3346558421 -0.4997699002 0.0025966023 0.4976413309
-0.3798337592 1.1364961391 -0.0100004022 -0.4999110068 -0.0022952760 0.4968101742
-0.0012923654 1.1536984806 0.0643263035 -0.5000041234 -0.0003023526 0.4970580485
0.4914193334 0.9093776798 0.0101650629 -0.4980960330 0.0000180186 0.4981487278
-0.4491490446 0.3286257878 0.0195432795 -0.4984339214 -0.0000485964 0.4991363509
0.0238609792 1.0651998412 -0.4837337127 -0.4980693529 0.0000198218 0.4962704016
-0.2708854598 1.1364961391 -0.0097919011 -0.4998849173 -0.0023002839 0.4968370381
0.0265988614 0.0617359244 -0.4689322757 -0.4977524017 -0.0001135709 0.4974248664
0.2130516542 1.1414999584 -0.0221660842 -0.5001635268 -0.0016542974 0.4959295210
-0.0315400842 0.6999187720 -0.4754509367 -0.5024157840 -0.0000173388 0.4969055218
-0.2022934820 1.2099878877 -0.3942138042 -0.5000819826 0.0025915944 0.4971401781
-0.0263026533 0.6605887247 -0.4607862309 -0.5020381287 -0.0000412866 0.4980595090
0.2165366264 1.2099878063 -0.0426332826 -0.4999581386 0.0026161511 0.4974443732
-0.0089282966 0.2798925552 -0.4968931096 -0.5004407427 -0.0000318061 0.4952854400
0.0283652179 1.1590937480 0.1241145780 -0.4977538164 0.0005919859 0.4973257892
0.0208069411 0.5217963332 0.4501324011 -0.4981682149 -0.0000457223 0.4961026778
0.0179112618 1.1381859199 0.2577474791 -0.4986671210 -0.0020762105 0.4972481898
-0.0444940640 1.1784913775 0.0282170206 -0.5000099371 0.0026235948 0.4974399926
-0.1112693041 1.2099878063 -0.2555943858 -0.5002298688 0.0026085395 0.4972749014
0.0140940390 0.9054699441 0.4898177781 -0.4984206641 0.0000154962 0.4990615652
0.2092099193 1.1784914589 -0.2773542317 -0.4999981312 0.0026178073 0.4973445978
-0.3137880866 1.1784913775 0.1214438173 -0.4989657911 0.0023943690 0.4976443572
0.0180950120 0.4975340960 -0.4880582091 -0.4982113572 -0.0000292838 0.4959488703
-0.0242603146 0.7539966284 -0.4853940968 -0.5019949576 -0.0000056064 0.4961464474
0.0178996895 1.2099878063 0.0653863001 -0.4999938871 0.0026219858 0.4974365700
0.0194152924 0.4099896410 0.4853834169 -0.4981102405 -0.0000449060 0.4987545643
-0.4969221165 0.4341420999 -0.0059080345 -0.5023056987 -0.0000083990 0.4968245812
0.2015008166 1.2099878063 -0.2989677374 -0.5000422026 0.0026209491 0.4973674511
0.2369842812 1.1784913775 0.1328952128 -0.4998686888 0.0026126051 0.4974456383
0.1054809482 1.2099878063 0.3228384030 -0.4999615219 0.0026168703 0.4975719416
-0.0257955817 0.4624882139 0.4567839115 -0.5020047372 -0.0000363705 0.4966220487
-0.4814458764 0.0826382117 -0.0291224485 -0.5010012636 -0.0001170749 0.4951291810
-0.2928868859 1.1784913775 -0.2415385953 -0.4999742517 0.0026170724 0.4973423300
