-0.5000000000 0.5846112015 -0.1281996538 -0.5500005475 0.0000000000 0.6750073913
0.4500104026 0.4929755981 0.2424675550 -0.4499994525 0.0000000000 0.6750073913
0.0346509544 0.5429887957 0.1562325607 -0.4941578860 0.0496580938 0.6750073913
-0.3550728130 0.5888387478 0.2374198997 -0.4941578860 0.0496580938 0.6750073913
-0.3892600374 0.7485763469 -0.6143899276 -0.4933917276 0.0495619427 0.6750073913
0.0567327462 0.6891106958 -0.5863230202 -0.4933917276 0.0495619427 0.6750073913
0.4453270513 0.6000065701 -0.4019622015 -0.4836670712 0.0461448553 0.6750073913
-0.5000000000 0.5938248524 0.6215279057 -0.5496689939 -0.0004182046 0.6770984142
-0.0217367630 0.6495727128 -0.5420451354 -0.5066082724 -0.0495619427 0.6750073913
-0.5000000000 0.5911347229 -0.4668447119 -0.5500005475 0.0000000000 0.6750073913
0.1766553594 0.5262825128 -0.0840054199 -0.5058421140 -0.0496580938 0.6750073913
-0.4607517702 0.0641266522 -0.5250057488 -0.4874412125 -0.0009660606 0.7097674720
0.0107691429 0.5932550461 0.5391418536 -0.5055216605 -0.0496947442 0.6750073913
-0.0575364550 0.5510833844 -0.2692913987 -0.5070711274 -0.0494977920 0.6750668920
0.4500104026 0.4521159007 0.3805332668 -0.4499994525 0.0000000000 0.6750073913
-0.3060583263 0.7374828254 -0.1335023119 -0.4933917276 0.0495619427 0.6750073913
-0.1565785895 0.7166249470 -0.4610964490 -0.4933462771 0.0495196922 0.6766125589
0.2605707282 0.6619322982 -0.0482422783 -0.4933917276 0.0495619427 0.6750073913
-0.2292154349 0.7272370632 0.5885837950 -0.4933917276 0.0495619427 0.6750073913
0.1234873272 0.6802100983 0.3726919310 -0.4933917276 0.0495619427 0.6750073913
0.4861470483 0.2615333138 -0.5262477124 -0.4644902112 0.0018165199 0.6486419526
0.0288465909 0.6428282390 -0.6104528345 -0.5066082724 -0.0495619427 0.6750073913
0.4500104026 0.5597529793 0.5011470876 -0.4499994525 0.0000000000 0.6750073913
-0.3276796131 0.7403656570 0.0334025158 -0.4933917276 0.0495619427 0.6750073913
-0.5000000000 0.5781001302 0.0314453943 -0.5500005475 0.0000000000 0.6750073913
0.4168994400 0.6000065701 0.2833145023 -0.4690337609 0.0385195218 0.6750073913
0.4000098551 0.5116823029 0.3731614861 -0.4515179191 -0.0045553499 0.6750073913
-0.4745778216 0.6617358960 -0.6250068438 -0.5000000000 0.0000000000 0.6250068438
-0.5000000000 0.6665905492 0.5486727580 -0.5500005475 0.0000000000 0.6750073913
0.3507685159 0.5057985385 -0.3835086994 -0.4941578860 0.0496580938 0.6750073913
-0.2073830458 0.5714634575 -0.4552869354 -0.5058421140 -0.0496580938 0.6750073913
0.4500104026 0.4761516139 0.4235080374 -0.4499994525 0.0000000000 0.6750073913
0.3049738145 0.6060112858 -0.5945237600 -0.5066082724 -0.0495619427 0.6750073913
-0.4503761566 0.5000054751 -0.2067694641 -0.4556762647 -0.0191250594 0.6746970879
-0.4499994525 0.7081994048 0.0391232784 -0.5352773863 0.0352773863 0.6724953638
-0.1684776198 0.6704553915 -0.5250057488 -0.5000000000 0.0000000000 0.7250079388
-0.2042458115 0.7220435064 -0.4085996742 -0.4932934766 0.0495317424 0.6742692832
0.1849662504 0.6720128085 0.2600217472 -0.4933917276 0.0495619427 0.6750073913
-0.0305732598 0.5978485964 -0.5147007860 -0.5055176104 -0.0496585438 0.6763262058
-0.1945134549 0.7226101126 -0.1972830602 -0.4933917276 0.0495619427 0.6750073913
0.0746530925 0.5321991776 0.0318548488 -0.5069106757 -0.0495199422 0.6750668920
-0.1807241039 0.5683271232 0.3915352873 -0.4941578860 0.0496580938 0.6750073913
-0.5000000000 0.6955812166 -0.0666807802 -0.4499994525 0.0000000000 0.6750073913
-0.5000000000 0.6978588916 0.2371831472 -0.4499994525 0.0000000000 0.6750073913
-0.4819248521 0.6319319697 0.3172024234 -0.5326508575 -0.0372963084 0.6755111968
-0.0163985046 0.5962736292 0.5725174191 -0.5055216605 -0.0496947442 0.6750073913
0.3858334999 0.6500071176 -0.5892909527 -0.5000000000 0.0500005475 0.6750073913
-0.3746970779 0.7463936730 -0.3807884196 -0.4932472761 0.0494971920 0.6730180195
0.4084479475 0.6000065701 0.3629276241 -0.4644138603 0.0345129279 0.6750073913
0.0769343674 0.5859032656 0.5609189921 -0.4944783395 0.0496947442 0.6750073913
0.0603809862 0.5399618126 -0.0227169488 -0.5058421140 -0.0496580938 0.6750073913
0.4500103026 0.4292876507 -0.0336104180 -0.4499994525 0.0000000000 0.6750073913
-0.3806690433 0.5972451398 -0.3018828056 -0.5070711274 -0.0494979920 0.6750073913
0.4000098551 0.4072222591 0.2131434339 -0.5500005475 0.0000000000 0.6750073913
0.2233019702 0.6669014526 0.2973907064 -0.4933917276 0.0495619427 0.6750073913
-0.4499994525 0.5005037805 0.0002149024 -0.4577214370 -0.0229712015 0.6752013935
0.2586190569 0.6289203867 -0.4750052013 -0.4969229163 0.0261551864 0.6413330726
0.0254901041 0.6432758439 0.6248191918 -0.5066082724 -0.0495619427 0.6750073913
0.4280931126 0.4808758156 -0.5250057488 -0.5000000000 0.0000000000 0.6250068438
0.1991087552 0.5536864629 -0.4750052013 -0.5000000000 0.0000000000 0.6250068438
-0.4499994525 0.5796790475 -0.1832049561 -0.4579366394 0.0184475520 0.6739089293
0.0909613710 0.6845467958 0.2048522931 -0.4933917276 0.0495619427 0.6750073913
-0.4963433600 0.5000054751 -0.2017842595 -0.4974157217 -0.0489282358 0.6751248426
0.3820884089 0.6500071176 0.5806883585 -0.5000000000 0.0500005475 0.6750073913
-0.3131651542 0.7384303858 0.2972938054 -0.4933917276 0.0495619427 0.6750073913
0.4500104026 0.4161397067 -0.1584244847 -0.4499994525 0.0000000000 0.6750073913
-0.4499994525 0.5248668973 0.0509837583 -0.4551316087 -0.0124817867 0.6754716964
0.4273684047 0.6000065701 -0.1885612147 -0.4666256846 0.0353516371 0.6750073913
0.4500104026 0.5638766244 -0.5826416799 -0.4533951897 0.0060536163 0.6743148337
-0.4499994525 0.5376844876 -0.0211696818 -0.4525864308 -0.0048769034 0.6753704953
0.4641884579 0.0004688551 -0.6250068438 -0.5000000000 0.0000000000 0.6964812765
0.0607727405 0.5399157121 0.2116263673 -0.4941578860 0.0496580938 0.6750073913
-0.5000000000 0.6140989744 -0.3628844736 -0.5378230142 -0.0293366212 0.6764742074
0.4345681335 0.5000054751 0.2107608578 -0.5000000000 0.0500005475 0.6750073913
0.1175773625 0.5332327889 0.4934437032 -0.4941578860 0.0496580938 0.6750073913
0.4514818187 0.5397060598 -0.6170120063 -0.4522856275 0.0065837721 0.6639576203
0.4500825034 0.1513607074 0.6750073913 -0.5349974832 -0.0093511524 0.6766099089
0.1736263762 0.6735247751 -0.1063196142 -0.4933917276 0.0495619427 0.6750073913
-0.5000000000 0.6350134534 -0.1378101090 -0.5406568452 -0.0225096965 0.6761328537
-0.4499994525 0.6028981017 0.6539513608 -0.4501139037 -0.0007217579 0.6759096012
0.1355042588 0.6786078308 -0.5861941688 -0.4933917276 0.0495619427 0.6750073913
-0.4001278064 0.6000065701 0.3720484239 -0.5000000000 -0.0500005475 0.6750073913
-0.2119509459 0.6806876535 0.5250057488 -0.5000000000 0.0000000000 0.7250079388
-0.0076805591 0.6932518411 -0.4750052013 -0.5000000000 0.0000000000 0.6250068438
-0.3451109540 0.5876667350 0.3629630744 -0.4941578860 0.0496580938 0.6750073913
0.3182307096 0.5000054751 0.0663932770 -0.5041770957 -0.0497246945 0.6750073913
0.4282684145 0.5000054251 -0.0288401658 -0.5000000000 0.0500005475 0.6750073913
-0.5000000000 0.2396360240 -0.6222102632 -0.5497567948 -0.0039153929 0.6750073913
0.1871789246 0.6263420084 -0.5250058488 -0.5000000000 0.0000000000 0.7250079388
0.3473963290 0.6059845355 -0.5250057488 -0.5000000000 0.0000000000 0.6250068438
0.4000098551 0.5430747467 -0.1783199026 -0.4570327295 -0.0210997810 0.6750073913
-0.4499994525 0.5882993919 -0.5978695467 -0.4500572531 -0.0005889064 0.6757434994
-0.4738348135 0.7000077151 0.2254503187 -0.5273800998 0.0397026347 0.6750073913
0.3234490668 0.6035479589 0.6490756574 -0.5066082724 -0.0495619427 0.6750073913
0.3301741904 0.5082214650 -0.5177959699 -0.4941578860 0.0496580938 0.6750073913
-0.3471179259 0.6929568879 -0.5733669284 -0.5066082724 -0.0495619427 0.6750073913
0.3757221892 0.6500071176 -0.0611564697 -0.4785495151 0.0373346588 0.6750073913
-0.5000000000 0.5823646769 -0.2900227757 -0.5500005475 0.0000000000 0.6750073913
-0.4770489487 0.7000077151 -0.0869048516 -0.5273012989 0.0397814856 0.6750073913
-0.1759392515 0.7005532211 -0.6250068438 -0.5000000000 0.0000000000 0.6250068438
0.4434076803 0.5000054751 -0.1255171244 -0.5000000000 0.0500005475 0.6750073913
0.0554742324 0.6892784476 0.3566006048 -0.4933917276 0.0495619427 0.6750073913
0.1688121235 0.5272052229 -0.1372000523 -0.4941578860 0.0496580938 0.6750073913
0.4500104026 0.4790626457 0.1476520668 -0.4499994525 0.0000000000 0.6750073913
-0.3030528934 0.7370820710 0.0693523594 -0.4933917276 0.0495619427 0.6750073913
0.1266154614 0.6792285876 -0.4665394586 -0.4934542783 0.0495303424 0.6768163111
-0.2032510506 0.5709773022 0.3338599058 -0.4941578860 0.0496580938 0.6750073913
0.1310369599 0.6292028898 -0.5410411244 -0.5066082724 -0.0495619427 0.6750073913
-0.3982877363 0.6997795626 -0.6082303601 -0.5066082724 -0.0495619427 0.6750073913
-0.4499994525 0.5275085762 -0.3115774118 -0.4525812808 -0.0035808392 0.6743758844
0.3088721071 0.6554920276 -0.1020375173 -0.4933917276 0.0495619427 0.6750073913
-0.4662292302 0.7000076651 0.4958952301 -0.5102921127 0.0457374008 0.6750073913
0.4437797844 0.3443217203 0.6750073913 -0.5000000000 0.0000000000 0.7250079388
0.2497678100 0.5431574976 -0.4750053013 -0.5000000000 0.0000000000 0.6250068438
-0.3873526165 0.5926363894 0.5734377791 -0.4941578860 0.0496580938 0.6750073913
-0.3015689272 0.5859451661 -0.3387951598 -0.5070711274 -0.0494979920 0.6750073913
-0.4515838698 0.6297166954 0.6750073913 -0.5000000000 0.0000000000 0.7250079388
-0.1907601638 0.5701153428 0.1802144733 -0.5070710774 -0.0494975920 0.6751135425
0.4500104026 0.5610650437 0.4730651301 -0.4499994525 0.0000000000 0.6750073913
0.4335150720 0.4500049276 0.6286086833 -0.5000000000 0.0500005475 0.6750073913
-0.4499994525 0.5608406912 -0.1021741688 -0.4544768515 0.0078103355 0.6747040880
-0.2906460076 0.7354279029 0.6187130749 -0.4933917276 0.0495619427 0.6750073913
0.4000098551 0.6008744296 -0.3962469389 -0.4541567980 0.0176108928 0.6750073913
-0.4499994525 0.5567678966 0.1806021276 -0.4524957298 -0.0000794509 0.6759811520
-0.4548683558 0.4119379107 0.6750073913 -0.5000000000 0.0000000000 0.7250079388
0.2496125083 0.5072049539 0.0746151670 -0.5065520717 -0.0495685928 0.6750073913
0.4138615568 0.6000065201 0.1222750389 -0.4623543878 0.0320605511 0.6750073913
0.1265763110 0.5803875052 -0.5154180938 -0.5055191104 -0.0496717439 0.6758449005
-0.2535995019 0.7262584025 -0.5250057488 -0.5000000000 0.0000000000 0.7250079388
0.3531597921 0.6000065701 0.5929371927 -0.5000000000 -0.0500005475 0.6750073913
0.0768066660 0.6864341665 -0.0839853196 -0.4933917276 0.0495619427 0.6750073913
0.4000098551 0.4941562610 0.4538413696 -0.5500005475 0.0000000000 0.6750073913
0.2225524619 0.5208828037 0.3504150870 -0.4941578860 0.0496580938 0.6750073913
-0.4414403588 0.7500081626 -0.0902266880 -0.5215146356 0.0426439670 0.6750073913
-0.0296734999 0.7006314719 -0.3694244952 -0.4933917276 0.0495619427 0.6750073913
0.4500104026 0.5979443975 0.0705948730 -0.4602210644 0.0265992913 0.6750073913
-0.5000000000 0.0604228616 -0.5400321134 -0.5496503437 -0.0056253116 0.6750073913
0.2316970621 0.6647961795 -0.4415857854 -0.4935920298 0.0495723928 0.6757215992
0.4827055606 0.2128874811 0.5750062963 -0.4779398584 0.0023549758 0.6440307521
-0.2969070761 0.6888902933 0.5250057488 -0.5000000000 0.0000000000 0.7250079388
0.4422404675 0.6000065701 -0.6233417256 -0.4815690482 0.0446318387 0.6657919404
-0.4324931608 0.6000065701 -0.0623699330 -0.5000000000 -0.0500005475 0.6750073913
-0.5000000000 0.6650396322 0.6455663190 -0.5500005475 0.0000000000 0.6750073913
-0.1873061260 0.6728887681 0.5250057488 -0.5000000000 0.0000000000 0.7250079388
0.3724159530 0.5000054751 -0.2246729602 -0.5000000000 -0.0500005475 0.6750073913
-0.1671011548 0.6689546251 0.5763732613 -0.5066082724 -0.0495619427 0.6750073913
0.0997903677 0.5789831399 0.5250057488 -0.5000000000 0.0000000000 0.7250079388
0.4500104026 0.5878511370 0.1547411944 -0.4618588824 0.0247888714 0.6750073913
0.4500104026 0.4257892624 -0.1027535252 -0.4499994525 0.0000000000 0.6750073913
0.4339195264 0.5500060226 0.1146440054 -0.4876547148 -0.0438278799 0.6750073913
0.4000098551 0.6284457315 -0.1911617432 -0.4646384628 0.0332860145 0.6750073913
-0.5000000000 0.6552907754 -0.5086462197 -0.5500005475 0.0000000000 0.6750073913
0.4387073288 0.1424279596 -0.5250057488 -0.5087491458 -0.0027764304 0.7019465363
-0.1823704220 0.5685207753 0.3567896568 -0.5058421140 -0.0496580938 0.6750073913
-0.5000000000 0.7497855102 -0.5546580235 -0.5265904912 0.0345906788 0.6832776319
-0.0638950747 0.7051943719 0.1713639764 -0.4933917276 0.0495619427 0.6750073913
0.0297100003 0.5386195979 -0.3561276496 -0.5069015256 -0.0495208923 0.6750073913
0.3443269454 0.5000054751 0.3487821692 -0.5000000000 -0.0500005475 0.6750073913
-0.5000000000 0.3555236430 0.6197033358 -0.5471340661 -0.0035460388 0.6784922795
-0.4605746183 0.6035736091 -0.6250068438 -0.5000000000 0.0000000000 0.6250068438
-0.2034151524 0.5709966024 -0.3805377669 -0.5058421140 -0.0496580938 0.6750073913
0.4500104026 0.4736792368 0.6368607236 -0.5500005475 0.0000000000 0.6750073913
0.4500104026 0.5858616652 0.6569380435 -0.4553669613 0.0156486714 0.6829258780
0.0199945439 0.6940090994 -0.2017680094 -0.4933917276 0.0495619427 0.6750073913
-0.2655299326 0.5783042824 0.5235963334 -0.5058421140 -0.0496580938 0.6750073913
-0.5000000000 0.6470176848 -0.3431039070 -0.5471890667 -0.0067730242 0.6753460450
0.4334926717 0.5500060226 -0.3791301515 -0.5000000000 -0.0500005475 0.6750073913
0.4000098551 0.4777024808 0.0231318033 -0.5500005475 0.0000000000 0.6750073913
-0.4499994525 0.6566482403 -0.6171261575 -0.4499994525 0.0000000000 0.6750073913
0.3397455452 0.6513756326 -0.2351186745 -0.4933917276 0.0495619427 0.6750073913
0.2478095385 0.6179124661 -0.5092903767 -0.4943494881 0.0480294259 0.6680178648
0.1303942028 0.6775938197 0.4504342323 -0.4934578784 0.0495475425 0.6760678029
0.4913600554 0.0928614168 -0.6250068438 -0.5000000000 0.0000000000 0.6250068438
0.4296434296 0.5500060226 -0.3218609744 -0.5000000000 -0.0500005475 0.6750073913
0.0985635043 0.5354697134 -0.3308072223 -0.5058421140 -0.0496580938 0.6750073913
0.3080632983 0.6555999288 0.1195025086 -0.4933917276 0.0495619427 0.6750073913
0.1010509315 0.5351771102 0.3833171473 -0.4941578860 0.0496580938 0.6750073913
-0.3668772423 0.6737363274 -0.5250057488 -0.5000000000 0.0000000000 0.6250068438
-0.5000000000 0.6970618828 -0.1038988877 -0.5369129542 0.0291634193 0.6750073913
0.0774151227 0.6363524681 -0.5511056346 -0.5066082724 -0.0495619427 0.6750073913
0.4000098551 0.5801689529 -0.6082056099 -0.5500005475 0.0000000000 0.6750073913
0.1995888105 0.5235844332 -0.5052471325 -0.5058421140 -0.0496580938 0.6750073913
-0.5000000000 0.6919358767 -0.4689646352 -0.5500005475 0.0000000000 0.6750073913
-0.4696588678 0.5054414346 -0.5250057488 -0.4712901856 -0.0047800523 0.6545647175
-0.1928665869 0.5697556888 -0.0913852007 -0.5058421140 -0.0496580938 0.6750073913
-0.5000000000 0.6457017204 0.1641880979 -0.5393627310 -0.0256272806 0.6762887554
0.4500105026 0.4889077535 -0.4849608103 -0.4499994525 0.0000000000 0.6750073913
-0.2921571741 0.7200517846 -0.5250057488 -0.5000000000 0.0000000000 0.7250079388
0.0776357751 0.6863235652 -0.2962632941 -0.4933917276 0.0495619427 0.6750073913
-0.3636809073 0.5898514589 0.4161228565 -0.4941578860 0.0496580938 0.6750073913
0.3215840463 0.6570687949 0.5250057488 -0.5000000000 0.0000000000 0.6882057859
0.4485087362 0.6000065701 0.2337553596 -0.4713515363 0.0385433220 0.6750073913
-0.4499994525 0.2725110340 0.5940380547 -0.4511365149 -0.0057562630 0.6792250875
0.4000098551 0.4667752112 0.6215148556 -0.4499994525 0.0000000000 0.6750073913
-0.4539058453 0.3804587660 -0.5250057488 -0.5000000000 0.0000000000 0.7250079388
0.0251856508 0.6933168918 -0.0673415874 -0.4933917276 0.0495619427 0.6750073913
0.4246569750 0.4500049276 -0.6505906740 -0.5000000000 -0.0500005475 0.6750073913
0.4448216958 0.3450003778 -0.5706682488 -0.5413680030 -0.0109331697 0.6823862721
0.4465914652 0.0602614099 -0.6250068438 -0.5067859743 -0.0016713183 0.7213626989
-0.2983683921 0.7354895536 -0.4353483171 -0.4931299248 0.0495152922 0.6754727964
-0.3736988670 0.6910311168 -0.5042867719 -0.4942125866 0.0491929387 0.6730112195
-0.4061680225 0.7500081626 -0.3956489824 -0.5027589302 0.0493492404 0.6750073913
-0.2972470799 0.7363079626 0.1401118342 -0.4933917276 0.0495619427 0.6750073913
0.4500104026 0.4762482149 -0.2852951740 -0.4499994525 0.0000000000 0.6750073913
0.4363778533 0.2954300350 0.6666331996 -0.5468524130 -0.0108718690 0.6628977587
-0.5000000000 0.5085806190 -0.6171167074 -0.5499165466 -0.0013493648 0.6750073913
0.4000098551 0.5444124113 0.0763786863 -0.4544857016 -0.0134587974 0.6750073913
0.4053766139 0.4804196606 -0.6750073913 -0.5000000000 0.0000000000 0.6250068438
-0.4740280156 0.4946081160 0.5750062963 -0.5000000000 0.0000000000 0.6250068438
0.2704163861 0.6606194838 -0.2224481358 -0.4933917276 0.0495619427 0.6750073913
-0.0362495719 0.6941302507 0.6750073913 -0.5000000000 0.0000000000 0.7250079388
-0.1771108644 0.5679020185 0.0376261120 -0.4941578860 0.0496580938 0.6750073913
0.0246296947 0.6933910926 -0.2688744442 -0.4933917276 0.0495619427 0.6750073913
-0.4677812472 0.1610938140 -0.6012575338 -0.4856672431 -0.0046653511 0.6780821250
0.4000098551 0.6246550900 0.1616609202 -0.4603350657 0.0274178002 0.6750073913
0.3905045010 0.6500070676 -0.1033915321 -0.4734441092 0.0372795082 0.6750073913
-0.4799346803 0.5000054751 0.1417136518 -0.4858189947 -0.0441162331 0.6756519984
-0.4499994525 0.5210391554 0.3446474739 -0.4591467027 -0.0204953244 0.6761719041
-0.5000000000 0.6593921203 -0.6178432654 -0.5500005475 0.0000000000 0.6750073913
0.4000098551 0.4738846390 -0.2467971024 -0.5500005475 0.0000000000 0.6750073913
-0.3462106160 0.5877961364 0.0625014844 -0.5058421140 -0.0496580938 0.6750073913
-0.4147578166 0.7500082126 0.4008116389 -0.5066003723 0.0484423804 0.6750073913
-0.2042763118 0.7239118768 0.1490056816 -0.4933917276 0.0495619427 0.6750073913
0.1738030781 0.5266180665 0.5711598042 -0.4941578860 0.0496580938 0.6750073913
-0.1241166341 0.7123200999 -0.3885605547 -0.4933587273 0.0495211923 0.6733908736
-0.0887486968 0.6575075997 0.5514534384 -0.4941631361 0.0496133433 0.6765498582
-0.1757966500 0.7201145853 -0.5353667623 -0.4933917276 0.0495619427 0.6750073913
0.4410265042 0.2628893786 0.6259788545 -0.5455455487 -0.0113044738 0.6766483093
0.4500104026 0.4537139182 -0.1259229289 -0.4499994525 0.0000000000 0.6750073913
0.2695336764 0.6607372351 0.6346509994 -0.4933917276 0.0495619427 0.6750073913
-0.5000000000 0.5248574972 -0.3176161279 -0.5500005475 0.0000000000 0.6750073913
0.2783007724 0.6595681723 0.0731929515 -0.4933917276 0.0495619427 0.6750073913
-0.5000000000 0.5496728189 0.1284819569 -0.5500005475 0.0000000000 0.6750073913
-0.4058861695 0.7500082126 -0.1003199985 -0.5026328788 0.0493789907 0.6750073913
0.0494886169 0.6892426972 -0.4750052013 -0.5000000000 0.0000000000 0.6250068438
-0.0392275045 0.6516815359 0.5280754324 -0.4941584860 0.0496528937 0.6751864433
-0.5000000000 0.6743805845 -0.2346725197 -0.5500005475 0.0000000000 0.6750073913
-0.4693227141 0.5000054751 0.2219208800 -0.4783191126 -0.0410041990 0.6759929021
-0.2679106086 0.5785843855 0.5495783179 -0.5058421140 -0.0496580938 0.6750073913
0.4357928469 0.4000043800 0.1617928216 -0.5000000000 -0.0500005475 0.6750073913
-0.0945887607 0.7092868167 0.1088044414 -0.4933917276 0.0495619427 0.6750073913
0.0365729255 0.6917986252 0.1369228993 -0.4933917276 0.0495619427 0.6750073913
-0.5000000000 0.7460430192 -0.6012634338 -0.5382066684 0.0220216911 0.6636308168
0.2729265135 0.6602848301 0.2647830494 -0.4933917276 0.0495619427 0.6750073913
0.3097603669 0.5106230413 0.2934827136 -0.4941578860 0.0496580938 0.6750073913
0.4450726985 0.5500060226 0.0824786531 -0.4960498567 -0.0480254759 0.6750073913
0.0605652382 0.5399401123 0.0045884002 -0.4941578860 0.0496580938 0.6750073913
0.4173179946 0.5010342363 0.6750073913 -0.5000000000 0.0000000000 0.7250079388
0.2340932883 0.6654625868 0.1335758627 -0.4933917276 0.0495619427 0.6750073913
0.3167314432 0.5592591739 -0.4918459357 -0.5055208605 -0.0496877441 0.6752624441
0.0088965224 0.5460188289 0.5153635432 -0.4941578860 0.0496580938 0.6750073913
0.4367131570 0.4568794028 -0.6750073913 -0.5000000000 0.0000000000 0.6250068438
0.1269649153 0.5247260458 0.3613209065 -0.5068432749 -0.0495289423 0.6751519929
-0.1125736077 0.7116848429 -0.5661721996 -0.4933917276 0.0495619427 0.6750073913
0.4292051248 0.5000054751 -0.1006649523 -0.5000000000 0.0500005475 0.6750073913
-0.2159113892 0.7254632438 -0.3165432161 -0.4933917276 0.0495619427 0.6750073913
0.0064806960 0.5419380342 0.4077136145 -0.5069982766 -0.0495068921 0.6753074446
-0.2070525922 0.5714245571 -0.1453622417 -0.5058421140 -0.0496580938 0.6750073913
0.4347140851 0.2281958987 -0.5250057488 -0.5000000000 0.0000000000 0.7250079388
0.4996839465 0.1579044291 -0.5355778146 -0.4681381511 0.0000428505 0.6415034745
0.3944458442 0.5000054751 -0.1552325998 -0.5000000000 -0.0500005475 0.6750073913
0.4567796767 0.3565117038 -0.6250068438 -0.5000000000 0.0000000000 0.6250068438
0.4404486479 0.1726921410 -0.6250068438 -0.5000000000 0.0000000000 0.6813343106
-0.5000000000 0.5687886282 0.5331075875 -0.5500005475 0.0000000000 0.6750073913
-0.2390423425 0.6785467801 -0.5907689689 -0.5066082724 -0.0495619427 0.6750073913
0.3975475281 0.5002951782 -0.2846579170 -0.4941578860 0.0496580938 0.6750073913
0.1416746263 0.5303978579 0.4139467827 -0.5058421140 -0.0496580938 0.6750073913
-0.3328466197 0.6862249642 -0.5037545161 -0.4942418869 0.0489438859 0.6719424078
0.3463562176 0.6222034631 -0.4750052013 -0.4967601145 0.0275392516 0.6421970321
0.4413770581 0.6000065701 -0.5554163818 -0.4705279273 0.0333236149 0.6773983175
0.4060966718 0.4753624552 0.5025062024 -0.5000000000 -0.0494979920 0.6820785188
-0.4499994525 0.5353663123 -0.4384675512 -0.4551396088 0.0028166808 0.6735863758
-0.0200903950 0.5494290662 0.3111552572 -0.5058421140 -0.0496580938 0.6750073913
0.4533549892 0.5265940662 -0.5901618623 -0.4519266736 0.0062609686 0.6705759428
0.4956321022 0.2185517431 0.6079688573 -0.4508778121 0.0005737563 0.6769966631
0.4104098690 0.5188059309 -0.5549899771 -0.5378157641 -0.0101370110 0.6582819082
0.4381714730 0.4000043800 0.5444884121 -0.5000000000 -0.0500005475 0.6750073913
-0.2633874091 0.5804906564 0.1623898282 -0.5070711274 -0.0494979420 0.6750242915
-0.4499994525 0.5957175731 0.3254076132 -0.4539627959 0.0153387680 0.6760728030
0.2370849211 0.5191730849 0.4265176704 -0.5058421140 -0.0496580938 0.6750073913
0.2751401878 0.5146960359 0.0879865635 -0.5058421140 -0.0496580938 0.6750073913
0.1843927441 0.6720893094 -0.5277249786 -0.4933917276 0.0495619427 0.6750073913
0.4000098551 0.4249170028 -0.3689293398 -0.5500005475 0.0000000000 0.6750073913
-0.4902136928 0.5000054751 -0.5106012911 -0.4906804980 -0.0428911697 0.6748271394
-0.3598763656 0.6344378971 -0.5230655776 -0.5055216605 -0.0496947442 0.6750073913
-0.3350868442 0.5864874220 0.3885521546 -0.5058421140 -0.0496580938 0.6750073913
-0.0252745018 0.5500389729 -0.1039042378 -0.4941578860 0.0496580938 0.6750073913
-0.0846848023 0.5570283995 0.1534676805 -0.5058421140 -0.0496580938 0.6750073913
-0.4502744555 0.5000054751 -0.3471300011 -0.4538985952 -0.0160859761 0.6743492341
0.2159920401 0.5216546621 -0.2459897436 -0.5058421140 -0.0496580938 0.6750073913
-0.0531563571 0.6537619587 -0.5431985980 -0.5066082724 -0.0495619427 0.6750073913
-0.1122222038 0.6602691299 -0.4864259764 -0.4944001387 0.0475989212 0.6661703946
-0.4499994525 0.7156598365 -0.2703210100 -0.5353987876 0.0315704457 0.6734884247
0.0443300604 0.5418501333 -0.3963829404 -0.5058421140 -0.0496580938 0.6750073913
0.4500103026 0.4943667133 -0.4542129736 -0.4499994525 0.0000000000 0.6750073913
-0.4778162071 0.5000054751 -0.0308235375 -0.4843218283 -0.0434949763 0.6757200491
0.3587414532 0.5048605782 0.5337697948 -0.4941578860 0.0496580938 0.6750073913
-0.1025341477 0.6603457308 -0.6133033157 -0.5066082724 -0.0495619427 0.6750073913
0.3701507282 0.6500071176 -0.1653530106 -0.4909925014 0.0478741742 0.6750073913
-0.4626425909 0.5317712229 -0.6250068438 -0.5000000000 0.0000000000 0.6250068438
0.0183337758 0.6942305518 0.6166206520 -0.4933917276 0.0495619427 0.6750073913
-0.2029926478 0.6767225101 -0.5250057488 -0.5000000000 0.0000000000 0.7250079388
0.4608282211 0.0003287036 0.5750062963 -0.5000000000 0.0000000000 0.7032526506
-0.0335026919 0.6510080285 0.5532156577 -0.4941629361 0.0496149433 0.6764946076
-0.5000000000 0.5848487541 -0.6011104822 -0.5499618471 -0.0006217068 0.6750073913
0.2336934839 0.5094790788 -0.2206999167 -0.5064472206 -0.0495819429 0.6750073913
-0.4834903192 0.6000065701 0.4666460598 -0.4852968890 0.0397733855 0.6752017435
-0.0328507847 0.5475568457 0.4547436294 -0.5070488772 -0.0494996420 0.6753721453
0.2365770155 0.6651314332 -0.1718187814 -0.4933917276 0.0495619427 0.6750073913
0.1042746168 0.6327712288 -0.5476977973 -0.5066082724 -0.0495619427 0.6750073913
0.2852673987 0.6586394121 -0.5805162067 -0.4933917276 0.0495619427 0.6750073913
-0.4628867936 0.7000076651 0.0984571281 -0.5352537860 0.0352537860 0.6717397556
-0.2295883890 0.5756622535 -0.1718080313 -0.5070711274 -0.0494979920 0.6750073913
-0.4705764278 0.6000065701 -0.5220718167 -0.4792372226 0.0413397027 0.6731198707
0.3206931366 0.5093368272 -0.3469192488 -0.5058421140 -0.0496580938 0.6750073913
0.4145760646 0.5500060226 0.5097373816 -0.5000000000 -0.0500005475 0.6750073913
0.4299152326 0.5000054751 0.2660016127 -0.5000000000 0.0500005475 0.6750073913
-0.2516059801 0.5766661645 0.0237362599 -0.5058421140 -0.0496580938 0.6750073913
-0.1621334004 0.6682922178 -0.6003642240 -0.5066082724 -0.0495619427 0.6750073913
0.0936017999 0.6757520995 0.5250057488 -0.5000000000 0.0000000000 0.7250079388
-0.4996940466 0.6252245462 0.0293536214 -0.5352542360 -0.0353910375 0.6767701106
-0.3640248111 0.5898919093 0.5621566556 -0.4941578860 0.0496580938 0.6750073913
0.2410120141 0.5084336173 0.2007324980 -0.5066361727 -0.0495575927 0.6750073913
-0.2871437692 0.6469431840 -0.5250057488 -0.5000000000 0.0000000000 0.6250068438
0.4500104026 0.4158574536 0.2253409175 -0.4499994525 0.0000000000 0.6750073913
0.1723917627 0.5267840683 0.3708147604 -0.4941578860 0.0496580938 0.6750073913
0.4182269546 0.4500049276 0.3340896083 -0.5000000000 0.0500005475 0.6750073913
0.0270554213 0.5389988520 -0.4408174270 -0.5069202258 -0.0494841419 0.6739647299
0.4500104026 0.5877554859 -0.4322104827 -0.4550553579 0.0081806396 0.6750073913
-0.4794737752 0.1416285008 0.5750062963 -0.5269883455 -0.0016867685 0.6617663963
-0.5000000000 0.2787399522 -0.5508355316 -0.5497799951 -0.0035422888 0.6750073913
0.4500105026 0.4006079867 0.4496266734 -0.4499994525 0.0000000000 0.6750073913
-0.2630916559 0.7317538627 0.3869352369 -0.4933917276 0.0495619427 0.6750073913
0.2122330490 0.6632091121 0.6750073913 -0.5000000000 0.0000000000 0.7250079388
-0.5000000000 0.5203203975 -0.1813816861 -0.5500005475 0.0000000000 0.6750073913
-0.4759548867 0.5000054751 0.4087925263 -0.4830063139 -0.0429491203 0.6757798498
0.1905087111 0.5246526949 -0.2061566074 -0.4941578860 0.0496580938 0.6750073913
0.2553759214 0.5170212114 -0.2089873384 -0.5058421140 -0.0496580938 0.6750073913
0.4000098551 0.6084923630 -0.3085577287 -0.4630546954 0.0331503130 0.6750073913
0.0965463322 0.6838021876 0.3405174287 -0.4933917276 0.0495619427 0.6750073913
0.1722105107 0.5944469092 0.5750062963 -0.5000000000 0.0000000000 0.7250079388
0.4500104026 0.4794282497 -0.6566885407 -0.4519334237 0.0000000000 0.6831998310
0.4500104026 0.4436705582 0.3473650036 -0.4499994525 0.0000000000 0.6750073913
-0.2037126057 0.7219673055 0.4564520982 -0.4933080267 0.0495315924 0.6758421505
-0.3484118401 0.6880561842 0.5714955579 -0.4941666361 0.0495836429 0.6775749694
-0.4069170307 0.6000065701 -0.2848295689 -0.5000000000 -0.0500005475 0.6750073913
0.0228077247 0.5699716912 0.5250057488 -0.5000000000 0.0000000000 0.7250079388
0.4500104026 0.4759344615 -0.1471180609 -0.4499994525 0.0000000000 0.6750073913
0.1302822516 0.6317392175 0.5556964849 -0.4941610361 0.0496312435 0.6759327515
-0.3973964265 0.5938179023 0.0002132523 -0.5058421140 -0.0496580938 0.6750073913
0.0617973017 0.6384348909 -0.5872093799 -0.5066082724 -0.0495619427 0.6750073913
0.3453963571 0.5064305954 0.2884647587 -0.5058421140 -0.0496580938 0.6750073913
-0.0676031653 0.5550187775 -0.1232157992 -0.5058421140 -0.0496580938 0.6750073913
0.2933289370 0.6075639528 -0.5518121923 -0.5066082724 -0.0495619427 0.6750073913
0.1777300711 0.6729776691 -0.0018704205 -0.4933917276 0.0495619427 0.6750073913
0.2789585296 0.6094800238 -0.6067592440 -0.5066082724 -0.0495619427 0.6750073913
0.4335522724 0.4277166335 -0.5687529778 -0.5446314887 -0.0109668701 0.6771915652
-0.0305862599 0.7007531732 0.2413527928 -0.4933917276 0.0495619427 0.6750073913
-0.1218495593 0.6054842301 0.5250057488 -0.5000000000 0.0000000000 0.7250079388
-0.2574429940 0.5773528220 0.4600768378 -0.4941578860 0.0496580938 0.6750073913
-0.4418234630 0.6645785771 0.5750062963 -0.5000000000 0.0000000000 0.7250079388
-0.4722374960 0.5000054251 0.5326600826 -0.4803790852 -0.0418589584 0.6758992511
-0.4341078785 0.5981369496 0.0924797627 -0.5058421140 -0.0496580938 0.6750073913
0.4500104026 0.4160846561 -0.4374918405 -0.4499994525 0.0000000000 0.6750073913
0.4364759044 0.5000054751 -0.0596396531 -0.5000000000 0.0500005475 0.6750073913
-0.1214285046 0.5613511468 0.4321607822 -0.5058421140 -0.0496580938 0.6750073913
0.1510546290 0.6265338605 0.6598772757 -0.5066082724 -0.0495619427 0.6750073913
-0.4499994525 0.2519286086 -0.5561723401 -0.4508265616 -0.0037640412 0.6700587371
-0.0515229892 0.5531270067 -0.5158434985 -0.4941578860 0.0496580938 0.6750073913
0.1253216473 0.6799654956 0.1367047469 -0.4933917276 0.0495619427 0.6750073913
0.1494389114 0.5778472274 0.5267898683 -0.4944783395 0.0496947442 0.6750073913
0.2389997420 0.5087210705 -0.4229201810 -0.5070349270 -0.0495028921 0.6750073913
0.4021307783 0.4000043800 0.5095147792 -0.5000000000 -0.0500005475 0.6750073913
-0.0765860636 0.6384676412 0.5750062963 -0.5000000000 0.0000000000 0.7250079388
0.2447095546 0.5079053116 -0.3981563098 -0.5066043223 -0.0495605427 0.6750073913
0.2710785933 0.5041384203 0.2435211166 -0.5065804721 -0.0495651427 0.6750073913
0.2902087528 0.5129232165 0.2238530012 -0.4941578860 0.0496580938 0.6750073913
0.1580202553 0.6756056479 -0.5460752295 -0.4933917276 0.0495619427 0.6750073913
-0.0844778000 0.7079388019 -0.0645275066 -0.4933917276 0.0495619427 0.6750073913
0.4500104026 0.4703398502 0.4841290512 -0.4499994525 0.0000000000 0.6750073913
0.0196074397 0.5447587651 0.4609663476 -0.4941578860 0.0496580938 0.6750073913
0.4141467099 0.4000043800 -0.3075895681 -0.5000000000 -0.0500005475 0.6750073913
0.4522076767 0.4998688236 -0.5250056488 -0.5000000000 0.0000000000 0.7250079388
-0.4952630981 0.1676842861 0.5750062963 -0.5319534499 -0.0019970719 0.6685291704
0.4500104026 0.4573124576 -0.4356838207 -0.4499994525 0.0000000000 0.6750073913
-0.2130402578 0.5721289648 0.5221968181 -0.4941578860 0.0496580938 0.6750073913
-0.3778738127 0.5915211772 -0.0228576503 -0.5058421140 -0.0496580938 0.6750073913
0.3657454799 0.5040366192 0.3206335609 -0.5058421140 -0.0496580938 0.6750073913
0.2976203339 0.5870620283 -0.5250057488 -0.5000000000 0.0000000000 0.6250068438
0.3908005043 0.5010888869 -0.0513443622 -0.5058421140 -0.0496580938 0.6750073913
0.0783031324 0.6862346143 -0.3337147042 -0.4933917276 0.0495619427 0.6750073913
0.2195278288 0.5700595422 0.5254339535 -0.4944783395 0.0496947442 0.6750073913
-0.0326112821 0.5509020824 0.3903025738 -0.4941578860 0.0496580938 0.6750073913
0.2791714319 0.6330222816 0.5250057488 -0.5000000000 0.0000000000 0.7250079388
0.0373343338 0.5426731423 0.1924010068 -0.4941578860 0.0496580938 0.6750073913
-0.3535072459 0.7436225927 0.4278062845 -0.4932693263 0.0494973420 0.6771275145
0.3495801529 0.6000637707 0.6589010650 -0.5066082724 -0.0495619427 0.6750073913
0.2441772987 0.6141174746 -0.5928439416 -0.5066082724 -0.0495619427 0.6750073913
0.1548452206 0.6760290025 0.0424173145 -0.4933917276 0.0495619427 0.6750073913
-0.5000000000 0.5964499811 0.5503094759 -0.5500005475 0.0000000000 0.6750073913
0.4202548768 0.4000043800 -0.3346724147 -0.5000000000 -0.0500005475 0.6750073913
0.4053674638 0.4000043800 -0.0984693782 -0.5000000000 -0.0500005475 0.6750073913
0.2894200942 0.6580857060 -0.6115291962 -0.4933917276 0.0495619427 0.6750073913
0.4140450588 0.4376635924 -0.5250057488 -0.5000000000 0.0000000000 0.7250079388
0.4902732435 0.2202506617 -0.5681270710 -0.4777969569 -0.0024098264 0.6653419855
0.2868626161 0.5133169208 -0.2804102205 -0.4941578860 0.0496580938 0.6750073913
0.2495121572 0.5072192541 -0.3256295656 -0.5063551196 -0.0495940431 0.6750073913
0.2475315355 0.5804151055 -0.5250057488 -0.5000000000 0.0000000000 0.6250068438
0.3557184701 0.5388090000 -0.4750052013 -0.5000000000 0.0000000000 0.6250068438
-0.4999957000 0.1255799251 0.6750073913 -0.5208352781 -0.0052088070 0.6868699212
0.4251529804 0.3740033453 0.6040167140 -0.5467910124 -0.0096317555 0.6795723913
-0.1733313730 0.7197858817 -0.0260336851 -0.4933917276 0.0495619427 0.6750073913
-0.1691263769 0.6692246280 0.6122710044 -0.5066082724 -0.0495619427 0.6750073913
0.4485466866 0.2102479022 0.6229305711 -0.5443814860 -0.0120518820 0.6803748501
-0.1912201189 0.7221710078 0.4842147522 -0.4933943277 0.0495424425 0.6738158783
0.1859475611 0.5251892508 -0.3101342960 -0.5058421140 -0.0496580938 0.6750073913
-0.4411378055 0.5989640087 -0.2633230334 -0.5058421140 -0.0496580938 0.6750073913
0.0913498253 0.6069756464 -0.5250057488 -0.5000000000 0.0000000000 0.6250068438
-0.5000000000 0.6994246587 -0.0411359004 -0.5500005475 0.0000000000 0.6750073913
0.4390014321 0.6000065701 -0.2754446661 -0.4741604671 0.0420421604 0.6750073913
-0.3743026736 0.6360407646 0.5510156336 -0.5055216605 -0.0496947442 0.6750073913
0.0481275520 0.5359884691 -0.4228661304 -0.5070339770 -0.0495029921 0.6750073913
-0.3225299067 0.6896785020 -0.5427716433 -0.5066082724 -0.0495619427 0.6750073913
-0.2173592551 0.5739151844 -0.3578313183 -0.5070711274 -0.0494979920 0.6750073913
-0.5000000000 0.5258719583 -0.3989044180 -0.5500005475 0.0000000000 0.6750073913
0.3762286947 0.6500071176 -0.3286625489 -0.4882743216 0.0472324672 0.6750073913
-0.2056481768 0.7240947788 -0.5646200826 -0.4933917276 0.0495619427 0.6750073913
0.2332338289 0.5196261899 0.1468136076 -0.4941578860 0.0496580938 0.6750073913
-0.5000000000 0.6666575499 0.3054861951 -0.5500005475 0.0000000000 0.6750073913
0.4500104026 0.5703407452 -0.0595266018 -0.4595101566 0.0164578802 0.6750073913
-0.5000000000 0.5167500584 0.0387876247 -0.5500005475 0.0000000000 0.6750073913
-0.1975556382 0.5703072949 -0.1204493189 -0.5058421140 -0.0496580938 0.6750073913
0.0420819358 0.6410635196 -0.5450031678 -0.5066082724 -0.0495619427 0.6750073913
0.0480295509 0.6902711085 -0.3297924112 -0.4933917276 0.0495619427 0.6750073913
0.2072310442 0.6690441760 0.1021854189 -0.4933917276 0.0495619427 0.6750073913
0.4000098551 0.4769669228 -0.4200599997 -0.5500005475 0.0000000000 0.6750073913
0.3417310170 0.6511109297 0.4099640391 -0.4933917276 0.0495619427 0.6750073913
0.2347980960 0.6653685858 -0.2016926085 -0.4933917276 0.0495619427 0.6750073913
0.4412625568 0.4671236650 0.6750073913 -0.5000000000 0.0000000000 0.6250068438
0.4500104026 0.5959947761 -0.5301628053 -0.4560742190 0.0200711198 0.6850585514
0.4500103026 0.5531796073 -0.0335074669 -0.4503345062 0.0014192655 0.6750073913
-0.0496823190 0.5999718697 0.5568444974 -0.5055216605 -0.0496947442 0.6750073913
-0.3025137375 0.7370101703 -0.2394362718 -0.4933917276 0.0495619427 0.6750073913
0.2066360377 0.6227564192 -0.4786817416 -0.4946287912 0.0456550999 0.6578283532
-0.1217226579 0.5613857472 0.2658153607 -0.5058421140 -0.0496580938 0.6750073913
0.4088541520 0.4500049276 0.5500866734 -0.5000000000 0.0500005475 0.6750073913
-0.4556453643 0.2215048255 0.5750062963 -0.5000000000 0.0000000000 0.6250068438
-0.4583330437 0.6065399916 -0.3443375205 -0.5245184185 -0.0431478225 0.6762333048
0.4148802679 0.5500060226 0.4798651045 -0.4999787998 -0.0499899474 0.6750073913
-0.4499994525 0.5831683857 0.2528257184 -0.4531742373 0.0109183196 0.6759800520
-0.5000000000 0.6584433100 -0.2560800041 -0.5500005475 0.0000000000 0.6750073913
0.0839904947 0.5308652630 0.3198403023 -0.5068985755 -0.0495211923 0.6751820932
-0.5000000000 0.5577300071 0.3661009588 -0.5500005475 0.0000000000 0.6750073913
0.4000098551 0.6153359379 -0.1451838898 -0.4663717818 0.0359707439 0.6750073913
0.4000098551 0.4071188580 0.3604207466 -0.5500005475 0.0000000000 0.6750073913
0.2891412411 0.5015579921 0.3352265207 -0.5065795220 -0.0495654927 0.6750073913
0.0289387419 0.5436609031 -0.5096260804 -0.4941578860 0.0496580938 0.6750073913
0.4500104026 0.5668607571 0.1014344107 -0.4517788720 0.0075376825 0.6750073913
-0.0523013477 0.7036485550 -0.1461527504 -0.4933917276 0.0495619427 0.6750073913
0.4000098551 0.4042077261 -0.0655887182 -0.5500005475 0.0000000000 0.6750073913
-0.1836396859 0.6711597492 -0.6153788384 -0.5066082724 -0.0495619427 0.6750073913
-0.0213020083 0.5495715678 -0.5186748295 -0.5058421140 -0.0496580938 0.6750073913
0.4198794727 0.6000065701 -0.1135881438 -0.4738572637 0.0409400483 0.6750073913
0.3828362671 0.6500070676 0.0069461761 -0.4798005788 0.0410161991 0.6750073913
-0.5000000000 0.4321157317 0.6617400961 -0.5461758556 -0.0046678511 0.6663004960
-0.4405487990 0.7500082126 0.2741400018 -0.5251849758 0.0386690734 0.6750073913
-0.4499994525 0.5816683193 -0.0804361808 -0.4569683288 0.0172261386 0.6743724844
0.4083045459 0.6000065701 -0.0085113432 -0.4667999865 0.0369095042 0.6750073913
0.4595948576 0.1249732685 -0.5250058488 -0.5000000000 0.0000000000 0.7250079388
-0.4773514520 0.6500071176 0.4258662132 -0.5000000000 0.0273519995 0.6750073913
0.1833723829 0.6273899199 -0.6250068438 -0.5000000000 0.0000000000 0.6250068438
0.3646592180 0.6500071176 0.6622273014 -0.5000000000 0.0500005475 0.6750073913
-0.0011591877 0.6520578400 -0.6250068438 -0.5000000000 0.0000000000 0.6250068438
0.2121558981 0.5221059171 0.0445574379 -0.5058421140 -0.0496580938 0.6750073913
0.3593277596 0.6500071176 -0.5438901556 -0.5000000000 0.0500005475 0.6750073913
0.2271474123 0.6020254422 -0.5250057488 -0.5000000000 0.0000000000 0.6250068438
0.4000098551 0.6468425829 0.3634129794 -0.4755207320 0.0428331190 0.6750073913
-0.2353181517 0.5747499435 -0.1421350564 -0.4941578860 0.0496580938 0.6750073913
-0.3392645899 0.7419102739 -0.0251941259 -0.4933917276 0.0495619427 0.6750073913
0.0870808785 0.5304237081 -0.3080848235 -0.5067786242 -0.0495373924 0.6750073913
0.4488283897 0.6000065701 -0.0754861266 -0.4773274517 0.0444102363 0.6750073913
0.0170241114 0.6944051537 -0.3204494089 -0.4933917276 0.0495619427 0.6750073913
0.4791717719 0.2254666689 -0.6122746044 -0.4881985208 -0.0042514966 0.6947695077
-0.4499994525 0.5618670524 -0.4526884069 -0.4588114490 0.0156792717 0.6729585189
0.2514638285 0.6631465115 0.0043398475 -0.4933917276 0.0495619427 0.6750073913
0.3029126419 0.5114286501 0.4564283479 -0.5058421140 -0.0496580938 0.6750073913
-0.4748161242 0.1921117536 0.6750073913 -0.5076920842 -0.0067586240 0.6696890831
-0.1671285551 0.6320322708 -0.5250057488 -0.5000000000 0.0000000000 0.6250068438
-0.0590094212 0.5540077664 -0.4815568230 -0.4941578860 0.0496580938 0.6750073913
0.4949756950 0.2102671524 -0.5951847173 -0.4661675795 -0.0012461136 0.6787367322
0.4000098551 0.4029252120 -0.1714099769 -0.5500005475 0.0000000000 0.6750073913
0.1983601970 0.6729512688 0.5250057488 -0.5000000000 0.0000000000 0.7117584938
0.4119270856 0.5000054751 0.1216184317 -0.5000000000 0.0500005475 0.6750073913
0.2244716830 0.5695101861 -0.5057633381 -0.5055200104 -0.0496799940 0.6755450472
-0.4499994525 0.5088790222 0.1132340899 -0.4579742898 -0.0213820341 0.6755295970
0.1474022391 0.6297250455 0.5315819708 -0.4941591860 0.0496469436 0.6753909455
-0.5000000000 0.6072637495 0.5960860771 -0.5497482947 -0.0003181535 0.6765982088
0.4285500176 0.5500060226 0.4559377425 -0.5000000000 -0.0500005475 0.6750073913
0.2405575091 0.6646006774 0.2311487311 -0.4933917276 0.0495619427 0.6750073913
0.4252768818 0.3868515860 -0.6181496687 -0.5398931368 -0.0094021030 0.6992359066
0.4000098551 0.4248264518 -0.4110953515 -0.5500005475 0.0000000000 0.6750073913
-0.4895796359 0.6000065701 -0.0295941741 -0.4926468695 0.0469333139 0.6743389340
-0.3317014071 0.7300870945 0.5250057488 -0.5000000000 0.0000000000 0.7250079388
-0.4937884320 0.5000054751 0.4784082386 -0.4956100019 -0.0481789276 0.6752069435
-0.5000000000 0.3707396596 -0.5986789555 -0.5498346457 -0.0026645292 0.6750073913
0.4241367693 0.4776253300 -0.5751019474 -0.5457419009 -0.0107058672 0.6767888608
-0.4499994525 0.2851936729 0.6164591502 -0.4514214681 -0.0055224605 0.6746567375
-0.2204587390 0.6730029194 0.5509017824 -0.4941630361 0.0496142933 0.6765176579
0.3738461686 0.6500071176 -0.3908078793 -0.4893398333 0.0474840200 0.6750073913
0.4019947768 0.5440511074 -0.5997242670 -0.5422159123 -0.0094019530 0.6797368931
0.0539736160 0.5394769073 0.4834109433 -0.5065833721 -0.0493751407 0.6778714727
0.1146663306 0.6813862112 0.6125715077 -0.4933917276 0.0495619427 0.6750073913
-0.5000000000 0.5030612585 0.0118613799 -0.5500005475 0.0000000000 0.6750073913
0.1298877973 0.6793566890 0.0339157714 -0.4933917276 0.0495619427 0.6750073913
-0.0408400222 0.7017274339 0.4308982183 -0.4933896776 0.0495182422 0.6769511626
-0.4878565670 0.7000076651 -0.4454024272 -0.5120500819 0.0471559164 0.6750073913
0.4147645167 0.5795263958 -0.5250057488 -0.5000000000 0.0000000000 0.7250079388
0.0065535468 0.6458006715 -0.5311055156 -0.5066082724 -0.0495619427 0.6750073913
0.1477267426 0.5296858501 0.5309484139 -0.5058421140 -0.0496580938 0.6750073913
-0.1248947426 0.5617590013 -0.1601935541 -0.5058421140 -0.0496580938 0.6750073913
-0.5000000000 0.6207154968 -0.3284203462 -0.5392583799 -0.0258786834 0.6763013055
-0.0453034711 0.6527149472 0.5972745402 -0.5066082724 -0.0495619427 0.6750073913
0.0839238440 0.6600725778 0.6750073913 -0.5000000000 0.0000000000 0.7250079388
0.4403810472 0.2094831938 0.5750062963 -0.5312562423 -0.0075819830 0.7033041012
-0.4561633700 0.7000076651 0.2684240892 -0.5299540280 0.0369859050 0.6730972204
-0.1413632229 0.5636964225 -0.4281034377 -0.5058421140 -0.0496580938 0.6750073913
0.3092991618 0.5106772919 0.0344610773 -0.4941578860 0.0496580938 0.6750073913
0.4000098551 0.4235806882 0.1005153006 -0.5500005475 0.0000000000 0.6750073913
-0.4443511406 0.7500082126 0.5811591137 -0.5000000000 0.0500005475 0.6750073913
-0.3621654407 0.6896742519 0.5481138018 -0.4941624861 0.0496189933 0.6763551061
0.4453057011 0.4000043800 -0.1001574467 -0.5000000000 -0.0500005475 0.6750073913
0.4000098551 0.4048268829 0.4395577632 -0.5500005475 0.0000000000 0.6750073913
-0.4673263422 0.0089631481 0.5750062963 -0.5000000000 0.0000000000 0.6250068438
0.0254951542 0.5392216545 0.3203425578 -0.5069738264 -0.0495104921 0.6752479940
-0.4576587364 0.4629548194 0.5750062963 -0.5000000000 0.0000000000 0.6250068438
0.3036598501 0.6558008310 -0.4281199379 -0.4937349314 0.0496033932 0.6751415928
0.4628138928 0.1056075064 0.6750073913 -0.5032794359 -0.0041573955 0.6872107250
0.1142545261 0.6410545195 -0.4750052013 -0.4973040705 0.0229154509 0.6393108505
0.4500104026 0.4995480201 -0.3823627369 -0.4499994525 0.0000000000 0.6750073913
-0.4267391478 0.7500082126 -0.6225081165 -0.5000000000 0.0500005475 0.6750073913
-0.0404427178 0.6813721610 0.5750062963 -0.5000000000 0.0000000000 0.6250068438
0.4808247400 0.3343050606 -0.6193049314 -0.4530273856 0.0025964784 0.6823792721
-0.3112593333 0.7381763330 -0.0519837692 -0.4933917276 0.0495619427 0.6750073913
-0.4848174338 0.7418252230 -0.5250057488 -0.5142144056 0.0284287613 0.7044043132
-0.2517118312 0.7302365961 0.1125030319 -0.4933917276 0.0495619427 0.6750073913
-0.4271413522 0.5973174406 0.2475073102 -0.4941578860 0.0496580938 0.6750073913
-0.3771599049 0.7469629792 0.3062174031 -0.4933917276 0.0495619427 0.6750073913
-0.4567859268 0.0811617887 0.6750073913 -0.5000000000 0.0000000000 0.7250079388
0.4009565655 0.4000043800 0.2691230469 -0.5000000000 -0.0500005475 0.6750073913
-0.4499994525 0.5550256275 -0.5888278477 -0.4500884535 -0.0009064599 0.6761404537
-0.3748020291 0.6966480783 0.6738435786 -0.5066082724 -0.0495619427 0.6750073913
-0.5000000000 0.5889625991 0.2753504651 -0.5500005475 0.0000000000 0.6750073913
-0.2419458743 0.5755297021 -0.2470067547 -0.4941578860 0.0496580938 0.6750073913
0.0547301243 0.6893776987 0.1724665385 -0.4933917276 0.0495619427 0.6750073913
0.4141749102 0.5500060226 -0.2680303349 -0.4713316361 -0.0356663905 0.6750073913
-0.0553400810 0.7040537094 -0.0405468440 -0.4933917276 0.0495619427 0.6750073913
0.2516014800 0.5069208508 -0.2451835848 -0.5063894200 -0.0495896430 0.6750073913
-0.4897408377 0.6500071176 -0.1182186445 -0.5000000000 0.0397413852 0.6750073913
0.3859332010 0.5351898103 0.5250057488 -0.5000000000 0.0000000000 0.6250068438
0.2837125817 0.6588466644 0.0191562598 -0.4933917276 0.0495619427 0.6750073913
0.4500104026 0.4216474170 -0.3947232722 -0.4499994525 0.0000000000 0.6750073913
0.2791173313 0.5142281808 0.1470895606 -0.4941578860 0.0496580938 0.6750073913
0.3185276129 0.6136052190 0.5750062963 -0.5000000000 0.0000000000 0.6250068438
-0.5000000000 0.5747957440 -0.0406456451 -0.5500005475 0.0000000000 0.6750073913
0.0999870199 0.6833434326 -0.0045411497 -0.4933917276 0.0495619427 0.6750073913
-0.4988534874 0.7000077151 0.3114415603 -0.5289547171 0.0381280675 0.6750073913
-0.1907175634 0.5701092927 -0.0616295748 -0.5070711274 -0.0494979920 0.6750080413
0.0245770441 0.6441751537 -0.5072819047 -0.4943739884 0.0478212736 0.6671246050
-0.4499994525 0.4991676159 0.5867753252 -0.4503659565 -0.0023110753 0.6778962230
0.1407536663 0.5227561742 -0.3339683070 -0.5066287726 -0.0495573927 0.6750073913
0.3785558702 0.5659806975 0.5750062963 -0.5000000000 0.0000000000 0.7250079388
-0.3713941918 0.7459218178 -0.4097813871 -0.4930648241 0.0495013920 0.6743224838
-0.1097425267 0.5599763317 -0.3257400669 -0.4941578860 0.0496580938 0.6750073913
-0.2934204880 0.7357978070 0.3662656606 -0.4933917276 0.0495619427 0.6750073913
-0.0327488836 0.6978518415 0.4735743356 -0.4934018278 0.0495618927 0.6750690420
-0.0178425204 0.6491656584 -0.4794776003 -0.4944677894 0.0470235649 0.6637012175
-0.4499994525 0.5258500581 0.2589275353 -0.4574899845 -0.0164034796 0.6759895521
0.4500104026 0.5608002908 -0.3513530973 -0.4511390150 0.0048273529 0.6750073913
-0.4172135435 0.6921204787 -0.5250057488 -0.5000000000 0.0000000000 0.6250068438
0.2345477433 0.5093570775 -0.0615428239 -0.5065234714 -0.0495720928 0.6750073913
-0.2042588616 0.5710959035 -0.1728246424 -0.5058421140 -0.0496580938 0.6750073913
0.1136828698 0.6576924017 0.5750062963 -0.5000000000 0.0000000000 0.6250068438
0.2665187434 0.5111375470 -0.4619739586 -0.5066066723 -0.0495499426 0.6746403873
-0.2072397443 0.7243070812 0.2831793508 -0.4933917276 0.0495619427 0.6750073913
0.4564632233 0.2853072241 -0.6250067438 -0.5000000000 0.0000000000 0.6250068438
-0.4860277970 0.4359038231 0.5750062963 -0.5000000000 0.0000000000 0.6250068438
-0.3643525647 0.7452553105 -0.5615617491 -0.4933917276 0.0495619427 0.6750073913
-0.0149303385 0.6986657504 -0.0149738140 -0.4933917276 0.0495619427 0.6750073913
-0.0480620013 0.7030832988 -0.0043184973 -0.4933917276 0.0495619427 0.6750073913
-0.2333580803 0.5959767759 -0.4750052013 -0.5007411081 -0.0066698730 0.6281624284
0.4000098551 0.4936915559 -0.6532802534 -0.5500005475 0.0000000000 0.6750073913
0.4485317864 0.0385393220 -0.5250057488 -0.5000000000 0.0000000000 0.7250079388
-0.5000000000 0.2604335517 0.6635633160 -0.5424058643 -0.0092532513 0.6544297660
0.2490740024 0.6634651649 -0.3696867481 -0.4933917276 0.0495619427 0.6750073913
-0.2738499237 0.6248793424 0.5408028718 -0.5055216605 -0.0496947442 0.6750073913
-0.4499994525 0.5102977378 0.6311730613 -0.4503389062 -0.0021405234 0.6776830706
-0.5000000000 0.6910064665 0.0949448896 -0.5500005475 0.0000000000 0.6750073913
