-0.4389240499 1.3771780556 0.2514560512 -0.5018278772 -0.0004077735 0.3651125948
-0.0857565819 0.8464314455 -0.3989756443 -0.5002166958 -0.0018534353 0.3648754457
-0.0391656658 0.8088956829 -0.1197358817 -0.5000000000 -0.0018749920 0.3650001545
0.2900052324 0.8088956829 0.3815384847 -0.5000000000 -0.0018767881 0.3650353180
-0.3353165094 0.8982894024 0.1527380373 -0.5017988845 0.0004016777 0.3650674524
0.0796109154 0.8088956829 0.2524967039 -0.5000000000 -0.0018767881 0.3650353180
0.1123835717 0.6608986705 -0.3746885121 -0.4999971942 -0.0013270206 0.3637082974
-0.1054926701 0.8464314455 0.1503130562 -0.5000908985 -0.0018694968 0.3649385095
-0.2665034121 0.3935137808 -0.3476715933 -0.4989280650 -0.0002275268 0.3665571811
-0.1830992442 0.8088956829 -0.2499905799 -0.5002819461 -0.0016040364 0.3642730436
-0.1964232782 0.6230096927 0.3707652817 -0.4981923227 -0.0004129854 0.3649459810
-0.3387672434 0.9069162242 0.2091538117 -0.5017996090 0.0004500801 0.3650752748
0.0655033317 0.8464314455 0.2626383996 -0.5000342570 -0.0018746617 0.3649604848
0.3014051400 0.8464313873 -0.2934729794 -0.5000072707 -0.0018759830 0.3649867205
-0.2334423047 0.6813278715 0.3330234628 -0.5015464059 0.0010557984 0.3650673172
0.4514928625 0.8088956829 -0.1596656845 -0.4998393788 -0.0018675956 0.3649979211
-0.3861306718 1.1161040423 -0.0972522546 -0.5018265747 -0.0004197380 0.3650536899
-0.3104555960 0.8633368567 -0.1465761064 -0.5018409171 0.0001299901 0.3650247310
-0.3125405068 0.9064950804 0.3036263938 -0.5005544933 0.0013259959 0.3650736045
-0.2841420599 0.8614730709 0.1963487903 -0.5011585788 0.0008445059 0.3650672647
-0.2754099804 0.8353091505 0.0036955263 -0.5018226822 -0.0003421535 0.3650311365
-0.4764561396 1.5627819082 0.3541370608 -0.5018356527 -0.0003773508 0.3651194300
-0.3616764960 1.1807950429 0.3330539043 -0.4981542502 0.0003155876 0.3651331925
-0.4776051412 1.5768479679 -0.1159469674 -0.5018584575 -0.0002479988 0.3650289857
-0.4863258887 1.6891093147 -0.2762607453 -0.5005250746 0.0000530549 0.3650353518
-0.0585885161 0.8464314455 -0.0963309580 -0.5001286388 -0.0018642737 0.3649203291
-0.4275948785 1.5143155515 -0.2937576357 -0.4981728567 0.0004188503 0.3650148929
-0.3755151321 1.2492299956 0.3309103120 -0.4981565117 0.0003248795 0.3651423475
-0.3286151746 1.0173000378 -0.1325264837 -0.4981480493 0.0002883441 0.3650184382
0.3505846875 0.1907074439 -0.3986039277 -0.5001755810 0.0000255863 0.3631856119
-0.1757536925 0.8464314455 0.0396064257 -0.5001528344 -0.0018623800 0.3649060186
-0.4880617282 1.6279350022 -0.3118857555 -0.5018601504 -0.0002392999 0.3650654911
0.0637395469 0.8088956829 0.2209536272 -0.5000000000 -0.0018767881 0.3650353180
0.3364060243 0.7810768577 -0.3456497276 -0.5008853560 0.0002332866 0.3666548717
-0.0286068727 0.8464314455 0.1189177053 -0.5000607591 -0.0018725391 0.3649550909
-0.2408583034 0.6693129461 0.3823190296 -0.5017262172 0.0003471457 0.3656400529
0.3666641355 0.1797119128 0.3559455583 -0.4985037119 0.0000152489 0.3639077606
-0.2597063123 0.5823581691 -0.3795159940 -0.5016738022 0.0003738618 0.3642888255
-0.4206541406 1.2913627667 -0.0940539880 -0.5018426963 -0.0003472377 0.3650119426
-0.4092195387 1.2340431781 -0.2018612286 -0.5018416190 -0.0003501749 0.3650088347
0.2752098904 0.8464314455 0.2645069111 -0.5000108835 -0.0018751159 0.3649620069
0.3834032201 0.8464315037 -0.0593238435 -0.4999873185 -0.0018756020 0.3649866961
-0.3364385134 0.2269071098 -0.3481730373 -0.5013162084 0.0003219912 0.3663118361
-0.1492122168 0.8464314455 0.0562318482 -0.5001356542 -0.0018642850 0.3649151585
-0.0050251969 0.8088956829 -0.1637918333 -0.5000000000 -0.0018743183 0.3649869776
-0.4258434654 1.3124918671 0.0691511191 -0.5018320774 -0.0003962650 0.3650748582
0.4013930788 0.8088956829 0.3627080669 -0.5000000000 -0.0018767881 0.3650353180
0.3216079328 0.8418477246 -0.4213389074 -0.5000214798 -0.0018728957 0.3649630467
-0.1846452972 0.8465453647 0.3321364514 -0.5001135269 -0.0016484506 0.3649485015
0.2124287281 0.8088956829 -0.1202778756 -0.5000000000 -0.0018767881 0.3650353180
-0.3566639871 1.1587516015 -0.2210757404 -0.4981611155 0.0003490056 0.3649771451
0.2380475617 0.8088956829 -0.1435148135 -0.5000000000 -0.0018767881 0.3650353180
0.2391557751 0.8088956829 -0.0338663537 -0.5000000000 -0.0018767881 0.3650353180
0.2318378028 0.8464315037 0.0845781185 -0.5000154948 -0.0018752829 0.3649695798
0.2204586300 0.8464314455 -0.0222714816 -0.5000166302 -0.0018754124 0.3649741873
-0.1828228065 0.8295240862 0.1911636395 -0.5006629548 -0.0015371758 0.3646103738
-0.1828228065 0.8431162532 -0.1199238026 -0.5003023524 -0.0017924265 0.3648229932
-0.3441336281 1.0940421614 0.2788210015 -0.4981512849 0.0003031970 0.3651103482
0.1801611211 0.8464314455 0.3024302473 -0.5000215249 -0.0018748550 0.3649596140
0.1337916603 0.8088956829 0.4006639147 -0.5000000000 -0.0016047439 0.3643570130
-0.3262976115 1.0058391890 0.3698515542 -0.4981485185 0.0002921652 0.3651159673
-0.4116872261 1.2424864331 -0.0211862344 -0.5018315782 -0.0003999511 0.3650598270
0.3510297134 0.6625062090 0.0090662351 -0.5001012058 -0.0018667661 0.3650360800
-0.2826199472 0.4875538496 0.3743132239 -0.5018301518 0.0004133100 0.3650409840
-0.4600484977 1.4888396184 -0.3146078077 -0.5018574197 -0.0002474939 0.3650243069
-0.4950007206 1.6640487412 -0.0646462120 -0.5018621923 -0.0002264645 0.3650340287
-0.3852555086 1.2973981795 0.1219314028 -0.4981577542 0.0003291980 0.3651078502
0.4479642625 0.8088956829 0.2808002904 -0.4998147460 -0.0018629900 0.3651338269
-0.2812803841 0.4707793125 -0.3522692325 -0.5015110397 0.0003874986 0.3660622420
-0.3795841364 1.2693520865 0.1246828962 -0.4981568308 0.0003254088 0.3651044683
-0.3160481450 0.9551786248 -0.2067588161 -0.4981508663 0.0002876591 0.3649953893
0.1288185265 0.8088956829 0.2191624657 -0.5000000000 -0.0018767881 0.3650353180
0.3064939684 0.8088956829 -0.1682438787 -0.5000000000 -0.0018767881 0.3650353180
0.0684310593 0.8464315037 -0.0615045043 -0.5000574560 -0.0018719948 0.3649585067
-0.2201463080 0.6627184700 0.1944629955 -0.4986333154 -0.0012717679 0.3650562555
0.4079007234 0.8088956829 0.2590705522 -0.4999683592 -0.0018744290 0.3650668856
-0.0623825578 0.8464313873 0.3912398221 -0.5000486726 -0.0018741963 0.3649538579
-0.3840427600 1.1057787311 0.3682398380 -0.5018039200 -0.0004925424 0.3651670122
0.3195531914 0.8464314455 -0.0568737041 -0.5000055403 -0.0018756789 0.3649764638
-0.2428800265 0.8257046441 -0.2452730646 -0.4986317689 -0.0006324551 0.3650192208
-0.2716249172 0.5032958342 0.3571673173 -0.5013711138 0.0003662308 0.3638110647
0.4278654250 0.8464314455 0.0206395129 -0.4999730080 -0.0018756377 0.3649995314
-0.4094275037 1.2313116181 0.2416247574 -0.5018184238 -0.0004423777 0.3651243247
-0.3298067230 0.9191734242 0.1297941767 -0.5009513233 0.0011083016 0.3650517099
0.4206627457 0.8464314455 -0.0427161754 -0.4999682128 -0.0018751854 0.3649870977
-0.3905196291 1.1378081868 -0.0712204394 -0.5018268224 -0.0004182967 0.3650578732
-0.3093753187 0.9324151817 -0.0468177270 -0.4992739683 0.0017267370 0.3650249394
0.3777906120 0.6523807287 -0.3684808139 -0.4981452266 0.0000049247 0.3652557017
-0.3216443594 0.9026618927 -0.0095509269 -0.5009985339 0.0011628091 0.3650350965
0.3595689624 0.6811622318 -0.2530486072 -0.4982411267 0.0006456564 0.3650151688
-0.3816015767 1.2819005884 -0.0829633676 -0.4981524841 0.0003181569 0.3650200391
0.3000944587 0.8464314455 -0.2217746676 -0.5000075053 -0.0018758760 0.3649835599
-0.3142775024 0.3229651499 -0.3492117194 -0.5013914432 0.0003677735 0.3662179498
0.3550723563 0.0381778005 0.3775823711 -0.4994458821 -0.0001350781 0.3667939999
0.4958481336 0.8267499700 0.1082767501 -0.4983707471 -0.0008485447 0.3651458270
-0.3803907180 1.2776894981 -0.2646374661 -0.4981643135 0.0003697291 0.3649896651
0.0569132218 0.8464315037 -0.2113350899 -0.5001000985 -0.0018667304 0.3649368016
0.2095591341 0.8464314455 -0.0749257052 -0.5000177807 -0.0018754650 0.3649764169
-0.3321724539 1.0348914901 0.0664411215 -0.4981489670 0.0002928690 0.3650601611
-0.4563951795 1.6586861944 -0.2361153033 -0.4981809250 0.0004591656 0.3650307011
0.3547687990 0.4226866731 0.3475275085 -0.4995797721 -0.0000396246 0.3632248987
-0.4246770885 1.3067239285 0.1388541687 -0.5018283970 -0.0004082108 0.3650922354
0.4990036451 0.8437361976 -0.0358116427 -0.4981271231 -0.0001064571 0.3649882913
0.3780836875 0.6093277196 -0.3696530051 -0.4981376181 -0.0000017942 0.3652160846
-0.3790768800 1.0812214895 -0.0928591740 -0.5018239960 -0.0004290319 0.3650581229
0.3445547155 0.6667943902 0.3723937407 -0.4999552348 -0.0010536026 0.3648540390
-0.4938995715 1.6585289177 0.0876846589 -0.5018590619 -0.0002513826 0.3650332742
0.2088750411 0.8088956829 0.0705550729 -0.5000000000 -0.0018767881 0.3650353180
-0.3829603975 1.1004263790 -0.2202277831 -0.5018313079 -0.0004050578 0.3650255324
-0.3267923667 1.0090107376 -0.3711939326 -0.4981493255 0.0002947984 0.3649602484
-0.4454132044 1.6036354981 -0.1494354476 -0.4981819628 0.0004587002 0.3650252734
-0.4098474163 1.2333880664 0.2613042285 -0.5018176374 -0.0004448326 0.3651288721
0.4472562291 0.8088956829 -0.0850694560 -0.4998666373 -0.0018703320 0.3650170193
-0.2721533213 0.8794582884 -0.2500570182 -0.5001957790 0.0018616481 0.3650085194
-0.0321183470 0.8088956829 -0.2148361406 -0.5000000000 -0.0018748532 0.3649974350
-0.4813202902 1.5954712877 -0.0713788046 -0.5018586302 -0.0002484886 0.3650299692
0.4311588522 0.8285288762 -0.3947919327 -0.4999219988 -0.0018726930 0.3649470602
0.1722367211 0.8464314455 -0.2266534684 -0.5000470511 -0.0018722820 0.3649656254
0.2830616662 0.6856644495 0.3775360257 -0.4999873392 0.0014065851 0.3662652842
-0.3236802428 0.8803611154 -0.2477848040 -0.5018032387 0.0004293547 0.3650085062
-0.3307995439 1.0281022222 0.2488537887 -0.4981490515 0.0002938994 0.3650952063
0.1298784576 0.8464313873 0.0896817248 -0.5000268662 -0.0018750540 0.3649685757
-0.3242510736 0.9957188061 -0.2840893823 -0.4981470790 0.0002837816 0.3649855099
0.2660878686 0.8464314455 -0.0933616765 -0.5000114559 -0.0018756151 0.3649776593
0.2259515909 0.8088956829 -0.2420305528 -0.5000000000 -0.0018697652 0.3648978301
-0.3200767702 0.2349555974 0.3599658768 -0.4999462938 -0.0000489523 0.3631853285
-0.2945103140 0.8494696558 -0.3205445371 -0.5017969139 -0.0004927976 0.3649803112
-0.3042322642 0.9099933253 -0.2982610582 -0.4996906040 0.0016305554 0.3649858496
0.4498324605 0.8088956248 0.1524062287 -0.4998069517 -0.0018618846 0.3651130696
-0.3183514314 0.9665437086 0.0461154741 -0.4981466698 0.0002833481 0.3650465844
0.4462400553 0.8464315037 -0.1283370459 -0.4999033360 -0.0018713642 0.3649712276
0.0900384065 0.8464314455 -0.1738138181 -0.5000745179 -0.0018696301 0.3649502939
0.0351912666 0.8088956829 -0.2006346256 -0.5000000000 -0.0018735263 0.3649714547
-0.1747254341 0.8088956829 0.3831942453 -0.5000000000 -0.0018767881 0.3650353180
-0.3954356503 1.1649470423 -0.2737806224 -0.5018392411 -0.0003625035 0.3650049253
-0.4383621902 1.5682900487 -0.0894159716 -0.4981827961 0.0004590004 0.3650218126
-0.3612191133 0.0328881989 -0.3471439193 -0.4990917490 -0.0003117514 0.3666307212
-0.3225777124 0.8789225386 0.0955541911 -0.5018416659 0.0001138554 0.3650581416
-0.4645776360 1.5040404105 0.3230098203 -0.5018331265 -0.0003871870 0.3651175983
-0.2774402504 0.4437267123 -0.3910894444 -0.5006544886 0.0002396264 0.3633282009
-0.4417378189 1.3970514589 -0.0642497818 -0.5018478255 -0.0003162388 0.3650181473
-0.4334808314 1.3502601674 0.2663985690 -0.5018253416 -0.0004166883 0.3651188032
-0.2372496622 0.6740746184 0.3099683180 -0.5017740828 0.0004499975 0.3650739198
-0.0381012379 0.8464314455 0.3545403132 -0.5000459213 -0.0018743033 0.3649556559
-0.0304619520 0.8088957411 -0.1729294342 -0.5000000000 -0.0018748213 0.3649967951
-0.3980624049 1.3661116044 -0.3484255629 -0.4981663517 0.0003831332 0.3649899279
-0.3313947448 0.8919329049 -0.1699110409 -0.5017582783 0.0005741677 0.3650207410
-0.4071413130 1.2200058708 0.3798315815 -0.5018111381 -0.0004660309 0.3651587675
0.3226432930 0.8464314455 -0.2121996568 -0.5000050035 -0.0018759117 0.3649833122
-0.3170591783 0.8718273073 -0.1702050341 -0.5018380118 0.0002550236 0.3650205327
0.0760559108 0.8464314455 -0.3361587988 -0.5001214620 -0.0018638477 0.3649263761
0.0260617997 0.8464314455 0.0746669900 -0.5000447370 -0.0018740180 0.3649641540
-0.3628811331 1.0011301511 -0.0667246929 -0.5018173183 -0.0004527902 0.3650721725
0.3309296729 0.4716352011 0.3895052213 -0.5013382494 0.0000069666 0.3663429870
-0.4579269201 1.6663645982 0.1603408103 -0.4981962527 0.0005152797 0.3650337171
0.3333336208 0.1895080055 0.3584820919 -0.5016275525 -0.0000262656 0.3641040332
0.3539496523 0.2351382464 -0.3976010434 -0.4995141878 0.0000324440 0.3632427789
0.3707235025 0.2378121027 0.3718700680 -0.4982058187 -0.0000424980 0.3655818650
-0.2918557455 0.8784258485 -0.1912273171 -0.5006880512 0.0012862399 0.3650054527
-0.4821930662 1.5998464130 -0.0283355623 -0.5018580653 -0.0002535353 0.3650301080
-0.1162169321 0.8464315037 0.1291132629 -0.5001014141 -0.0018682769 0.3649330143
0.2583098055 0.8464314455 0.2799277754 -0.5000127866 -0.0018750577 0.3649611999
-0.2657368586 0.3586481792 -0.3694386815 -0.4982431030 -0.0004789301 0.3646492533
-0.3220065663 0.9846191357 0.0509187586 -0.4981472760 0.0002858611 0.3650500621
-0.3406928599 1.0770266654 -0.1204354976 -0.4981500481 0.0002966038 0.3650291828
0.2353433202 0.8464314455 -0.3382268841 -0.5000434814 -0.0018721074 0.3649685625
0.3715282167 0.2842205407 0.3731312921 -0.4982061884 -0.0000407150 0.3655833308
-0.4601553601 1.4821713151 0.2044371128 -0.5018372329 -0.0003747026 0.3650910999
-0.0032673690 0.8464314455 -0.2301202114 -0.5001343874 -0.0018630012 0.3649184298
-0.0571447837 0.8088956829 0.2311746135 -0.5000000000 -0.0018753468 0.3650070930
0.0115046634 0.8088957411 -0.3093473264 -0.5000000000 -0.0018739936 0.3649805984
-0.4766352941 1.5667335419 0.2411645089 -0.5018506933 -0.0003038820 0.3650748601
0.2368211314 0.8088956829 0.3036920514 -0.5000000000 -0.0018767881 0.3650353180
-0.2361864936 0.8162715616 -0.4046196398 -0.4995324752 -0.0011881608 0.3649864239
-0.4059902713 1.4060154588 0.0020789679 -0.4981796469 0.0004351258 0.3650049084
-0.2915794222 0.3394833534 0.3563019735 -0.4996482374 -0.0000718472 0.3632085069
0.3455769589 0.3660229693 -0.3974133534 -0.5004695799 0.0001510552 0.3632384398
-0.2023748117 0.6560718173 -0.3937925392 -0.4989208206 -0.0002896503 0.3635607162
-0.1925895162 0.8470418821 0.4209333260 -0.5002196987 -0.0006806191 0.3649943346
-0.4834529672 1.6061620153 -0.1653532666 -0.5018609537 -0.0002306685 0.3650308681
-0.1477038778 0.8088956829 0.1786896967 -0.5000000000 -0.0018767881 0.3650353180
-0.3395274120 1.0712633099 -0.1695068502 -0.4981497741 0.0002952938 0.3650186915
-0.4065640674 1.4088918111 -0.2105113601 -0.4981717118 0.0004066061 0.3650040413
-0.4568426151 1.4727691621 -0.2596192575 -0.5018555335 -0.0002612189 0.3650231958
-0.2567133776 0.8675731485 -0.0959648849 -0.5005208481 0.0017223378 0.3650270733
0.2252662949 0.8088956248 -0.2635408776 -0.5000000000 -0.0018697783 0.3648980948
0.0157414694 0.6823310429 0.3655638009 -0.5000080796 0.0007589525 0.3633327897
-0.3567966498 1.1566632392 0.3303572244 -0.4981534451 0.0003122731 0.3651292832
-0.4567895846 1.6606633288 -0.2932848314 -0.4981788399 0.0004517654 0.3650305979
-0.4512640839 1.6329648957 -0.0009757956 -0.4981887812 0.0004856508 0.3650292410
0.4186859548 0.8088956248 0.0133736028 -0.4999444358 -0.0018739729 0.3650306260
0.3438183296 0.6669961130 -0.2561020552 -0.5014647468 -0.0011355300 0.3650057492
-0.1828228065 0.8462507427 0.1587073702 -0.5001327490 -0.0018621942 0.3649156071
0.2110236557 0.8088956829 -0.0667330840 -0.5000000000 -0.0018767881 0.3650353180
-0.1575028345 0.8464314455 -0.0635926375 -0.5001693032 -0.0018601222 0.3648980441
0.3780852921 0.6025083836 0.3715364520 -0.4981395061 -0.0000099245 0.3650402371
-0.2947650880 0.8760619944 0.0937785506 -0.5010348760 0.0010767396 0.3650470367
-0.0385734715 0.8464314455 -0.0735428840 -0.5001131534 -0.0018660285 0.3649284969
-0.3006662917 0.4042140443 0.3842026023 -0.5017330487 0.0004121708 0.3655817017
-0.3329412426 0.9426048669 0.4152283311 -0.5004767605 0.0010769160 0.3651130414
-0.3153754347 0.2639679192 0.3589803510 -0.5002406605 0.0000376972 0.3631971842
0.4278007039 0.8088956829 0.1568164349 -0.4999243692 -0.0018727418 0.3650562611
0.0423448604 0.8088956829 -0.3796849556 -0.5000000000 -0.0018733855 0.3649686939
0.3766400714 0.5258990240 0.3764787427 -0.4981731795 -0.0000309201 0.3653752738
-0.4495226291 1.4295902055 0.1722979175 -0.5018351741 -0.0003828610 0.3650884274
-0.3833621616 1.2925847866 -0.1059168505 -0.4981709330 0.0003948481 0.3649921406
-0.1904574811 0.8469086039 -0.2119045187 -0.5003433265 -0.0009230494 0.3649063864
-0.2237059220 0.8125754320 -0.3776444759 -0.5013710913 -0.0012592516 0.3649728191
0.3648708551 0.5351468787 0.3516393730 -0.4988813855 0.0001417031 0.3635561012
-0.1517540823 0.8088956829 -0.3490924739 -0.5000000000 -0.0018767881 0.3650353180
-0.4756566710 1.5624284077 0.2658316533 -0.5018141616 -0.0004406792 0.3652082678
-0.1364671757 0.8464314455 -0.2139675649 -0.5001960380 -0.0018565432 0.3648849460
0.1774278439 0.8464314455 0.1528780175 -0.5000216450 -0.0018750652 0.3649661640
-0.3984812439 1.3628022526 0.1254601605 -0.4981599256 0.0003381390 0.3651176996
0.3368399396 0.1474507094 -0.3911238103 -0.5013253390 -0.0000356365 0.3637484644
-0.3376683370 1.0620698651 0.0740684954 -0.4981498810 0.0002966508 0.3650654705
-0.4102088500 1.4207975713 0.1761579677 -0.4981619319 0.0003465752 0.3651358200
-0.4245059142 1.4914994701 0.3146410081 -0.4981645068 0.0003576839 0.3651730424
-0.0416618841 0.8088956829 -0.3774390877 -0.5000000000 -0.0018750408 0.3650011173
0.1440717823 0.8464314455 0.0391867139 -0.5000252222 -0.0018751572 0.3649709029
-0.4788583402 1.5831298931 -0.2480840654 -0.5018612540 -0.0002258827 0.3650297289
0.2304246564 0.8088956829 -0.1832194093 -0.5000000000 -0.0018767881 0.3650353180
0.4280497350 0.8088956829 -0.0184819085 -0.4999158992 -0.0018719423 0.3650149642
0.4567397127 0.8464315037 -0.2439419940 -0.4996512871 -0.0018338022 0.3649717512
-0.4563955473 1.4705279900 0.0574987440 -0.5018495128 -0.0003099816 0.3650221767
0.4197047073 0.8464314455 0.1183834437 -0.4999807779 -0.0018758009 0.3650045331
-0.1642690761 0.8023567654 0.3568902959 -0.4986575297 -0.0000839131 0.3637314082
-0.3762962476 0.0329541680 -0.3730133323 -0.5005906778 0.0000191151 0.3632763040
-0.3659107965 1.0161124963 0.3708039904 -0.5017977022 -0.0005151127 0.3651763005
-0.4959108672 1.6686112694 0.0045762447 -0.5018611507 -0.0002354130 0.3650341075
-0.3753040160 1.0625640347 0.1285784703 -0.5018122848 -0.0004670650 0.3651133605
0.0929460881 0.8088956829 -0.3951979551 -0.5000000000 -0.0018723871 0.3649491640
-0.2668988532 0.8748485082 0.1847623093 -0.5001560812 0.0018654936 0.3650798748
0.2165066528 0.8464314455 0.3866571128 -0.5000175780 -0.0018748119 0.3649561907
-0.3924165195 1.3328108706 0.3631199638 -0.4981593344 0.0003366020 0.3651604003
-0.4774683346 1.5745741490 0.2050475344 -0.5018603831 -0.0002328700 0.3650061565
-0.3239126211 0.9940450019 0.3518901588 -0.4981480981 0.0002903673 0.3651107724
0.0735557982 0.8460439225 0.4213389656 -0.5000335570 -0.0018690970 0.3649410038
-0.2659219287 0.8538702116 -0.1565427053 -0.5013489978 0.0007702714 0.3650144500
-0.3093893927 0.8623994366 -0.2524475640 -0.5018373118 0.0001560118 0.3650081121
-0.3210452041 0.9798649649 -0.3088772135 -0.4981465122 0.0002813587 0.3649783988
-0.3087301859 0.9080994678 0.2278987962 -0.5003154618 0.0015748092 0.3650601216
-0.3848071252 1.1095587681 0.1945235932 -0.5018123693 -0.0004653909 0.3651247301
0.4001931093 0.8088956829 -0.0454771766 -0.5000000000 -0.0018767881 0.3650353180
-0.2498086441 0.4346364496 -0.3521259303 -0.4986730320 -0.0002857316 0.3662778249
0.0081092853 0.8088956829 0.3197245590 -0.5000000000 -0.0018767881 0.3650353180
-0.4073715311 1.2211443830 0.0762946326 -0.5018255312 -0.0004199426 0.3650854132
-0.3984531709 1.3682333002 -0.2037816596 -0.4981703099 0.0003984027 0.3649997153
-0.0128052644 0.8464314455 -0.0361891136 -0.5000912401 -0.0018685378 0.3649400091
0.1095497755 0.8464314455 -0.0237035591 -0.5000289926 -0.0018751741 0.3649734028
-0.2223596437 0.8181988654 -0.0888276417 -0.5014636658 -0.0006350713 0.3650181829
0.3201466168 0.8464314455 0.3169788949 -0.5000059382 -0.0018751384 0.3649600438
-0.3756389889 1.0642204279 0.0619261022 -0.5018155410 -0.0004565963 0.3650971169
-0.4636631747 1.5069593753 -0.0910659499 -0.5018542366 -0.0002752479 0.3650247592
0.0610833024 0.8088956248 -0.1800154448 -0.5000000000 -0.0018730158 0.3649614626
-0.2227012041 0.7543302790 -0.3623603488 -0.5017343624 0.0003920329 0.3656178712
0.3410231934 0.2729616155 -0.3955625681 -0.5008885316 0.0000081302 0.3633940818
-0.3570251337 0.9721710945 -0.2056716209 -0.5018219033 -0.0004389845 0.3650414438
-0.4526115446 1.6325464433 0.3310781569 -0.4981679827 0.0004054951 0.3650505988
-0.4814197262 1.5959696951 -0.3008947343 -0.5018629262 -0.0002135729 0.3650306411
-0.0815248451 0.8464314455 -0.3021035248 -0.5001907098 -0.0018566708 0.3648886226
-0.3617775873 1.1812949386 0.1857743298 -0.4981540175 0.0003140767 0.3651041999
-0.0479774582 0.8169979800 0.4213389618 -0.5007020051 -0.0013520551 0.3642818195
0.3338817987 0.8464314455 0.2795772251 -0.5000043617 -0.0018752229 0.3649617930
-0.4150079887 1.4512196613 -0.1154446657 -0.4981770382 0.0004291501 0.3650091087
-0.3200309221 0.9748490459 -0.3876843296 -0.4981462119 0.0002798310 0.3649621458
-0.3254260574 1.0015292445 -0.0289994085 -0.4981477021 0.0002873062 0.3650366599
-0.0917645617 0.8088956829 0.0875796451 -0.5000000000 -0.0018760299 0.3650204557
-0.4672059689 1.5247187570 -0.0143337638 -0.5018537637 -0.0002808989 0.3650256000
-0.1655321339 0.8088956829 -0.3207382404 -0.5000000000 -0.0018767881 0.3650353180
-0.4527964927 1.4457802526 0.3566771453 -0.5018275787 -0.0004066812 0.3651313533
-0.3533964315 1.1398484375 -0.0044236093 -0.4981523246 0.0003063969 0.3650608667
0.3042152830 0.8464314455 -0.4108950920 -0.5000274743 -0.0018734456 0.3649778752
-0.1126733534 0.8088956829 -0.4025579674 -0.5000067189 -0.0018530561 0.3649119211
-0.2903649489 0.8462454164 -0.1365841334 -0.5017989352 -0.0003981756 0.3650077555
-0.3526995819 0.1067736540 0.4006942924 -0.4999691944 -0.0000350134 0.3669054623
-0.4485988552 1.4250220638 0.1909467804 -0.5018339823 -0.0003868060 0.3650933689
-0.2704332093 0.8751819065 -0.2257358072 -0.5002893989 0.0017774310 0.3650198795
-0.1609583224 0.8464314455 -0.2739062827 -0.5002228949 -0.0018533977 0.3648709639
0.3452727709 0.4409778539 0.3475939112 -0.5004034607 0.0000144137 0.3632121704
-0.3868798856 1.3102185080 -0.2496205261 -0.4981662091 0.0003790906 0.3649932385
-0.0630008694 0.8088956829 -0.3077690564 -0.5000000000 -0.0018754612 0.3650093545
-0.4168322343 1.2722042695 -0.1637189238 -0.5018429628 -0.0003431275 0.3650109986
0.4451263430 0.8386362004 0.3842108039 -0.4987174480 -0.0003652793 0.3658902156
0.4766794417 0.8125143763 0.2609419127 -0.4993130467 -0.0017394673 0.3651624347
-0.3912835907 1.3309951381 0.0125174270 -0.4981583341 0.0003212517 0.3650753949
-0.4369389055 1.5547942191 0.2481770921 -0.4981660890 0.0003940073 0.3650381201
0.2041254515 0.8239515701 -0.4213389074 -0.5000793712 -0.0018623275 0.3648608274
-0.3625236669 1.1856751031 -0.1582015627 -0.4981537435 0.0003234250 0.3649858196
-0.1678701858 0.8338901617 -0.4213389656 -0.5001949195 -0.0018058437 0.3646674844
0.1792824089 0.8464314455 -0.2865397806 -0.5000583550 -0.0018707862 0.3649600532
-0.4279851434 1.3230828227 0.2885695889 -0.5018224495 -0.0004267572 0.3651267814
-0.3185317907 0.8737206487 -0.0118109420 -0.5018477148 0.0001417519 0.3650431836
0.3067931172 0.8088956829 0.1358126796 -0.5000000000 -0.0018767881 0.3650353180
-0.3093898075 0.3661553317 -0.3722938430 -0.5017104559 0.0003820953 0.3643781344
-0.3185835094 0.9039506944 0.3506236309 -0.5009147878 0.0009952007 0.3650845274
0.3246976347 0.8464314455 0.3800578171 -0.5000055102 -0.0018750577 0.3649573074
-0.4410785445 1.5819066139 -0.1871822118 -0.4981796488 0.0004486443 0.3650227341
-0.3810885360 1.0911695889 -0.0184497779 -0.5018211620 -0.0004378002 0.3650751172
-0.0626611426 0.8464313873 0.1808158593 -0.5000622681 -0.0018726855 0.3649537171
-0.3328758928 1.0383702595 0.0025452428 -0.4981489745 0.0002926588 0.3650480389
0.2514192755 0.8464314455 0.0518359319 -0.5000132708 -0.0018753730 0.3649711675
0.3539036034 0.8088956829 0.2295564655 -0.5000000000 -0.0018767881 0.3650353180
-0.0894743040 0.8088956829 -0.3817288717 -0.5000000000 -0.0018759680 0.3650192527
-0.0741552105 0.8464313873 0.0930657633 -0.5000895810 -0.0018693542 0.3649397388
-0.3213214279 0.9812309739 0.3702803403 -0.4981477040 0.0002888208 0.3651126079
-0.3865879268 1.1183652605 0.1188423597 -0.5018165376 -0.0004517898 0.3651056169
-0.3589400826 0.0669320132 0.4004533372 -0.4991657114 -0.0002589442 0.3666911594
-0.4899136827 1.6315822772 0.3070161979 -0.5018514027 -0.0003009205 0.3650878925
-0.4381439855 1.3750970241 0.0191729869 -0.5018453857 -0.0003234550 0.3650325685
0.3416299083 0.8464314455 0.1858924023 -0.5000033820 -0.0018753749 0.3649659669
-0.1015813291 0.6628568475 0.3703150646 -0.5000108178 -0.0016474183 0.3642060779
-0.2520409391 0.8439954233 0.4043815805 -0.5003741978 0.0004100181 0.3650983312
0.3430340630 0.0594406689 -0.3944756582 -0.5011129297 -0.0000633585 0.3635287170
0.4229341585 0.8088956829 0.2148532062 -0.4999388223 -0.0018737609 0.3650776227
-0.2744104443 0.4578488448 0.3986767583 -0.5007905013 0.0003332556 0.3666951851
-0.4074107503 1.4069602677 0.2352157962 -0.4981615734 0.0003453253 0.3651455380
0.3635895549 0.6113581191 0.3967627197 -0.4989621118 -0.0001487392 0.3665751288
0.1094352821 0.8088957411 -0.1486897265 -0.5000000000 -0.0018720624 0.3649427999
-0.2873313198 0.4278165694 -0.3477001749 -0.5011529654 0.0003578697 0.3664420045
-0.2330027477 0.8417381577 -0.3680702665 -0.4982627942 -0.0003974981 0.3649920205
-0.4521413266 1.5311920957 0.3755443669 -0.5000795158 -0.0000351034 0.3651693470
-0.0488133871 0.8088956829 -0.1592225467 -0.5000000000 -0.0018751816 0.3650038781
0.1514464580 0.8464314455 -0.2950451799 -0.5000741688 -0.0018690670 0.3649515776
-0.3286886865 1.0176636186 0.1883163961 -0.4981486029 0.0002918312 0.3650818004
-0.3200163301 0.9217497682 0.2708956612 -0.5003755434 0.0013975259 0.3650571188
-0.0900609730 0.8088956829 -0.2593869487 -0.5000000000 -0.0018759961 0.3650197970
-0.3310900707 0.2727939151 -0.3632851680 -0.5018284233 0.0004127864 0.3650596149
-0.3367997463 1.0577744677 -0.1093256026 -0.4981494287 0.0002941021 0.3650286798
0.2651140221 0.8464314455 -0.2662349225 -0.5000113489 -0.0018758647 0.3649852472
-0.4413859812 1.5834477703 0.0121626953 -0.4981872610 0.0004763382 0.3650240010
0.3270165847 0.4949919870 0.3610921130 -0.5015966888 -0.0000085732 0.3640511566
-0.4129936827 1.2529622647 -0.3533536200 -0.5018454551 -0.0003208839 0.3650103849
-0.2581848302 0.8641864186 0.1097908433 -0.5004894419 0.0015832547 0.3650526276
0.3426778692 0.6765100100 0.2197816650 -0.5018760243 0.0000000000 0.3650648343
0.0819522611 0.8464314455 0.0970564568 -0.5000322188 -0.0018749376 0.3649678869
-0.1464287636 0.8464314455 -0.2379060650 -0.5002068540 -0.0018552764 0.3648793137
0.1698194274 0.8464313873 0.1830667533 -0.5000225308 -0.0018750052 0.3649647789
-0.2827333653 0.8628817506 -0.1828882444 -0.5010498452 0.0007916762 0.3650125788
0.3483729547 0.8088956829 -0.2389085495 -0.5000000000 -0.0018767881 0.3650353180
0.0531993377 0.8088956829 -0.2260208651 -0.5000000000 -0.0018731716 0.3649645049
-0.3007474215 0.9040673630 0.4175853856 -0.5002019424 0.0016327456 0.3650841633
-0.2858118421 0.3161030570 -0.3806395595 -0.4988033580 -0.0003192342 0.3636350445
0.1753721847 0.8088956829 -0.0023495088 -0.5000000000 -0.0018767881 0.3650353180
-0.0087074083 0.8464314455 -0.3868814490 -0.5001757443 -0.0018578382 0.3648974811
0.3514836184 0.8464315037 -0.1845817529 -0.5000018224 -0.0018759342 0.3649823194
-0.1570579212 0.8464314455 -0.3931705322 -0.5002503973 -0.0018498900 0.3648571695
-0.3860578036 1.3013657359 0.1640386440 -0.4981579569 0.0003301890 0.3651167143
0.1948468981 0.8088956829 -0.0965622046 -0.5000000000 -0.0018767881 0.3650353180
-0.4218814155 1.2975149064 -0.2679637709 -0.5018462622 -0.0003188419 0.3650127947
-0.4377769251 1.3715053077 0.3233439937 -0.5018241011 -0.0004200271 0.3651304899
-0.4199523345 1.4760047430 -0.2918185325 -0.4981713684 0.0004105155 0.3650107940
-0.3825302058 1.1751458919 -0.3989678538 -0.4997588102 0.0000411730 0.3643734912
-0.3886682264 1.1286526588 0.3907226487 -0.5018044135 -0.0004902752 0.3651702272
-0.1578105733 0.8464314455 -0.2985791062 -0.5002274311 -0.0018527934 0.3648687343
-0.3111808696 0.9372300066 -0.3912637906 -0.4989432200 0.0015375530 0.3649932367
-0.2118885660 0.8104268155 -0.1651568701 -0.5007978095 -0.0014664697 0.3650032005
-0.0585166933 0.8088957411 0.3571894127 -0.5000000000 -0.0018767881 0.3650353180
0.3447792901 0.2714886746 -0.3556163284 -0.5005125377 -0.0000537231 0.3668224764
-0.4143682704 1.4413668670 0.1801175046 -0.4981626207 0.0003494185 0.3651394816
-0.3982996309 1.3674637533 -0.0489538553 -0.4981761411 0.0004194715 0.3650004886
-0.3741417042 1.2463641814 -0.3252408597 -0.4981607420 0.0003543826 0.3649859697
-0.4214196637 1.4762373934 0.2850540626 -0.4981639532 0.0003552891 0.3651650679
-0.4930910681 1.6544760219 0.1816467922 -0.5018570969 -0.0002669694 0.3650327712
-0.4049808784 1.2127955173 -0.2718981645 -0.5018417804 -0.0003467122 0.3650077668
-0.3568208491 1.1567829445 0.1965431524 -0.4981532236 0.0003108562 0.3651028936
0.3994161153 0.8088956829 0.0232822690 -0.5000000000 -0.0018767881 0.3650353180
-0.3303327379 0.9375691309 -0.1626340765 -0.4998543481 0.0017019597 0.3650214035
0.3576130770 0.5405487160 0.4000250561 -0.4995912130 0.0001772289 0.3668566095
-0.2098448789 0.8481203146 -0.1261824725 -0.5008123508 0.0012867503 0.3650117624
-0.3345889875 1.0468418090 0.0517819517 -0.4981493386 0.0002943404 0.3650589411
-0.2288789450 0.6831508784 0.1294558669 -0.5000000000 0.0018767881 0.3650353180
0.3817022664 0.8464314455 -0.3889174619 -0.4999804683 -0.0018747818 0.3649527994
0.3101323662 0.8464314455 0.2752282247 -0.5000070023 -0.0018751778 0.3649618023
-0.3040405353 0.8577192075 -0.1772854294 -0.5018195179 -0.0002370665 0.3650119370
-0.4624570062 1.6890730026 -0.0389827315 -0.4981896295 0.0004930322 0.3650350515
-0.4237504206 1.4950438783 -0.3051693426 -0.4981716386 0.0004129591 0.3650127628
0.4687623143 0.8307864271 0.3031667403 -0.4992807998 -0.0017191623 0.3651779258
0.4979684557 0.8123252543 -0.0689369419 -0.4981675041 -0.0002843203 0.3649642328
0.4316854977 0.8088956829 -0.3785316655 -0.4998989781 -0.0018706341 0.3649252800
-0.4780436828 1.5706327119 0.3032421628 -0.5018385861 -0.0003677285 0.3651063901
-0.3748943845 1.0605381020 0.2701731522 -0.5018054683 -0.0004889352 0.3651477226
-0.3658744694 1.2015549490 0.3220407727 -0.4981549183 0.0003182958 0.3651339245
-0.1093622562 0.8464314455 0.2154697011 -0.5000767306 -0.0018713229 0.3649455831
-0.0563888678 0.8256517224 -0.4213389656 -0.5001364387 -0.0018075647 0.3646575506
-0.4417493311 1.5852692307 0.0946923737 -0.4981904609 0.0004880700 0.3650246522
-0.2178976906 0.6794008530 -0.3762923833 -0.5000647267 0.0013262924 0.3637090256
0.2401425096 0.8088956829 -0.2121565864 -0.5000000000 -0.0018741081 0.3649828374
0.3621588249 0.5555292857 0.3840150568 -0.4990793472 -0.0002959864 0.3656917810
-0.4134301973 1.2511057534 0.0984009315 -0.5018265240 -0.0004158662 0.3650878512
-0.4043701040 1.2063017891 -0.0799281620 -0.5018318897 -0.0004000374 0.3650491518
-0.0396361522 0.8088956829 0.1893656896 -0.5000000000 -0.0018750014 0.3650003366
0.3578740801 0.5555292857 -0.3783126462 -0.4994803737 0.0000382152 0.3644834184
-0.4053021770 1.4025661287 -0.0593573498 -0.4981771789 0.0004259221 0.3650041971
-0.2635501264 0.8570325958 -0.2843848638 -0.5012470863 0.0009217920 0.3649983284
-0.1828228065 0.8404144177 0.3541704602 -0.5002723182 -0.0017545191 0.3648320074
-0.4319893610 1.4399937563 0.3816074078 -0.4999057965 -0.0000248768 0.3651836049
-0.2510007668 0.8457636768 0.3673022134 -0.5002499525 0.0005855091 0.3650959514
0.4127306133 0.8464314455 0.1421531249 -0.4999829700 -0.0018759023 0.3650069260
0.4503918072 0.8088956829 -0.0394537621 -0.4998363497 -0.0018664921 0.3650451880
0.3268548412 0.4446017610 -0.3817459974 -0.5017427141 0.0000064280 0.3643432805
0.3440091126 0.6826053918 -0.0337607956 -0.5015953562 0.0009822696 0.3650404604
-0.2689251012 0.8498659997 0.2040089668 -0.5013070647 0.0006658600 0.3650611426
-0.1541185670 0.8088956829 -0.2982333943 -0.5000000000 -0.0018767881 0.3650353180
0.1689248488 0.8088956829 -0.3531851182 -0.5000000000 -0.0018708894 0.3649198392
-0.3466995785 1.1067310997 -0.1544379062 -0.4981509733 0.0003002823 0.3650266304
-0.1117266546 0.6767529715 0.3819264112 -0.5000382583 0.0000000000 0.3669109256
0.3993829543 0.8088956829 0.1930756662 -0.5000000000 -0.0018767881 0.3650353180
-0.4032179381 1.2006039542 0.3534212088 -0.5018110649 -0.0004668454 0.3651542707
-0.2239763747 0.8524800896 0.2314718141 -0.4991623350 0.0012570014 0.3650559627
0.3560621275 0.8088956829 -0.2949556590 -0.5000000000 -0.0018767881 0.3650353180
0.3778000053 0.5487732388 0.3708362036 -0.4981355461 -0.0000287224 0.3649356193
-0.4968035933 1.6891093147 0.1625262249 -0.5015481700 -0.0001830094 0.3650350984
0.2577289227 0.8402099454 0.4213389656 -0.5000130268 -0.0017889225 0.3647532011
-0.3021401785 0.9172930270 -0.2240669278 -0.4993416377 0.0017512610 0.3649901756
-0.1348266189 0.8088956829 0.3878708598 -0.5000000000 -0.0018767881 0.3650353180
-0.2026228405 0.6035623578 0.3818314513 -0.4982524437 -0.0003800383 0.3655701726
-0.2880325667 0.8444314012 0.1663774974 -0.5018288475 -0.0001953361 0.3650513965
-0.3053458471 0.8588613288 -0.0219409473 -0.5018239622 -0.0002904123 0.3650360068
0.3494186822 0.7466029605 -0.3425138642 -0.5000307962 0.0002558907 0.3668722075
-0.2140781040 0.8444236688 0.2861037277 -0.5007592922 0.0014744742 0.3650694549
0.1786713417 0.8464314455 0.2002678336 -0.5000215643 -0.0018749995 0.3649640901
0.2597230101 0.8464313873 -0.3010385526 -0.5000222944 -0.0018745379 0.3649796844
-0.3034194310 0.8920739155 -0.1109061340 -0.5005195719 0.0013726115 0.3650140990
0.3439978293 0.4311623759 -0.3480697126 -0.5004663837 0.0000065856 0.3668458180
-0.4126708526 1.2492538214 -0.1063063478 -0.5018389596 -0.0003665142 0.3650388726
-0.3922139446 1.3318090167 0.0502259310 -0.4981587733 0.0003331130 0.3650985170
-0.1981304178 0.7366249075 0.4006942924 -0.4999668052 0.0001593449 0.3668697132
-0.2998427627 0.3972091372 0.3662656108 -0.5015109608 0.0003580874 0.3639832000
-0.3613622860 1.1811013498 -0.3966804620 -0.4981635722 0.0003552028 0.3649367998
-0.3819672782 1.0955150460 0.2211796056 -0.5018101565 -0.0004728887 0.3651325187
0.3488124834 0.6874087045 -0.2979075558 -0.5007385049 0.0016346656 0.3650322757
-0.3322626917 1.0353377771 -0.3207352057 -0.4981483289 0.0002887833 0.3649838227
-0.4546305670 1.6453800594 -0.3233160183 -0.4981995971 0.0005057118 0.3648913346
0.4667627298 0.8464314455 0.1184303522 -0.4994210296 -0.0017618029 0.3650895215
-0.1889929595 0.8088956248 0.3667805208 -0.5003858845 0.0004548471 0.3645285721
0.0549229143 0.8088956829 -0.3992521103 -0.5000000000 -0.0018730758 0.3649626375
-0.2140425088 0.8487548642 0.1072856915 -0.5005843830 0.0016463336 0.3650499626
0.3685286100 0.2009774876 0.3577012166 -0.4984679816 -0.0000089316 0.3639545058
-0.4466181981 1.6008492973 0.3648739762 -0.4981682135 0.0003731074 0.3651982589
-0.4728429227 1.6891093147 -0.0598207044 -0.4992085584 0.0003129676 0.3650356389
-0.2788253050 0.8861303133 -0.1572347015 -0.4999750481 0.0018562523 0.3650065769
0.0713002517 0.8088956829 -0.1268028185 -0.5000000000 -0.0018728150 0.3649575195
0.3822911124 0.8464314455 0.3502069032 -0.4999991179 -0.0018764503 0.3650203394
-0.4968118099 1.6731275198 0.0347935189 -0.5018608317 -0.0002384703 0.3650342914
-0.4760760375 1.6891093147 -0.2165120655 -0.4995202798 0.0002362651 0.3650349914
-0.3630901585 1.0028048730 -0.3709498262 -0.5018323289 -0.0004022745 0.3649955526
0.0735326029 0.8088956829 -0.2746270895 -0.5000000000 -0.0018727699 0.3649566581
0.2506368988 0.8088956829 0.1700935886 -0.5000000000 -0.0018767881 0.3650353180
-0.2725929946 0.4979519596 -0.3876072949 -0.5012820546 0.0003481423 0.3637135055
0.3777520083 0.7324328911 0.3702030710 -0.4981528764 -0.0000054389 0.3647588352
-0.3100951213 0.3357702426 -0.3814401485 -0.5013067381 0.0003037431 0.3637294563
-0.3799924486 1.2713711464 0.0823147233 -0.4981568251 0.0003252305 0.3650963906
0.0590658471 0.8464315037 0.0016131792 -0.5000464993 -0.0018734700 0.3649638612
0.3716320575 0.7481084355 0.3583305581 -0.4986378347 0.0000762989 0.3637570808
0.0238748667 0.8464315037 0.1976509228 -0.5000388176 -0.0018746655 0.3649630223
-0.3584151412 0.0264465553 -0.3659809884 -0.4985430475 -0.0004763589 0.3639575818
-0.4348804255 1.5508366285 -0.0980033302 -0.4981817602 0.0004539050 0.3650198927
-0.4784280340 1.5809729155 0.0477779687 -0.5018556330 -0.0002714005 0.3650287736
-0.2184817809 0.6723622670 -0.1550647234 -0.4981241221 0.0000000000 0.3650107753
-0.2834562196 0.8907612299 0.0671218363 -0.4999894093 0.0018603700 0.3650335951
-0.2979584430 0.8523973270 0.4064696481 -0.5018676069 -0.0000062553 0.3650885062
-0.2877671532 0.8442249826 0.2442138749 -0.5018426156 -0.0001402862 0.3650621880
0.3637144139 0.0959756942 0.3760661215 -0.4987591615 -0.0000844930 0.3664286230
0.3477319320 0.6117121939 0.3468807167 -0.5001089269 0.0000873176 0.3631872766
0.0197526104 0.8464315037 0.0530127625 -0.5000531901 -0.0018730158 0.3649597792
-0.2810035747 0.8389643849 -0.0237104601 -0.5017943896 -0.0004160708 0.3650243951
0.2459934397 0.8088956248 -0.3574944340 -0.5000000000 -0.0018693692 0.3648900940
-0.2717254774 0.8461321841 -0.3688109484 -0.5015052854 0.0000080176 0.3649809475
0.3533334296 0.3492916734 0.3472317192 -0.4996439658 -0.0000338235 0.3632163106
-0.4540058499 1.4543169810 0.1439134152 -0.5018178814 -0.0004328061 0.3651686056
-0.2539669253 0.5567873888 0.3501267569 -0.5010827660 -0.0000243663 0.3635044820
0.4673257418 0.8251247916 -0.3090815131 -0.4994868730 -0.0018008627 0.3649353302
-0.2739559106 0.8812608477 0.4135413238 -0.5002455308 0.0018587484 0.3651034867
-0.2054064926 0.7896926252 0.3947393544 -0.5011371666 0.0004751033 0.3664298955
-0.3658943014 1.2016531181 0.1413321596 -0.4981546162 0.0003163721 0.3650982786
-0.4875956297 1.6269283362 0.0071964906 -0.5018588592 -0.0002498155 0.3650316207
0.3325901331 0.8088956829 0.2637249211 -0.5000000000 -0.0018767881 0.3650353180
0.0891948034 0.8088956829 -0.4185473221 -0.5000194060 -0.0018060801 0.3646366901
0.4184419648 0.8088956829 0.2934256093 -0.4999459297 -0.0018742226 0.3650897918
0.2011536795 0.8464314455 -0.0511347450 -0.5000187454 -0.0018754124 0.3649753077
-0.4731826795 1.5546788661 0.0356232057 -0.5018544450 -0.0002783952 0.3650272441
0.0289756653 0.8088956829 0.2649867983 -0.5000000000 -0.0018767881 0.3650353180
-0.4613754526 1.6768402027 -0.3256099977 -0.4982031837 0.0005187724 0.3648857417
-0.4063646080 1.2161648925 0.1402827235 -0.5018221736 -0.0004308299 0.3651013359
-0.4014005522 1.1916165864 0.1709406713 -0.5018190600 -0.0004415313 0.3651111065
0.3050132370 0.8464314455 -0.1970448573 -0.5000069873 -0.0018758516 0.3649825127
0.4446792526 0.8088957411 0.2494707997 -0.4998613316 -0.0018698534 0.3650863291
0.2041736774 0.8088956829 0.2440952431 -0.5000000000 -0.0018767881 0.3650353180
-0.3749139162 1.0606348973 -0.2395939019 -0.5018295156 -0.0004119794 0.3650247066
-0.2817511276 0.4914033617 -0.3700533014 -0.5018210794 0.0004091942 0.3649529908
-0.4756731080 1.5671629905 -0.0685943229 -0.5018570556 -0.0002584225 0.3650282763
0.0145703086 0.8088956829 -0.3941050901 -0.5000000000 -0.0018738885 0.3649785583
-0.2993166633 0.8723638603 0.0708645591 -0.5012688814 0.0007615837 0.3650473069
-0.3602169854 1.1765621894 -0.2905242901 -0.4981592105 0.0003434766 0.3649786709
-0.3025604345 0.8925792539 -0.2452162486 -0.5003577702 0.0013907413 0.3649946668
-0.4183455692 1.4610352256 0.3080469337 -0.4981634877 0.0003534668 0.3651674777
0.0739522002 0.8088956829 -0.1014549537 -0.5000000000 -0.0018727624 0.3649564948
-0.4003539088 1.1864407557 -0.1274991688 -0.5018327831 -0.0003977721 0.3650395915
-0.1140767649 0.8394158839 0.4213389618 -0.5001312551 -0.0017635897 0.3647578781
-0.1793887384 0.8464314455 0.2825392604 -0.5000946896 -0.0018697502 0.3649352664
0.2506715500 0.8464314455 0.4045385645 -0.5000137925 -0.0018748607 0.3649556671
0.3437791535 0.8464314455 -0.0831767734 -0.5000028077 -0.0018757709 0.3649778057
-0.2888198981 0.2753955469 0.3846490696 -0.4982268800 -0.0004722618 0.3654256806
-0.3028940317 0.9186121857 -0.3960355450 -0.4992690642 0.0017266488 0.3649750037
-0.2836320109 0.8410087609 0.1054822445 -0.5018175755 -0.0002902021 0.3650425643
-0.3373837089 1.0606622741 0.2628313954 -0.4981501532 0.0002984825 0.3651025220
-0.0097675120 0.8088956829 0.3731497372 -0.5000000000 -0.0018767881 0.3650353180
-0.2899479003 0.8556672156 0.2238895882 -0.5015248828 0.0004340748 0.3650643012
-0.1044474286 0.8464314455 -0.1263585940 -0.5001586449 -0.0018609424 0.3649043745
0.3442847771 0.3075930203 -0.3967033719 -0.5006378283 0.0000924412 0.3632849297
-0.2045820478 0.7073692808 -0.3425138061 -0.4999646582 0.0000713743 0.3668668774
0.1572194939 0.8088956829 -0.1040652338 -0.5000000000 -0.0018711202 0.3649243567
-0.3497997753 0.9344975870 0.3830885446 -0.5012215883 0.0014175399 0.3650898837
-0.3993731593 1.2344932450 0.3952694983 -0.5007653148 -0.0002539520 0.3651859753
0.4070979573 0.8464313873 -0.0606621605 -0.4999738920 -0.0018753580 0.3649863657
-0.2503785027 0.8220289039 -0.2024878169 -0.4997813861 -0.0009723545 0.3650163381
0.1292024404 0.8088956829 0.0259900613 -0.5000000000 -0.0018767881 0.3650353180
-0.0683097493 0.8088956829 -0.0765396004 -0.5000000000 -0.0018755663 0.3650114021
-0.4217630277 1.4850814590 -0.2670416430 -0.4981726765 0.0004159526 0.3650119032
-0.0807415244 0.8088956829 -0.0588817661 -0.5000000000 -0.0018758122 0.3650162010
-0.1613558392 0.8088956829 0.2154083583 -0.5000000000 -0.0018767881 0.3650353180
-0.2250684946 0.8129361507 -0.2008457999 -0.5013076259 -0.0011668142 0.3649976640
-0.3609974290 1.1774370073 0.0016049889 -0.4981535783 0.0003115787 0.3650673172
-0.0254821180 0.8464314455 0.3713526826 -0.5000445343 -0.0018743070 0.3649550140
-0.4779373290 1.5785130675 -0.2105865067 -0.5018603081 -0.0002331102 0.3650293498
-0.4779145710 1.5749483843 0.2826891913 -0.5018112863 -0.0004499374 0.3652168560
-0.3835613282 1.2935830897 -0.2046162710 -0.4981672357 0.0003815304 0.3649917015
-0.3854609981 1.2685001786 0.3930086574 -0.4987446108 0.0001956308 0.3651693826
-0.2184817809 0.6711581178 0.0470490280 -0.4981238763 0.0000000000 0.3650391129
-0.0457424156 0.8464314455 0.4032344764 -0.5000468334 -0.0018742151 0.3649534581
-0.3228947882 0.8793301075 0.0715339606 -0.5018379536 0.0001396987 0.3650546358
0.3399464800 0.3173128215 0.3496796496 -0.5009101972 0.0000220204 0.3634040400
-0.3460217426 1.1033791354 -0.1746376061 -0.4981508288 0.0002996105 0.3650221749
-0.2203952827 0.5988226214 0.3486786497 -0.4993983374 -0.0003596395 0.3633266676
-0.3370139986 0.2449087078 -0.3570264963 -0.5017328854 0.0003969182 0.3656106343
-0.4167319312 1.4132505558 -0.3828707077 -0.4994003887 0.0001798489 0.3637238241
0.4693729817 0.8464314455 0.2329442820 -0.4992040335 -0.0016874277 0.3651674702
-0.2211228178 0.8514100201 0.3996701573 -0.4994415260 0.0014319781 0.3650752317
-0.3245832407 0.9291462090 0.1778578629 -0.5000917674 0.0017570303 0.3650450923
-0.3215239240 0.9552851569 0.3819066655 -0.4986759635 0.0001660226 0.3651221570
-0.2995719384 0.8721564096 -0.3403965207 -0.5011292165 0.0009031330 0.3649896407
0.1072667923 0.8088956829 -0.3446270263 -0.5000000000 -0.0018721055 0.3649436369
-0.3846952311 1.2964752502 -0.0623244242 -0.4981528295 0.0003211916 0.3650172764
-0.4325974291 1.5393923912 -0.0042160441 -0.4981848456 0.0004642029 0.3650191833
-0.3211407965 0.9389479133 -0.2911544855 -0.4993415889 0.0015898967 0.3650072619
-0.3451546984 1.1010576649 -0.3845708601 -0.4981525705 0.0003136244 0.3649700508
-0.4714011609 1.5436425412 0.2534229270 -0.5018408195 -0.0003281620 0.3651005495
0.0559992842 0.8088956829 0.0082998956 -0.5000000000 -0.0018731153 0.3649634239
-0.2128610388 0.6800901016 0.3650353180 -0.5000552808 0.0002508984 0.3632069717
-0.4052646900 1.2142182278 -0.3526210158 -0.5018433588 -0.0003340120 0.3650080764
-0.3772882953 1.1412249847 -0.4012612044 -0.5000018674 -0.0000143950 0.3644682446
-0.1031563635 0.8464314455 -0.3165750908 -0.5002049396 -0.0018550906 0.3648810592
-0.3630128517 1.0020265051 -0.4100186694 -0.5018302250 -0.0003963908 0.3649710605
-0.4444322617 1.4044172573 0.1789666206 -0.5018331472 -0.0003900960 0.3650924700
-0.4089371215 1.4168359719 0.1019404995 -0.4981686733 0.0003965766 0.3650133990
-0.2817042905 0.8866738537 -0.1249293523 -0.5000198170 0.0017908350 0.3650083185
-0.2677003600 0.8514990249 0.2776347419 -0.5011068471 0.0007974848 0.3650711084
0.3780777305 0.6580884149 0.3735790112 -0.4981365971 0.0000016215 0.3651493573
-0.4852449132 1.6151446874 -0.2971114335 -0.5018638871 -0.0002077023 0.3650317709
0.3755744687 0.6342059876 -0.3798383380 -0.4982375345 -0.0000664796 0.3644180086
-0.3963911344 1.1668439909 -0.0513648487 -0.5018278603 -0.0004141095 0.3650598589
0.3539078412 0.2310329882 0.3474769197 -0.4995577180 -0.0000444630 0.3632349583
-0.1828228065 0.8106926288 -0.2234977299 -0.5017858784 -0.0003004813 0.3650262925
-0.2428800265 0.8520404464 -0.4013900159 -0.4990720765 0.0011796890 0.3649879254
-0.2587283124 0.5705283550 -0.3534564286 -0.5014975587 0.0002689644 0.3660976420
0.3037945390 0.8088956829 0.0987714432 -0.5000000000 -0.0018767881 0.3650353180
0.3962170773 0.8464314455 -0.1816966379 -0.4999757012 -0.0018752004 0.3649745720
0.4396725562 0.8464314455 0.1558799589 -0.4999674077 -0.0018750559 0.3650054414
0.4396977577 0.8088956829 0.3203853667 -0.4998853602 -0.0018707036 0.3651164497
0.2203771849 0.8464314455 -0.3221148458 -0.5000468822 -0.0018718259 0.3649665788
-0.3590377356 0.1489642734 -0.3614123887 -0.5018282976 0.0004102884 0.3649918891
-0.1956317071 0.8472320364 -0.3512200685 -0.5005713675 -0.0003835160 0.3649178086
-0.1134345974 0.8464314455 -0.0538739530 -0.5001451902 -0.0018627291 0.3649109958
-0.3847032055 1.1752291687 0.3992095015 -0.5004992951 -0.0002136385 0.3651937208
-0.1658362636 0.8088957411 -0.3677120120 -0.5000000000 -0.0018767881 0.3650353180
-0.2202551599 0.6626095900 -0.3002670013 -0.4986536091 -0.0013001562 0.3650245452
-0.2829442806 0.8404738124 0.3543487363 -0.5018616180 -0.0001123783 0.3650770841
-0.2770569520 0.8843619473 -0.3134379663 -0.4999445953 0.0018582717 0.3649889257
-0.2276732494 0.6587526327 0.2973290828 -0.4999522564 -0.0018706980 0.3650351003
-0.3848282090 1.2952850737 0.0846678684 -0.4981576209 0.0003285111 0.3651002005
0.3760598755 0.5474260728 -0.3774790652 -0.4982039663 -0.0000173021 0.3645186514
-0.3773236483 1.0725514247 0.2240569733 -0.5018084599 -0.0004790032 0.3651354334
-0.4675056995 1.5262211953 -0.0933856469 -0.5018553158 -0.0002684257 0.3650259115
-0.1894206607 0.6871771989 -0.3877507116 -0.4986330339 -0.0002973095 0.3638048544
-0.4572188398 1.6628150364 0.0184607421 -0.4981907350 0.0004950179 0.3650325516
-0.3420924315 1.0839477814 0.3289110127 -0.4981510353 0.0003023600 0.3651188201
-0.1828228065 0.8265639409 -0.3920459946 -0.5011127815 -0.0009898988 0.3649465816
-0.1506619324 0.8464314455 0.1938996963 -0.5001024032 -0.0018684927 0.3649318957
0.3802014890 0.8088956829 0.1492976407 -0.5000000000 -0.0018767881 0.3650353180
-0.4602458570 1.6779889097 -0.2232281931 -0.4981821993 0.0004652670 0.3650328444
-0.4125730419 1.4390137801 -0.1625169499 -0.4981747579 0.0004199520 0.3650075378
-0.3054101102 0.8909029274 -0.3627375607 -0.5004825297 0.0012697767 0.3649799903
