-0.0977716802 0.4096958498 0.0872799070 -0.5001091217 0.0434175013 0.4471925341
-0.1702873447 0.0163880597 -0.2552302605 -0.5011664086 0.0266213199 0.4460919342
-0.3487005410 0.5625636304 0.1189363482 -0.5027270868 0.0427013709 0.4467043776
0.4304347179 0.3019594920 0.1027798450 -0.4914721484 0.0341912846 0.4475818819
0.3173912475 0.4470795515 0.2517631738 -0.5076341734 0.0352753541 0.4511981077
0.2230433758 0.2956095447 0.0486571879 -0.5000000000 0.0434356492 0.4477061428
0.0954400368 0.5022245825 -0.1677257535 -0.4999960522 0.0352822410 0.4559807248
-0.2664965728 0.5527708398 0.2866147366 -0.5043920606 0.0274002503 0.4488590905
-0.2304348014 0.4711886368 -0.1073800708 -0.4933755657 0.0349564324 0.4525449337
0.0550122744 0.7043051684 -0.3628191835 -0.4999823304 0.0393417886 0.4503138122
-0.2304348014 0.2928016753 -0.2026320903 -0.5031293389 0.0289866241 0.4461181168
0.0151324076 0.0173486944 -0.3135831869 -0.5001828174 0.0261076156 0.4473610037
-0.2467866002 0.5380482669 0.1175608353 -0.5058559735 0.0287693023 0.4497779687
-0.0973013150 0.5420084840 -0.4218590141 -0.5013498869 0.0399160059 0.4427962475
-0.1517808590 0.7043051684 -0.3509071060 -0.5006409565 0.0394039538 0.4522798294
0.1518199981 0.6287766258 -0.1871827696 -0.4999851739 0.0362619888 0.4562576726
-0.1961288994 0.4127621713 0.1320474604 -0.5001872522 0.0434197622 0.4472503950
-0.4034235632 0.5148493729 0.1328023125 -0.5074471473 0.0369413279 0.4474105341
0.0508276834 0.2956095447 -0.2162544110 -0.5000000000 0.0434356492 0.4477061428
-0.2709007290 0.5549729179 -0.1621973018 -0.5038719389 0.0275612068 0.4503723513
-0.3434782718 0.1393230599 0.0021456868 -0.5083577820 0.0331955977 0.4468763689
-0.1428455727 0.4173253101 0.1986699514 -0.5001733652 0.0434209013 0.4472670558
-0.1350936776 0.2764752242 0.0535583789 -0.5012070956 0.0264027808 0.4484227775
-0.2304348014 0.4785682537 -0.0476237358 -0.4931337135 0.0348548671 0.4521342642
0.4294752745 0.5651747433 0.2715037289 -0.4988231914 0.0423870579 0.4478858297
0.3173912475 0.4580570899 -0.2953443534 -0.5061351561 0.0350592063 0.4535898554
-0.1283038867 0.4318652134 -0.2814154065 -0.5011766782 0.0294881110 0.4419772040
0.3173912475 0.3609488705 0.0025499737 -0.5066690256 0.0372927191 0.4518196120
-0.3434782718 0.0871679070 0.3105078306 -0.5061276778 0.0294329806 0.4490727948
0.0963332020 0.2956095620 0.0457141012 -0.5000000000 0.0434356492 0.4477061428
-0.3434782718 0.3107763523 -0.1867528653 -0.5077525299 0.0340461281 0.4455746212
-0.3012929616 0.5651747433 -0.2415701310 -0.5006365391 0.0328065021 0.4427411083
-0.1471629202 0.4027231807 -0.0145213555 -0.5001094609 0.0434154057 0.4471559341
-0.2304348014 0.4339781611 -0.3118062653 -0.4941480526 0.0354685801 0.4538595076
0.2941757274 0.0038253823 0.2400338355 -0.4982492001 0.0269911720 0.4497058905
0.3173911779 0.4656540111 -0.1273116607 -0.5065936604 0.0348931280 0.4529271598
-0.1448312769 0.2662906771 -0.1053205666 -0.5012701825 0.0263573808 0.4477204297
-0.1175948353 0.2834893368 0.1629787800 -0.5010925825 0.0264340503 0.4489064905
0.1671997971 0.0163443119 0.0298299023 -0.4995822522 0.0267772764 0.4457618299
0.2164838197 0.4971715306 -0.1668070493 -0.4993642435 0.0349909106 0.4558921074
-0.1010441234 0.5151073468 -0.3001198922 -0.5013971738 0.0331673281 0.4394191781
0.0101467906 0.2569929213 -0.2503654261 -0.5002486348 0.0263159286 0.4470792385
0.0260903373 0.4054874153 -0.2076462638 -0.5003195826 0.0281574502 0.4495066818
0.2551776518 0.7606329210 -0.3269827251 -0.4997957304 0.0430561274 0.4452363951
-0.2304348014 0.3890401295 -0.2810625978 -0.4937999917 0.0360870844 0.4532802815
0.0769894381 0.0173486944 0.1302288170 -0.4999169826 0.0262368938 0.4469844472
-0.2594382602 0.1365542688 -0.4218590141 -0.5011073477 0.0306477718 0.4420980823
0.4412630215 0.4209580664 0.0947862021 -0.4937710439 0.0308771544 0.4475533515
-0.0095542254 0.4140388060 0.1506864069 -0.5000714609 0.0434181622 0.4471953515
0.2171585936 0.3998975896 -0.0557755439 -0.4998656000 0.0434113448 0.4470865602
-0.1117794183 0.2849806237 0.1862428827 -0.5010544347 0.0264407025 0.4490093340
-0.3683713222 0.5527282137 0.1496591200 -0.5042877562 0.0419297623 0.4471087167
-0.0718874385 0.2956095447 -0.1012788451 -0.5000000000 0.0434356492 0.4477061428
-0.0549072570 0.0145272512 0.1608752932 -0.5004180434 0.0267039808 0.4481365253
0.1083463838 0.2389178356 0.3259670208 -0.5014398173 0.0344247802 0.4552449249
0.0397427016 0.2581837473 -0.2317882534 -0.5000538522 0.0263212330 0.4471613602
0.0025178607 0.0931908196 0.3259670208 -0.4999204261 0.0313745717 0.4551660292
0.3132203608 0.2825181369 0.1478279028 -0.4982493566 0.0264297199 0.4488395166
-0.1792638571 0.4993006348 -0.3349024984 -0.4992169479 0.0341711628 0.4537467337
0.4304347179 0.2005079252 -0.3527826102 -0.4933311135 0.0347779541 0.4451633342
0.1347374515 0.4014329199 -0.0333593890 -0.4999233130 0.0434123448 0.4470904037
0.4304347179 0.1001124278 0.2454367568 -0.4930322874 0.0330599455 0.4491323688
-0.0241458070 0.2956095447 -0.1129073661 -0.5000000000 0.0434356492 0.4477061428
0.3287488902 0.6898574824 -0.4218590141 -0.4990900001 0.0389669712 0.4403194042
-0.3434782718 0.3789670780 -0.3634532791 -0.5077262690 0.0341521802 0.4440083952
0.3173912475 0.4582035768 -0.2677565379 -0.4971740089 0.0312630674 0.4427878127
0.3061234917 0.2861832931 -0.3286391597 -0.4973990089 0.0293137632 0.4454714560
0.4304347179 0.1972419776 -0.2587567646 -0.4914331919 0.0347085889 0.4469688733
0.3173912475 0.4494070470 -0.0195517812 -0.5068463300 0.0352620584 0.4523832903
0.1542679719 0.2678149292 -0.0815420030 -0.4993001740 0.0263641721 0.4478255515
0.4483203427 0.5214760942 0.3259670208 -0.4926323657 0.0372187539 0.4493301774
-0.1814757874 0.5431861970 -0.4218590141 -0.5023130259 0.0400883450 0.4429096822
0.1451921725 0.0542325962 0.3259670208 -0.4990125218 0.0295264588 0.4534226467
-0.2304348014 0.3870317470 0.2734506505 -0.4923696701 0.0368543192 0.4502812904
0.4560260291 0.4490276383 -0.4218590141 -0.4953185308 0.0304508761 0.4420242127
0.2830155890 0.6883209260 -0.3349024984 -0.4993020870 0.0387573973 0.4551769770
0.2376711139 0.2956095447 -0.0944572717 -0.5000000000 0.0434356492 0.4477061428
0.1122132270 0.4735816801 -0.4218590141 -0.4992621827 0.0333529455 0.4411223606
0.3110136045 0.0055862170 0.1110018445 -0.4983379306 0.0271877981 0.4484969688
-0.2304348014 0.4945414786 -0.1265330695 -0.4971752437 0.0344862150 0.4523537337
-0.3905509380 0.4470299950 -0.1563306935 -0.5051799214 0.0297348153 0.4442670995
0.4565600813 0.5564598482 -0.3058563352 -0.4968546959 0.0422164927 0.4449097256
-0.1514486764 0.3861480253 -0.2565188343 -0.5000368435 0.0434092144 0.4470334646
0.0382159278 0.0584224568 0.3259670208 -0.4995585044 0.0301233196 0.4541889684
0.2620725644 0.5036873302 -0.1679917274 -0.4991699305 0.0354738497 0.4560273683
0.1352021819 0.0173486944 -0.1728598749 -0.4997512783 0.0266168242 0.4459237516
0.2335773142 0.2533631215 -0.3069901960 -0.4987768697 0.0262997460 0.4468289167
-0.3379572461 0.1788670484 0.3354059941 -0.5028169824 0.0349620497 0.4545358901
-0.2327066186 0.0641026477 -0.4218590141 -0.5013271216 0.0281516589 0.4439820561
0.3807761822 0.7713380855 -0.2841621889 -0.4998123304 0.0431977100 0.4458325168
-0.1467547811 0.3958721551 -0.1145466268 -0.5000778870 0.0434127970 0.4471029515
-0.2304348188 0.3777369563 0.0554961179 -0.4926100440 0.0365123888 0.4510583338
0.1316937908 0.3388694373 -0.3324024464 -0.4995391739 0.0337267107 0.4435421604
-0.0331447455 0.0173486944 -0.1676302231 -0.5004527826 0.0262009895 0.4468551254
-0.0617282653 0.4098507628 0.0895413851 -0.5000863391 0.0434171535 0.4471811950
-0.0590991437 0.2858394236 0.1996402644 -0.5007068608 0.0264445286 0.4490685601
-0.2022046816 0.1415384684 -0.4218590141 -0.5008429826 0.0309558935 0.4416740736
0.3173912475 0.4139550756 -0.0934013935 -0.5065013995 0.0361078149 0.4525286903
0.0150170685 0.5654704650 -0.3349024984 -0.4999524783 0.0332155455 0.4560042205
-0.0799973162 0.2888522929 0.2466408437 -0.5008445130 0.0264579634 0.4492763340
0.3324188986 0.5256648939 0.3102135784 -0.4923178353 0.0311563022 0.4494741166
0.1190034526 0.4183788665 0.2140516025 -0.5000074870 0.0434183796 0.4471841080
0.1727477532 0.3931690248 -0.1540121545 -0.4998648609 0.0434094578 0.4470628646
-0.1302089127 0.1860646131 0.3259670208 -0.5028795563 0.0333124499 0.4545403336
-0.3434782718 0.3985381636 -0.2110986636 -0.5075615908 0.0343040672 0.4458836212
0.1355826514 0.2956095447 -0.0520997007 -0.5000000000 0.0434356492 0.4477061428
0.2769156503 0.5412930841 -0.4218590141 -0.4974709654 0.0391001799 0.4419467258
-0.1975931776 0.2608821036 -0.3268319251 -0.5019640955 0.0270073112 0.4464265689
0.3226545341 0.0002303391 0.3232871427 -0.4978891219 0.0270004242 0.4509890382
0.4304347179 0.3566981665 0.3003303008 -0.4914422354 0.0338090498 0.4487043514
-0.2480691480 0.3204413342 0.3259670208 -0.4954380264 0.0381063887 0.4507607165
-0.0027880172 0.5638443086 -0.1777155529 -0.5003735565 0.0354919019 0.4562025944
0.2926316753 0.0095803906 -0.0195026856 -0.4987002523 0.0272641546 0.4468213863
0.0218532680 0.2956095447 -0.0775231337 -0.5000000000 0.0434356492 0.4477061428
0.2732727810 0.0146329294 -0.1957504473 -0.4991474870 0.0273861807 0.4446283952
0.1071933491 0.5408449363 -0.3009984660 -0.4997086522 0.0305956587 0.4402896302
-0.3434782718 0.2225107410 0.2878569191 -0.5068204865 0.0344880237 0.4522261946
0.4999999304 0.5085181298 -0.2177130196 -0.4939000874 0.0369601192 0.4436043344
-0.1659194145 0.4223693706 0.2723130419 -0.5002114522 0.0434230665 0.4473139863
-0.2067478552 0.4508877165 -0.4218590837 -0.5028307389 0.0305269109 0.4419686910
-0.2304348014 0.3994271896 0.3071141265 -0.5059514865 0.0356919019 0.4519359251
0.2600416863 0.6193440352 -0.3349024984 -0.4990780088 0.0351421106 0.4555256553
-0.2304348014 0.4705880716 0.3030306920 -0.4916092615 0.0350493019 0.4494909687
-0.1491665635 0.0162988336 -0.1905915780 -0.5010433564 0.0265954242 0.4463284994
0.0240321288 0.4247946922 0.3077226221 -0.5000987130 0.0434218752 0.4472666298
0.0657738998 0.2728019723 -0.0037442084 -0.4998838522 0.0263864069 0.4481694645
0.3173911779 0.3872107731 -0.2137148199 -0.5062726343 0.0366189627 0.4528220033
0.2533348519 0.5035350780 -0.2997348400 -0.4984615218 0.0316361456 0.4398291172
0.4304347179 0.3848183906 -0.1452075029 -0.4916041049 0.0341806933 0.4464604646
0.0216922854 0.4470101950 -0.4218590141 -0.5001957826 0.0303201892 0.4421679258
-0.2284286711 0.5490860140 -0.3349024984 -0.5043853649 0.0280982850 0.4507612469
-0.1959514994 0.4913868963 -0.2936607187 -0.5015761999 0.0327811803 0.4394432477
-0.0403752494 0.3904702424 -0.1934143952 -0.4999859913 0.0434099187 0.4470500732
-0.0527139094 0.2661636337 -0.1073022882 -0.5006635391 0.0263568069 0.4477116732
-0.3434782718 0.1987434383 -0.0376619017 -0.5082170864 0.0335443281 0.4461148124
-0.3215554211 0.5407172320 0.3259670208 -0.5057236866 0.0338899368 0.4492152470
-0.3860648688 0.5399794668 -0.2132461069 -0.5052089822 0.0401808581 0.4446314647
-0.0358592497 0.5757788730 -0.3091972133 -0.4998220261 0.0329289542 0.4392576564
0.3058599179 0.6225435393 -0.1859955001 -0.4998748174 0.0363457975 0.4562322465
0.1657021798 0.0132257643 0.1771605529 -0.4993444783 0.0266141025 0.4473689080
-0.3389212982 0.3386416808 -0.4218590141 -0.5042285301 0.0345750150 0.4412901171
-0.3434782718 0.3744373044 0.3073864743 -0.5076718082 0.0341593976 0.4511716730
0.2622022687 0.5614265175 -0.1765066573 -0.4988528609 0.0356249280 0.4561826465
-0.3624417661 0.4268304138 -0.3540074971 -0.5036587302 0.0277357807 0.4443524039
0.3088809611 0.7043051684 -0.3889480599 -0.4991700001 0.0393911451 0.4459730559
0.2909680058 0.7340431489 -0.2072335421 -0.4998048957 0.0374318930 0.4559365944
-0.2880216495 0.1489266766 -0.4218590837 -0.5014536086 0.0311097283 0.4418972214
-0.3434782718 0.1915807345 -0.2597676950 -0.5081631299 0.0330044847 0.4464316907
0.1791970484 0.2298862101 -0.4218590141 -0.4996599652 0.0339501281 0.4395065607
-0.2830004325 0.0467210141 0.3361317940 -0.4997842783 0.0323395804 0.4550265597
0.3686292613 0.3527095842 0.3259670208 -0.5001095130 0.0364233279 0.4496181513
-0.0264735634 0.2752601635 0.0346036845 -0.5004916608 0.0263973634 0.4483389862
-0.0353119541 0.3756044347 -0.3349024984 -0.4981076871 0.0361582670 0.4534165163
-0.4043478327 0.4948590004 0.2360116097 -0.5080601820 0.0352532323 0.4486125253
0.4016175721 0.3170542475 -0.4218590141 -0.4970326437 0.0346784150 0.4411700302
0.1531372937 0.7787734241 -0.2544207475 -0.4999801043 0.0433071883 0.4465653950
-0.3277735946 0.7341898359 -0.2154371328 -0.5035052519 0.0361791975 0.4534288641
-0.3434782718 0.2751046504 0.2982980749 -0.5064704169 0.0347945280 0.4531281859
-0.2304348014 0.5119125470 -0.0429051883 -0.5067326865 0.0333373194 0.4516196642
-0.0560594309 0.4135886669 -0.1698403621 -0.5003178522 0.0288498763 0.4527142902
-0.2183719326 0.6746200574 -0.1959148385 -0.5002284956 0.0363918757 0.4562257683
0.1427835466 0.6322856778 -0.4218590141 -0.4996534696 0.0370197018 0.4397203781
-0.3097321350 0.7695869117 -0.2911667015 -0.5001421130 0.0432044144 0.4465194820
-0.0792603162 0.7057362466 -0.2018418207 -0.5000977304 0.0366042496 0.4561889074
0.3456647238 0.5485122836 -0.0315357369 -0.4955887394 0.0285346850 0.4508715339
0.0773414555 0.0173486944 -0.1336149385 -0.4999159826 0.0262383721 0.4470488732
-0.1175573831 0.0143799990 -0.0119681644 -0.5007602173 0.0268480242 0.4476604471
0.4255076574 0.0967618541 -0.1990450209 -0.4945005917 0.0281840589 0.4474405428
-0.1023816624 0.2956095620 -0.1659211711 -0.5000000000 0.0434356492 0.4477061428
0.0042163041 0.4165018667 0.1866473696 -0.5000737391 0.0434189448 0.4472095602
0.3632525921 0.5791152380 -0.3349024984 -0.4984041566 0.0325620325 0.4556200553
-0.3434782718 0.4173065362 0.3254705600 -0.5082012168 0.0338771716 0.4504582034
0.0483954662 0.2990718314 0.3518066712 -0.4998609652 0.0267769460 0.4498362818
-0.3504953930 0.4208572229 -0.1528737198 -0.5060938170 0.0313903891 0.4453743255
0.0959815238 0.2780626154 -0.4218590141 -0.5006099043 0.0347921367 0.4395527868
0.3260868991 0.3485670627 -0.0944502021 -0.4951050786 0.0333803281 0.4475035863
-0.0038987215 0.2713830681 -0.0258792678 -0.5003426000 0.0263800764 0.4480716123
0.1402555642 0.0991097409 -0.4218589446 -0.4996884435 0.0301331631 0.4414008041
0.3260868991 0.3636150095 0.1799272484 -0.4950900177 0.0330046934 0.4511412469
0.3260868991 0.3977407897 0.1205469481 -0.4937160526 0.0363577714 0.4496675426
0.2020588903 0.1360440862 0.3259670208 -0.4991338435 0.0318942239 0.4549106640
0.1493497983 0.6644525973 -0.4218590141 -0.4996468261 0.0380870060 0.4400412737
0.3260868991 0.3784272172 0.3454378629 -0.4949254786 0.0334011020 0.4519877512
-0.3084817785 0.0684772909 -0.0995075670 -0.5065927908 0.0311584065 0.4469246472
0.4304347179 0.3949061725 -0.2157242024 -0.4916332354 0.0342212672 0.4461160124
-0.0486981270 0.2583556777 -0.2291064188 -0.5006362956 0.0263219982 0.4471732211
-0.2304348014 0.4378980391 -0.2695005465 -0.4939708352 0.0354146323 0.4535589163
-0.0221062680 0.0382531713 -0.4218590141 -0.5005572000 0.0277253633 0.4436522039
0.4271957442 0.1536237806 0.3259670208 -0.4961579829 0.0314141543 0.4523047859
-0.2285574884 0.2956095447 0.2661287902 -0.4933674265 0.0390152495 0.4509748730
0.2667670336 0.3908747989 -0.1875077174 -0.4997967391 0.0434081361 0.4470566298
0.0179546857 0.2754005721 0.0367940496 -0.5001990956 0.0263979895 0.4483486732
-0.3434782718 0.5919218719 -0.2119684113 -0.5079575908 0.0338948498 0.4487779253
-0.0257463199 0.3487090018 -0.3349024984 -0.4982669653 0.0366636583 0.4532257946
-0.1152704615 0.0100144863 0.1948195256 -0.5005053913 0.0275561111 0.4500720383
-0.3577034882 0.1235018262 -0.4090951020 -0.5079286429 0.0353112236 0.4480889601
0.2400998442 0.1730166227 0.3259670208 -0.4991280522 0.0329108673 0.4555056292
-0.3445234282 0.4178712492 -0.0562076048 -0.5076468777 0.0336827281 0.4468157080
0.0360690236 0.0173486944 0.2592813385 -0.5000657478 0.0260691199 0.4474084124
0.3279999511 0.5168269380 0.0473570054 -0.4929313744 0.0317436761 0.4511180469
-0.2304348014 0.4745491844 -0.2079906464 -0.4938552091 0.0349101802 0.4533555511
0.4101000584 0.5200997203 -0.4218590141 -0.4957583481 0.0379203713 0.4415204910
0.2563027561 0.0091759820 0.1031888450 -0.4987722783 0.0270068938 0.4477110558
-0.1776209529 0.1138802964 -0.4218590141 -0.5008662173 0.0300362153 0.4423216214
0.3002088574 0.5847137854 -0.4218590141 -0.4991340957 0.0354767627 0.4392694912
0.0829690290 0.0173486944 0.1998100470 -0.4998999652 0.0262762417 0.4468482733
-0.3434782718 0.1846190654 0.0200096421 -0.5081685299 0.0335709020 0.4467011168
0.3260868991 0.3725498263 -0.1981646471 -0.4940559222 0.0362021714 0.4447318299
0.1330366255 0.6820493612 -0.3304513074 -0.4994736957 0.0331478760 0.4392239781
0.3863511470 0.0588147263 0.0046504171 -0.4958253307 0.0277191546 0.4488578296
0.2263968625 0.4081254586 -0.1953354038 -0.4988701044 0.0284452154 0.4504785165
-0.3434782718 0.2948297882 0.1835795611 -0.5066190865 0.0347352671 0.4516625077
0.3594781054 0.5623139870 -0.2598360254 -0.4983370958 0.0304959805 0.4458707081
-0.0299350588 0.6642462755 -0.4218590141 -0.5002143913 0.0380420756 0.4400138129
-0.0143258164 0.2956095447 0.1197033395 -0.5000000000 0.0434356492 0.4477061428
0.1805676222 0.5025552955 -0.1677859275 -0.4995718522 0.0353508062 0.4559962118
0.2389170269 0.2595465472 -0.4218590141 -0.4995350435 0.0348169889 0.4390770825
-0.3434782718 0.5919772719 -0.2701844073 -0.5038017910 0.0334239542 0.4432437083
-0.3782295128 0.4347242480 0.0328088499 -0.5046779388 0.0284985285 0.4458855516
-0.3434782718 0.3659258876 -0.1355122688 -0.5072277734 0.0344675106 0.4472522906
0.3260868991 0.3505946191 -0.2151999589 -0.4948168091 0.0343542846 0.4452144734
-0.3434782718 0.6507509982 -0.2607532775 -0.5059347561 0.0337562063 0.4453417082
-0.0544876049 0.2956095620 -0.1468125898 -0.5000000000 0.0434356492 0.4477061428
0.3374164809 0.5356601019 0.0628714130 -0.4936855135 0.0302692066 0.4504971426
-0.3369975679 0.2339789837 -0.4218590141 -0.5014845129 0.0340686063 0.4397741607
0.4304347179 0.4109004323 0.0257077113 -0.4915649658 0.0339188324 0.4473912124
0.1047773492 0.3368951157 -0.4218590141 -0.5022005303 0.0345936846 0.4413419432
0.0767520034 0.7456462699 -0.2094436811 -0.4999540348 0.0372310931 0.4560066205
-0.1035637841 0.2938123274 0.3240175601 -0.5009995738 0.0264800764 0.4496183861
-0.3434782718 0.7608381819 -0.2421828005 -0.5078077038 0.0358506932 0.4481734036
0.3173912475 0.4314820222 0.2723519984 -0.5076333299 0.0356423453 0.4510345599
0.3454573325 0.6608210758 -0.1932864822 -0.4998179304 0.0367846235 0.4561095596
0.2482649566 0.2956095447 0.0249219461 -0.5000457826 0.0434067709 0.4477215862
-0.3849057384 0.4413848389 0.2772346851 -0.5058065996 0.0286736676 0.4481826297
-0.3434782718 0.2758372939 0.1124854009 -0.5069707560 0.0344824324 0.4501866817
0.0026163129 0.0162272510 0.2478026697 -0.5001906348 0.0263163286 0.4477165080
-0.2254949321 0.2604320862 -0.1967142733 -0.5018007912 0.0263312590 0.4473164124
0.1835227177 0.2982480053 0.3518655147 -0.4990011131 0.0267082155 0.4498139252
0.3510018451 0.3882299904 0.3259670208 -0.5027852172 0.0359519540 0.4500658122
-0.1483376158 0.4748340974 -0.1627456843 -0.5010737391 0.0332243629 0.4554066814
0.1886957782 0.2956095447 0.1672027449 -0.5000000000 0.0434356492 0.4477061428
-0.0507204139 0.2736543375 -0.3277442033 -0.5015046434 0.0280480589 0.4459632994
0.4304347179 0.3616645053 -0.2928424492 -0.4916375136 0.0344089020 0.4456553081
-0.2835626151 0.5613038914 0.1528145372 -0.5029012955 0.0268000938 0.4488679688
0.4304347179 0.3624769400 -0.3630318095 -0.4916452267 0.0344454846 0.4455428299
0.3173912475 0.4592878115 0.3217425428 -0.5078877386 0.0349747889 0.4509535686
-0.1912156389 0.2956095273 0.0538478310 -0.4971801045 0.0409186232 0.4498512470
0.0845051246 0.7043051684 -0.3545588710 -0.4998916435 0.0393481538 0.4517016381
0.3025788137 0.0158220685 -0.3343027594 -0.4991563566 0.0276361546 0.4434738387
0.4999999304 0.4950296960 0.1271516433 -0.4923450962 0.0353794497 0.4471626211
-0.3314380291 0.4566415421 0.3259670295 -0.5009221912 0.0306834240 0.4488498470
0.0848374376 0.2956095447 -0.2898262494 -0.5000000000 0.0434356492 0.4477061428
0.2925961796 0.7559241909 -0.2114013853 -0.4997878348 0.0376517452 0.4558764205
0.2559302431 0.4166427449 -0.2786476589 -0.4992134609 0.0285537893 0.4427473779
0.2117585766 0.2591167559 -0.2172335588 -0.4989211479 0.0263253895 0.4472256993
-0.0913288893 0.2807251457 0.1198572177 -0.5009193217 0.0264217286 0.4487158644
-0.1617741018 0.3309484987 -0.3349024984 -0.4952319308 0.0368466148 0.4531976728
-0.1905514824 0.0173486944 -0.3874582774 -0.5013329825 0.0265032677 0.4453937951
0.1091503228 0.2666052249 -0.1004132365 -0.4995976348 0.0263587808 0.4477421254
-0.3111177001 0.1498047635 -0.4218589446 -0.5029703911 0.0315467543 0.4419937693
-0.1388855903 0.4222297880 0.2702745377 -0.5001931913 0.0434227187 0.4473035080
-0.0906261241 0.0173486944 -0.2260197669 -0.5007742086 0.0263114416 0.4463155603
0.2194563673 0.4735351758 -0.1625095104 -0.4990503218 0.0332955629 0.4553646118
-0.2304348014 0.2662810945 -0.2202647499 -0.5021243912 0.0269215633 0.4469489254
0.3529484711 0.0425589449 -0.1916582388 -0.4973019393 0.0276331981 0.4465008124
0.1389068860 0.6054941666 -0.1827480308 -0.5000139478 0.0361340149 0.4562809770
0.3238423949 0.6584718846 -0.3349024984 -0.4989721827 0.0369966931 0.4552829770
-0.3105617349 0.1718801533 -0.4267123703 -0.5003695913 0.0329964586 0.4406973172
0.4215413620 0.3033491528 -0.4218590141 -0.4972688437 0.0347233106 0.4406812824
0.0613631783 0.0218392941 -0.4218589446 -0.5002803652 0.0273386242 0.4436932126
0.1116154096 0.4229307967 -0.2797909371 -0.5003063652 0.0289217023 0.4423767866
0.2901771972 0.6643724581 -0.1939629778 -0.4998560087 0.0367383453 0.4561261161
0.3173912475 0.4743653148 0.3041921006 -0.5078954603 0.0346196672 0.4511014817
-0.3434782718 0.1407222163 0.1332732429 -0.5081601125 0.0335025194 0.4478273688
-0.0014678608 0.7651041381 -0.3090979002 -0.4999557913 0.0431060753 0.4454501603
0.0944710369 0.0173486944 -0.0284887893 -0.4998672261 0.0263507808 0.4466842211
0.0764632121 0.2576311821 -0.2404084094 -0.4998119739 0.0263187721 0.4471232559
0.0312204065 0.0166207815 0.3117512914 -0.5000524956 0.0261973112 0.4477551341
0.1217158002 0.5410646667 -0.1696851186 -0.4993793913 0.0342080759 0.4560121770
0.4825067230 0.5305960066 0.1361382079 -0.4937644439 0.0397282494 0.4471961515
0.3057144309 0.0246851374 -0.4218590141 -0.4992678522 0.0279652154 0.4424793431
0.1839993176 0.2791223284 0.0948531760 -0.4991027479 0.0264145808 0.4486053340
-0.0517714399 0.5383852234 -0.3001198922 -0.5008408260 0.0310363631 0.4401186389
-0.0652875085 0.3255728991 -0.4218590141 -0.5030292694 0.0346259628 0.4409158215
0.1795834310 0.1520941720 0.3259670208 -0.4993228435 0.0325043021 0.4554138031
0.3098036480 0.2619211731 -0.1734847531 -0.4982740175 0.0263378938 0.4474190993
0.2797187631 0.0137168947 -0.1722136315 -0.4990580435 0.0273832416 0.4449706299
0.1779214137 0.7765529460 -0.2633028252 -0.4999513304 0.0432672492 0.4462384646
0.4762133408 0.4979854610 -0.4218590141 -0.4948738004 0.0359478149 0.4411763606
0.4304347179 0.3912662250 -0.1859831001 -0.4916213310 0.0342021628 0.4462624559
0.4982452349 0.4677678805 -0.1520647981 -0.4939993917 0.0316292326 0.4440272126
-0.0491508488 0.0590544220 0.3259670208 -0.4999907391 0.0305216414 0.4547518901
0.4410314824 0.4208809446 -0.4033331198 -0.4939180700 0.0314145978 0.4449704038
-0.0157779554 0.3995143983 -0.2355204184 -0.5004907652 0.0276795111 0.4471317602
0.2600298167 0.2956095447 0.0786836641 -0.5012730260 0.0426327275 0.4481355601
0.3592869663 0.5530530311 0.2609448775 -0.4959276525 0.0271931633 0.4484150818
-0.1625078843 0.4647683677 -0.2873977800 -0.5015321564 0.0314845978 0.4404609259
0.3190470908 0.4918813745 -0.2553912779 -0.5035319302 0.0339413716 0.4533564119
0.1886102651 0.4234110836 0.3312334900 -0.4980284784 0.0413691363 0.4489979688
0.1360741905 0.5219132246 -0.3001198922 -0.5002957478 0.0335714759 0.4393189173
0.2226615062 0.2956095447 -0.0585068394 -0.5000000000 0.0434356492 0.4477061428
0.1975081254 0.4084337542 0.0688528648 -0.4999137826 0.0434142057 0.4471153341
-0.2143347590 0.2819011195 -0.3283332554 -0.5029099824 0.0287200502 0.4456641777
-0.0784391945 0.0173486944 -0.0868829418 -0.5007060608 0.0262884243 0.4463956907
-0.1089170620 0.0120785557 0.1183602961 -0.5005843043 0.0272070764 0.4489978731
0.2706060768 0.0131602165 -0.1205576612 -0.4990407827 0.0272963198 0.4454242734
-0.2787313545 0.4899384007 0.3259670208 -0.4980978697 0.0344739367 0.4494884035
0.1222921828 0.3954359203 -0.1209155133 -0.4999057826 0.0434105013 0.4470697428
0.1100694358 0.0173486944 0.1279635128 -0.4998228261 0.0264533286 0.4463357429
0.2709109203 0.4331933264 -0.1551746762 -0.4981944436 0.0304101979 0.4544420466
0.0835181420 0.6753887704 -0.1960612646 -0.5000000174 0.0365428670 0.4561941509
0.2922514666 0.3118334827 -0.3349024984 -0.5054630692 0.0381189626 0.4528211859
-0.2304348014 0.3328882899 -0.2189273500 -0.5047570171 0.0323191108 0.4445739256
0.3090079350 0.2951291621 0.3445600543 -0.4982758784 0.0264859460 0.4497092035
0.4120417713 0.6492781287 -0.1957286820 -0.4973225654 0.0362723192 0.4541005945
-0.3434782718 0.2620824513 -0.1427209205 -0.5080457125 0.0337787368 0.4453736995
-0.3434782718 0.4007269026 -0.1883387173 -0.5076054690 0.0342771281 0.4460490559
0.4651408981 0.5521694833 -0.2657236685 -0.4959242438 0.0409374493 0.4443761604
-0.0725466471 0.3910856424 -0.1844296220 -0.5000085913 0.0434103100 0.4470516298
0.4304347179 0.2355050619 0.1251928174 -0.4914234962 0.0343830324 0.4475713515
0.4304347179 0.3911845206 -0.3828074603 -0.4916819484 0.0344000846 0.4452968908
0.3260868295 0.3150827433 -0.0464554142 -0.4964147133 0.0301139109 0.4492108383
0.1507570591 0.0575094917 -0.4218590141 -0.4997394609 0.0288043545 0.4422545779
-0.1910098041 0.0141606773 -0.2124718896 -0.5011587999 0.0270245373 0.4471278645
0.4397830477 0.5469746228 -0.4218590141 -0.4960956785 0.0389910669 0.4414655171
-0.0921606892 0.1876171348 0.3259670208 -0.5025285563 0.0333460585 0.4546658553
0.1458437899 0.3883890773 -0.2237994801 -0.4998614435 0.0434080926 0.4470461167
0.2376664704 0.2956095447 0.2361551836 -0.5000000000 0.0434356492 0.4477061428
0.0006170869 0.2834652412 0.1626028843 -0.5003128869 0.0264339460 0.4489048296
0.3013712486 0.6435954944 -0.3227605515 -0.4990164609 0.0329876412 0.4392782912
0.4740310627 0.5475472576 -0.3728532262 -0.4956497829 0.0390666755 0.4418518127
-0.0362882149 0.2954826490 0.3500745756 -0.5005552869 0.0264875199 0.4497335774
0.3821464256 0.5226336419 0.3259670121 -0.4925735483 0.0345198150 0.4493088557
-0.3434782718 0.3547471666 -0.0085590168 -0.5071913038 0.0344655541 0.4486554992
0.2509723304 0.0162339902 -0.2052577944 -0.4993352261 0.0273192155 0.4442382647
-0.1430297727 0.0173486944 -0.3806048257 -0.5010672521 0.0264118242 0.4458510646
-0.2131316373 0.4726035236 -0.2888223538 -0.5017593216 0.0319644847 0.4401020911
-0.1154208268 0.2956095447 0.0800702292 -0.5000000000 0.0434356492 0.4477061428
-0.0488301792 0.2956095447 0.0487769357 -0.5000000000 0.0434356492 0.4477061428
-0.3499326887 0.5619475783 -0.1265288869 -0.5024804259 0.0425797623 0.4457864820
0.4218545707 0.0883706112 -0.0966049150 -0.4945600265 0.0282024937 0.4478224384
-0.1543880849 0.5341636150 -0.3349024984 -0.5043337997 0.0304758935 0.4527969946
0.4816956882 0.5322179804 -0.2890710060 -0.4946029656 0.0386317277 0.4429318561
0.1654798667 0.4506405860 -0.1583468412 -0.4990953740 0.0316352587 0.4548676640
0.3173912475 0.4408594041 -0.0816968726 -0.5066301735 0.0354745280 0.4526114033
0.1265769216 0.7646288599 -0.3109989436 -0.4998888609 0.0431037622 0.4454389168
0.1023076190 0.6589896237 -0.1929375866 -0.4999980870 0.0364076149 0.4562297683
0.0854718027 0.7371836096 -0.3414782371 -0.5002811043 0.0333167368 0.4393154042
0.4421810649 0.5612592740 -0.3400804720 -0.4974405915 0.0427403622 0.4460013864
-0.1046905753 0.7763757373 -0.2640114338 -0.5000905043 0.0432955100 0.4468700559
0.1812910830 0.3281593250 -0.4218590837 -0.5010391130 0.0346269976 0.4411579519
0.2307560274 0.0173486944 -0.2694858856 -0.4994792870 0.0272417285 0.4440742822
0.3963386246 0.0784432902 -0.2348104880 -0.4956425481 0.0278019198 0.4475018819
0.2195605934 0.2550612431 -0.2804998066 -0.4988693479 0.0263073112 0.4469460211
-0.2780590415 0.5585521003 -0.0697023778 -0.5033015998 0.0272185025 0.4499671861
-0.3149688998 0.5651747433 -0.3714857046 -0.5000957826 0.0344490498 0.4469590211
-0.1609332149 0.0075355821 0.1776186659 -0.5006232956 0.0280481546 0.4510241078
-0.0359752497 0.4140674668 0.1511047634 -0.5000888174 0.0434184665 0.4472047602
-0.1913009867 0.7633286165 -0.3162000650 -0.5000368696 0.0430864579 0.4454858038
-0.2304348014 0.2800053110 -0.1431551292 -0.5024724172 0.0276560676 0.4469754993
-0.1582976499 0.3919680249 -0.1715474228 -0.5000675739 0.0434114492 0.4470768559
0.1720779619 0.5755818034 -0.3091578741 -0.4992996174 0.0328550847 0.4392972651
0.4010713025 0.1795874571 0.3259670208 -0.4982149827 0.0324187890 0.4545173945
0.4304347179 0.1137898095 -0.4084780498 -0.4941905308 0.0289214328 0.4467151254
-0.3434782718 0.5966514368 -0.2360897053 -0.5063525474 0.0337202324 0.4465810646
-0.3434782718 0.3375923417 0.1200490786 -0.5070842517 0.0345005454 0.4501967774
-0.1450865638 0.2622554078 -0.1682703013 -0.5012714521 0.0263393895 0.4474421515
0.0086010081 0.0496747965 -0.4218590141 -0.5003752087 0.0281995024 0.4431811605
-0.0701221603 0.6346255819 -0.1882968565 -0.5001486956 0.0362246410 0.4562597770
-0.0991154801 0.2659891815 -0.4218589446 -0.5005446956 0.0348289802 0.4392057434
-0.4043478327 0.5104714949 0.0639417869 -0.5072722082 0.0362720844 0.4465766472
0.3280391598 0.0178705727 -0.0684460126 -0.4981600958 0.0274322068 0.4469651254
-0.0591534133 0.2842651194 0.1750808313 -0.5007073826 0.0264375112 0.4489599949
0.2650512163 0.2540301475 -0.2965845011 -0.4985696697 0.0263027199 0.4468749167
0.0803093509 0.2956095620 -0.1335714168 -0.5000000000 0.0434356492 0.4477061428
-0.2049936553 0.7738360157 -0.2261553756 -0.5001532435 0.0402860146 0.4520894381
0.4071900152 0.5651747433 0.1944193517 -0.4997692174 0.0260581025 0.4477213254
-0.3434782718 0.2490450175 -0.2688416335 -0.5080362603 0.0334062933 0.4456660125
0.1081760186 0.4064490152 -0.2031589163 -0.4997333391 0.0282648328 0.4498580122
0.2740751288 0.0782039337 -0.4218590141 -0.4993669653 0.0295261806 0.4417040128
0.4304347179 0.3980081549 0.2591490081 -0.4914813049 0.0337181542 0.4485704036
-0.3434782718 0.3338189072 -0.1009988104 -0.5072186778 0.0344228237 0.4475638906
-0.2390440790 0.5302193805 -0.0560990657 -0.5061566952 0.0302152327 0.4513676903
0.3746929044 0.5590430307 -0.1531525546 -0.4972903480 0.0283307719 0.4513411686
0.4274503616 0.4883008356 0.3259670208 -0.4980372001 0.0346818150 0.4499660991
0.1480660680 0.4099218497 0.0905786198 -0.4999507913 0.0434149883 0.4471195776
0.2681682509 0.1718169011 0.3259670208 -0.4989843044 0.0327510499 0.4553022988
-0.2171716632 0.7097111593 -0.3359836810 -0.5014273651 0.0333562499 0.4393591173
0.2529208781 0.0060199822 0.2576387647 -0.4985369653 0.0268295634 0.4493726209
-0.0264897199 0.2956095620 -0.0885834634 -0.5000000000 0.0434356492 0.4477061428
-0.0871415765 0.0969935324 0.3259670208 -0.5008792347 0.0314513630 0.4548559857
-0.0974329324 0.7043051684 -0.3975517636 -0.5004536608 0.0393210407 0.4444743082
0.0772691425 0.3912082424 -0.1826400308 -0.4999159565 0.0434094231 0.4470545689
-0.2029560120 0.0053810692 0.1559736413 -0.5007388347 0.0284802850 0.4518308294
-0.2606091558 0.5498271183 -0.2367345574 -0.5046273214 0.0279810067 0.4504036991
0.3241678122 0.5860780897 -0.1790497006 -0.4998893044 0.0360877975 0.4562934900
-0.1582950672 0.6481719375 -0.3236758818 -0.5004987130 0.0331655803 0.4392554912
-0.0708851342 0.1922679953 -0.4218590141 -0.5002242869 0.0328467108 0.4400507694
0.3260868991 0.3156797606 -0.2658586076 -0.4959848351 0.0315703978 0.4455495516
-0.3434782718 0.2901299624 -0.1226271480 -0.5077083386 0.0340394324 0.4462972124
-0.0103953819 0.0173486944 -0.0842015420 -0.5003255652 0.0261574677 0.4470523602
-0.3271054294 0.5651747433 -0.2285229406 -0.5003883304 0.0378466408 0.4468798124
-0.1218115394 0.4014508677 -0.2264836364 -0.5008438608 0.0278461372 0.4479086558
0.1557464848 0.4115831018 0.1148331572 -0.4999530174 0.0434154752 0.4471253689
0.2764546416 0.5635845782 -0.4218590141 -0.4983563219 0.0429201796 0.4459688733
0.2923440144 0.6899421346 -0.1988333862 -0.4998358696 0.0369956496 0.4560556726
0.3260868991 0.3638326443 0.1092734881 -0.4949179830 0.0334051020 0.4506888469
-0.3486766105 0.5625755435 0.1418198249 -0.5027372868 0.0427267101 0.4468341167
-0.0682880909 0.2956095447 -0.2821120673 -0.5000000000 0.0434356492 0.4477061428
0.3921364858 0.7790493458 -0.2339752359 -0.4998521131 0.0422454318 0.4483649166
0.1893022129 0.2956095447 -0.2972195271 -0.5000000000 0.0434356492 0.4477061428
-0.3029874833 0.0598024393 -0.0110784427 -0.5063430343 0.0310855631 0.4467956820
0.3736291653 0.0434784318 0.1225561306 -0.4962159655 0.0276064242 0.4494730818
0.3055389527 0.7043050988 -0.3575918534 -0.4991908174 0.0393424581 0.4512249164
-0.2304348014 0.4714933150 -0.1440788161 -0.4935462961 0.0349522410 0.4528336642
0.4304347179 0.6615696148 -0.2649492511 -0.4949208351 0.0339022150 0.4446197517
-0.3539609580 0.0748048818 0.2428058266 -0.5085207559 0.0342559541 0.4469855515
0.4144381364 0.0814574204 -0.0627396217 -0.4948145569 0.0281109459 0.4480767688
-0.0192413639 0.5446849099 -0.1696851186 -0.5003042522 0.0349837193 0.4560549248
0.0794375510 0.4050265023 0.0191067204 -0.4999728348 0.0434138492 0.4471017254
0.2812563804 0.2916473710 0.2902439450 -0.4984594262 0.0264704242 0.4494690905
-0.4043478327 0.4822499317 -0.2529473476 -0.5061999213 0.0343441367 0.4428300040
0.2428457657 0.0691618561 -0.4218590141 -0.4994353653 0.0292616241 0.4418348997
0.4042836762 0.2336702620 0.3259670208 -0.4986186262 0.0341381628 0.4558424987
0.2740010940 0.3981331462 -0.0815357335 -0.4998228261 0.0434104231 0.4470814993
0.2672464945 0.0060320865 0.2160167415 -0.4984971218 0.0269237546 0.4490964035
0.2996383792 0.4447369951 -0.1572735543 -0.4981620784 0.0312477543 0.4546921249
-0.0935322283 0.3470612193 -0.3329875855 -0.5044666953 0.0340555107 0.4432967866
-0.3233822992 0.6140543486 -0.1899891259 -0.5022143564 0.0355875801 0.4547193684
0.0960934455 0.2845537889 0.1795843440 -0.4996824957 0.0264387982 0.4489798992
0.0334343542 0.2651664424 -0.1228586871 -0.5000961130 0.0263523634 0.4476428993
-0.1625622843 0.2956095447 0.1756425965 -0.4998447478 0.0432881274 0.4478348384
-0.3097310393 0.0785066989 -0.2700103203 -0.5065851822 0.0309041457 0.4469945341
-0.4023600155 0.4683840370 0.3259670208 -0.5082456342 0.0330923455 0.4490453948
0.0268760677 0.3876365556 -0.2347862098 -0.4999322435 0.0434085883 0.4470415428
0.0281853720 0.5859594984 -0.3112333957 -0.4996673913 0.0329330325 0.4392632999
0.4304347179 0.1898422303 -0.1763199008 -0.4914289658 0.0347056411 0.4469476472
0.2256191930 0.2956095447 -0.1981022210 -0.5000000000 0.0434356492 0.4477061428
0.2123465678 0.6067886447 -0.3349024984 -0.4992381827 0.0346555889 0.4556285422
-0.2152785155 0.2956095447 0.0603536132 -0.4948177917 0.0393627103 0.4509935599
0.4305918135 0.5651223955 -0.0015388782 -0.4983816175 0.0432397535 0.4473536558
-0.0835227246 0.4047725718 -0.2109821679 -0.5007108347 0.0281087807 0.4492297166
0.3390197155 0.4867608618 0.3259670121 -0.5060579213 0.0343263889 0.4508436469
-0.2081963160 0.6012409495 -0.4218590141 -0.5007719043 0.0339709455 0.4397821868
-0.3434782718 0.1470042854 -0.2596119211 -0.5082593907 0.0326776934 0.4470324646
0.3193923343 0.4929170179 -0.1223489045 -0.5030138781 0.0337966846 0.4526381511
0.4999999304 0.5094007211 0.0364038844 -0.4928938875 0.0367442235 0.4464120037
-0.0546289875 0.0173486944 -0.1964772298 -0.5005729217 0.0262422503 0.4466553602
0.2909256058 0.6061529491 -0.4218590141 -0.4991729218 0.0361852149 0.4394814303
0.2028480381 0.2944751534 0.3343575854 -0.4989767479 0.0264830329 0.4496640992
0.2923119710 0.2593551646 -0.2135143243 -0.4983897479 0.0263264590 0.4472421428
-0.3488094975 0.5625091000 -0.3861204775 -0.5018555477 0.0426623188 0.4450933690
0.3260869686 0.2919531101 -0.2789223806 -0.4968166437 0.0295383023 0.4461692385
0.0140742077 0.2956095447 -0.1044702536 -0.5000000000 0.0434356492 0.4477061428
0.1227645480 0.4231333097 0.2834659542 -0.5000267565 0.0434201361 0.4472194732
0.4243493792 0.0780242033 0.1099618619 -0.4943067743 0.0283947372 0.4483890732
0.4279796485 0.1723121358 -0.4218589446 -0.4964891829 0.0308909370 0.4434358648
-0.3434782544 0.3429590892 -0.1273916694 -0.5072308430 0.0344304672 0.4472794645
0.0373915278 0.0173486944 -0.2339681402 -0.5000583478 0.0260650243 0.4475545341
-0.3424427327 0.0936485587 -0.1150491050 -0.5083639212 0.0325649890 0.4475785341
0.1353821645 0.2956095447 0.1510831634 -0.5000000000 0.0434356492 0.4477061428
0.2291742884 0.6962556298 -0.2000359078 -0.4998777565 0.0369651800 0.4560684726
0.4304347179 0.3198519430 -0.2850097802 -0.4915939919 0.0345036759 0.4458547690
0.2314994013 0.4451145864 -0.1573421543 -0.4986018262 0.0312561978 0.4547224205
0.4304347179 0.1128037139 -0.3808427300 -0.4934997918 0.0305054848 0.4469385167
-0.2395677833 0.0171201901 0.0187163291 -0.5016938521 0.0280810328 0.4498762035
0.0142255990 0.0173486944 0.2020714642 -0.5001878869 0.0261109808 0.4472128385
0.4304347179 0.4058015109 0.2803299109 -0.4914792962 0.0336709455 0.4486944036
-0.1233164175 0.4944705656 -0.1663159797 -0.5010503478 0.0346200237 0.4558026292
-0.2445596004 0.5358212845 -0.3097304045 -0.5055682518 0.0299677110 0.4520506207
-0.1739550314 0.5923998023 -0.3125214391 -0.5001790522 0.0330212064 0.4392208042
0.4396555346 0.5621011261 -0.1717380924 -0.4975670784 0.0430117187 0.4470800906
-0.3719567741 0.4315879352 -0.1470491724 -0.5042267823 0.0282571198 0.4450463690
0.1759602573 0.4702242108 -0.2883897278 -0.4983519827 0.0318836500 0.4405176476
0.0253132678 0.4181660753 0.2109445505 -0.5000675913 0.0434193448 0.4472150558
0.2105419854 0.4219197359 0.2657481989 -0.4999640000 0.0434187013 0.4471795863
-0.0484019097 0.3686217483 0.3468388107 -0.5003630608 0.0327016673 0.4516907599
0.0493565096 0.2751432156 -0.3278505511 -0.5009047912 0.0281693806 0.4459092994
0.3288028293 0.5184326335 0.2487515305 -0.4923614353 0.0315397804 0.4498929513
0.3173912475 0.4584417768 0.2300710449 -0.5076151212 0.0350090410 0.4513462208
-0.3485042540 0.4198616577 0.1432532161 -0.5068089908 0.0319945543 0.4482278732
-0.1308659996 0.6248863652 -0.1864417870 -0.5002026869 0.0361540323 0.4562714813
-0.2545947388 0.2446290525 -0.4218590141 -0.5006768782 0.0343704237 0.4392917868
-0.1405212685 0.7254170278 -0.3391248721 -0.5012293477 0.0333701716 0.4393604825
-0.3947276943 0.4512067860 -0.3113705957 -0.5051997649 0.0303816414 0.4429247779
-0.0511814225 0.7112340549 -0.2028889685 -0.5000730870 0.0367003192 0.4561606726
0.4559752726 0.1167871484 0.3232496819 -0.4933754005 0.0358912671 0.4483577514
0.1140066008 0.0173486944 -0.4007334243 -0.4998116174 0.0264774329 0.4464013950
0.2685994161 0.2880167365 0.2336060881 -0.4985433566 0.0264542329 0.4492187079
-0.2487439566 0.5963775063 -0.3349024984 -0.5011729912 0.0355419454 0.4559912031
-0.3047101875 0.0840044550 -0.4139282929 -0.5051545736 0.0299060588 0.4440757256
0.4304347179 0.2554436344 0.0955525847 -0.4914455136 0.0343492933 0.4474563515
0.4304347179 0.2536270954 -0.1310131822 -0.4915166093 0.0345878672 0.4463035429
-0.4025380155 0.4659029589 -0.3732255393 -0.5054946170 0.0323967195 0.4417876475
0.4125358930 0.0976962715 -0.3919710945 -0.4951584612 0.0280141198 0.4463868037
-0.3263635860 0.5651747433 0.0835991507 -0.5003853826 0.0376097539 0.4469885950
-0.1565768587 0.3798257127 -0.3170365171 -0.5008414782 0.0412422232 0.4455262907
-0.0801637336 0.7721134941 -0.2810604761 -0.5000467217 0.0432213796 0.4462957776
0.3880799034 0.4171900405 -0.4218590141 -0.4925922614 0.0343600846 0.4450049690
0.1861507436 0.2596003819 -0.2096890202 -0.4990898348 0.0263275460 0.4472590558
0.0558636483 0.4021760938 -0.0225090680 -0.4999754870 0.0434130752 0.4470916124
0.1178015222 0.3375021852 0.3490616366 -0.4979012262 0.0299831892 0.4508790991
0.3260869686 0.3932046857 0.0965246020 -0.4938367135 0.0361106236 0.4493910470
-0.2304348188 0.4923888614 -0.2810076674 -0.4968609828 0.0345578324 0.4536890293
0.4304347179 0.1202351221 0.0069131300 -0.4913490789 0.0347900845 0.4473959602
0.1578913977 0.4133272756 0.1402983555 -0.4999590609 0.0434160231 0.4471316211
-0.2981702488 0.5651747433 -0.1723206402 -0.5008472782 0.0320608152 0.4423620040
0.1869827435 0.7043051684 -0.3581416968 -0.4995660087 0.0393209016 0.4511160208
-0.3434782718 0.1120523922 0.1782717180 -0.5082620255 0.0333898585 0.4480480123
0.1219414959 0.3910340945 -0.1851826045 -0.4998874522 0.0434090926 0.4470547341
-0.2760035112 0.3306534379 0.3259670208 -0.4990430001 0.0370498757 0.4509958208
0.1280964259 0.0173486944 -0.3798818866 -0.4997715044 0.0265696851 0.4461191951
-0.1801299266 0.2694402421 -0.4218590141 -0.5008817652 0.0348153193 0.4393045520
0.3148849607 0.0495625705 -0.4218590141 -0.4992583392 0.0286913545 0.4421190040
0.2541350171 0.2475855741 0.3259670208 -0.5001428522 0.0346104324 0.4557206900
0.4399666824 0.4205260142 0.2217958020 -0.4934210874 0.0311531717 0.4482572471
-0.2655718076 0.0531691006 -0.3840541037 -0.5040647910 0.0287572589 0.4457668212
0.3479009932 0.0557417700 -0.4218590141 -0.4979570349 0.0282095546 0.4435108474
0.3358072114 0.4453020386 0.3259670208 -0.5051956518 0.0349177976 0.4505779774
0.2024375077 0.0096944254 0.2338233142 -0.4989658436 0.0266804329 0.4484641427
-0.3542272101 0.1665967101 -0.4196313012 -0.5057552083 0.0353526410 0.4453583168
-0.2304348014 0.3853550341 0.1659792580 -0.4924624962 0.0366203279 0.4506402556
0.0073210343 0.0173486944 -0.0352276671 -0.5002265043 0.0261235199 0.4472102819
0.4422355953 0.4212823185 0.2989289792 -0.4938084787 0.0305244674 0.4486424818
0.0246315983 0.2626997556 -0.1613384931 -0.5001538261 0.0263413721 0.4474727950
-0.2304348188 0.4373154565 0.1455474420 -0.4920531049 0.0354226497 0.4503151426
0.4304347179 0.3262074295 -0.2251099496 -0.4915934875 0.0344532933 0.4459372646
-0.1994193948 0.2638817990 0.3259670208 -0.5055468605 0.0352221889 0.4536582902
0.3260868991 0.2836357107 0.1143789138 -0.4980377740 0.0266911199 0.4487807775
-0.1375868687 0.4100320150 0.0921874979 -0.5001366174 0.0434180752 0.4472089776
-0.0549767875 0.5633650825 -0.3088155437 -0.4998554957 0.0292880762 0.4411977606
0.3070521612 0.0036719389 0.2101593680 -0.4982006436 0.0270677633 0.4495408035
0.1492177114 0.0155016946 0.1200266873 -0.4995680348 0.0266183373 0.4465274559
-0.1393529033 0.4951337916 -0.2955341620 -0.5011169564 0.0326594760 0.4394736216
0.3964447029 0.7604912775 -0.3275494903 -0.4997246957 0.0430585100 0.4452447951
0.2026703076 0.7250589756 -0.2055223074 -0.4998763565 0.0372123105 0.4560028378
-0.1622113018 0.2742258940 0.3259670208 -0.5047917040 0.0364308149 0.4524163077
-0.0048448953 0.4107684845 -0.3349024984 -0.4989125044 0.0356565280 0.4536535076
-0.1194767395 0.2866680931 0.2125673591 -0.5011052956 0.0264482242 0.4491257079
0.3173912475 0.3944676160 0.3000518574 -0.5075691734 0.0365165279 0.4507380034
-0.3434782718 0.3959100681 0.1499582591 -0.5078085386 0.0341135628 0.4492752731
0.0945956978 0.0173486944 0.0634269695 -0.4998668696 0.0263518851 0.4466569254
0.4304347179 0.2520345912 0.0545835701 -0.4914566702 0.0344028672 0.4472386471
-0.2304348014 0.3786733737 -0.0111680688 -0.5059977648 0.0352490932 0.4469535341
0.0639896129 0.4759997321 -0.1629575887 -0.5000174522 0.0334193542 0.4554521335
-0.2220036715 0.0062892517 0.0597148741 -0.5008956956 0.0283685545 0.4511640990
0.4304347179 0.3373745070 0.2625483991 -0.4914424354 0.0339108063 0.4484728731
-0.3434782718 0.3273300468 -0.0760397773 -0.5071869734 0.0344319976 0.4478763862
-0.1452185464 0.3318268117 0.3494670279 -0.5012257564 0.0295743892 0.4507077426
0.3435694891 0.0396328929 -0.2986478836 -0.4977722262 0.0277197807 0.4450567343
-0.0071598865 0.4015428851 -0.0317536674 -0.5000128000 0.0434133970 0.4470981428
0.2280959580 0.2956095447 -0.2209082107 -0.5000000000 0.0434356492 0.4477061428
0.3361709679 0.5331689368 0.2755666765 -0.4928630961 0.0304791544 0.4494647687
0.4304347179 0.2624992339 0.0317388413 -0.4914705832 0.0343927280 0.4471407080
0.2605591645 0.5096883819 -0.4218590141 -0.4975780436 0.0367404583 0.4412716389
0.4304347179 0.1127809052 -0.1670121797 -0.4913274093 0.0348357976 0.4476557428
0.3977754071 0.1297711736 -0.4218590141 -0.4970872872 0.0299448588 0.4433906387
-0.2304348014 0.4663575415 0.2749066504 -0.4916670875 0.0350733715 0.4496164557
0.0904279850 0.0255933113 -0.4218590141 -0.5001405043 0.0275382676 0.4434438474
0.4304347179 0.3517975407 -0.2190181065 -0.4916074528 0.0343641715 0.4460172298
0.2798263631 0.0089143211 0.0477557967 -0.4986850088 0.0271477199 0.4474000211
-0.0433124405 0.3951070595 -0.1257165913 -0.5000073565 0.0434114231 0.4470658385
-0.4001531461 0.5213902507 -0.1907671867 -0.5061613126 0.0372615626 0.4439367256
-0.1944393169 0.2820382326 0.1403413468 -0.5015984868 0.0264275808 0.4488064210
-0.2505770521 0.0225663810 0.0540864049 -0.5021195999 0.0281184676 0.4497995252
0.4304347179 0.1648490755 0.1751690835 -0.4913632963 0.0345597454 0.4476949602
0.3395426286 0.7822137543 -0.2406594441 -0.4999129391 0.0433442405 0.4465524037
-0.1963784472 0.7043051684 -0.3920197901 -0.5007687478 0.0393505277 0.4453869168
0.4622390113 0.4289030223 -0.3199823256 -0.4963417046 0.0279255720 0.4445322039
-0.1950495430 0.4158985189 -0.1590610846 -0.5010548260 0.0290155980 0.4536658467
-0.1202903655 0.2956095447 -0.0113862079 -0.5000000000 0.0434356492 0.4477061428
0.1746407705 0.3954159203 -0.1212075481 -0.4998731478 0.0434101709 0.4470705602
-0.3726420523 0.5505928487 -0.2434082178 -0.5042806780 0.0412617537 0.4445325691
-0.2421637049 0.0312890326 -0.2925153101 -0.5030385302 0.0280094589 0.4457079951
0.2173861501 0.4257413617 -0.1538197632 -0.4984385566 0.0298599284 0.4542918032
-0.1328736255 0.2477248349 -0.4218590141 -0.5003949739 0.0344635367 0.4392472825
-0.2752478069 0.5571464656 -0.0080167994 -0.5035923128 0.0272597459 0.4497471861
0.3818558430 0.0452555447 0.1863228914 -0.4958556872 0.0277830328 0.4494941861
-0.2233144540 0.4053460414 0.1143441138 -0.5048697910 0.0385306408 0.4479012906
-0.3809524257 0.4428780127 -0.4218590141 -0.5043349649 0.0300498240 0.4419019258
-0.1964452211 0.3521039494 -0.3333477594 -0.5055831648 0.0344405454 0.4431178387
0.0111134079 0.3910426163 -0.1850577523 -0.4999563913 0.0434097796 0.4470528906
0.0994229757 0.5807668379 -0.3349024984 -0.4996354087 0.0337033803 0.4558547074
0.0421334927 0.0173486944 0.1341336081 -0.5000318348 0.0260570504 0.4475008384
0.4304852744 0.4173655188 -0.2654781989 -0.4916738701 0.0341863454 0.4459010125
0.2846468150 0.1529439285 0.3259670295 -0.4988109392 0.0320767369 0.4547731597
0.2582035386 0.5986626714 -0.1814468569 -0.4999290609 0.0361344497 0.4562834726
0.4304347179 0.3412681502 -0.1746334139 -0.4915865136 0.0343521541 0.4462260994
-0.2304348014 0.5090794602 0.0058129996 -0.5050118779 0.0334813542 0.4513259425
-0.1287985997 0.7043051684 -0.3572388447 -0.5005661304 0.0393893799 0.4512224990
0.1925816562 0.0002055217 0.3259670295 -0.4985151566 0.0275951720 0.4519065338
0.3754839739 0.5594385002 0.1808612048 -0.4972288871 0.0277657981 0.4497091078
0.0600060132 0.4081074151 0.0640885695 -0.4999990174 0.0434151361 0.4471254124
-0.0596527437 0.0173486944 -0.3577269229 -0.5006010087 0.0262514156 0.4466504124
-0.3434782718 0.7319115665 -0.2988828053 -0.5046351214 0.0341977194 0.4430544040
0.4304347179 0.3695286526 0.2758041895 -0.4914581745 0.0337930063 0.4486022384
0.4304347179 0.2898531016 -0.1266604434 -0.4915389484 0.0344686933 0.4463758907
0.2407667224 0.0056590518 0.3090352742 -0.4985435479 0.0267323894 0.4497844991
0.2545584779 0.6957881081 -0.3349024984 -0.4993769827 0.0390337625 0.4551006901
