0.0005921094 0.2749081562 0.2850092305 -0.5027244063 -0.0007237578 0.5089268164
-0.2508855781 0.3515625000 0.3902902773 -0.5025959766 0.0016777813 0.5219574336
0.4921875000 0.5614679453 -0.2191050664 -0.5076376641 0.0006839375 0.5170916836
0.2100469453 0.3671875000 -0.4242863086 -0.5004974219 0.0076541797 0.5167478477
-0.0620022734 0.3504650313 -0.3515624414 -0.4994282031 0.0016783516 0.5089292461
-0.3437500000 0.3679034141 -0.0719169961 -0.4966250234 0.0054875938 0.5160711445
0.3437500000 0.3721424375 0.0683048320 -0.4922110078 0.0001965469 0.5159443555
-0.0228592422 0.5703125000 -0.1768408398 -0.5000015625 -0.0078108516 0.5155398477
-0.2624649219 0.2393782266 -0.1059597773 -0.5077596016 0.0009053906 0.5156250586
-0.1702130469 0.5859375000 -0.1485433555 -0.5000520469 0.0078099531 0.5155503242
-0.1573052969 0.5427225859 0.4062500586 -0.4999579297 0.0002629609 0.5234258086
-0.0805953750 0.2268783750 -0.0955211523 -0.4996892578 0.0008186406 0.5233200742
-0.1011537891 0.3277162578 -0.2566856758 -0.4959068516 0.0060262422 0.5135681289
-0.2664228984 0.1779252578 -0.1084349727 -0.5054275859 -0.0000408281 0.5100086680
0.0880222344 0.2875042578 0.0651657539 -0.5076143359 0.0015107031 0.5155840820
-0.1924597344 0.3593750000 -0.0975866289 -0.4993854219 0.0076847031 0.5161654258
-0.2820679219 0.5712376797 -0.2599559414 -0.5003001719 -0.0068787656 0.5154035195
0.3199198828 0.4127138594 0.1858120273 -0.4930790078 0.0008208359 0.5190266289
-0.4140625000 0.5033077578 0.1190195352 -0.4933820625 0.0016317812 0.5149708242
-0.3312956953 0.0542305000 -0.0115962070 -0.5073573828 0.0006857656 0.5174217773
0.3839522578 0.3802098594 -0.4834251445 -0.4957118516 0.0013545156 0.5092625898
0.4596654141 0.5161262187 -0.3928511133 -0.5066370000 0.0014896719 0.5190928477
-0.0680567891 0.5859375000 -0.2334191836 -0.5000018047 0.0078102891 0.5155060508
-0.2706430078 0.5703125000 -0.0501983789 -0.5002975781 -0.0078017891 0.5156410508
-0.2004158828 0.3281250000 -0.1585878164 -0.4996161719 -0.0077421875 0.5151684258
0.4762185781 0.4230387187 -0.3549690820 -0.5065522109 0.0031145703 0.5178693008
0.2669804688 0.3437499688 -0.2756340508 -0.4998144531 0.0076631562 0.5155962383
-0.0264253594 0.5859375000 -0.2050544648 -0.4999999375 0.0078102813 0.5155220273
-0.1274462969 0.4392538047 0.3984375586 -0.4996921172 0.0052119922 0.5120573320
-0.2451563516 0.2456235859 -0.1061315508 -0.4923053984 -0.0008028359 0.5153099570
-0.3185842969 0.3814093750 0.3527146836 -0.4957466875 0.0014138125 0.5093195508
0.3249071875 0.0937737656 0.0000000586 -0.4996185938 -0.0002732422 0.5234156758
-0.1022721250 0.5859375000 0.1641030273 -0.5000070703 0.0078102734 0.5157318867
0.1645709844 0.5859375000 0.2615081367 -0.4999681094 0.0078101484 0.5157929414
0.2622773672 0.5859375000 0.0238001602 -0.4997788437 0.0078052266 0.5157123555
-0.1598141797 0.1607633047 0.1345673789 -0.5001236719 0.0008050312 0.5078599961
-0.2008802266 0.3671875000 0.1330379570 -0.4988845469 0.0076676250 0.5151067773
0.2483713047 0.2917358906 0.2421875586 -0.4994715859 0.0016858203 0.5230516523
-0.2393038594 0.5703125000 -0.1194515273 -0.5001304453 -0.0078092500 0.5155902070
0.0028953516 0.5859375000 -0.1153182383 -0.4999992344 0.0078102813 0.5155728867
0.0759729141 0.3671875000 0.0407207305 -0.5000989688 0.0058095000 0.5117899883
-0.3671843672 0.4043520703 0.3078162930 -0.4941454766 0.0022572891 0.5113117305
0.4844492656 0.3688775000 -0.3354176914 -0.5063331172 0.0042975469 0.5171231992
-0.1910121719 0.5703125000 -0.1626186992 -0.5000816016 -0.0078098125 0.5155433633
-0.0078125000 0.4517289141 -0.2938300977 -0.5070916641 0.0001760625 0.5138222852
-0.2135385312 0.5703125000 0.1737273945 -0.5001047578 -0.0078086172 0.5157813008
-0.2744737266 0.5703125000 0.0482776133 -0.5003539219 -0.0077986797 0.5157178320
0.0564712266 0.3666789844 0.0303581914 -0.5005408203 0.0077344375 0.5146729102
-0.0064117031 0.1327843359 -0.3226590195 -0.5032225703 -0.0008999141 0.5226485586
0.2392058359 0.5859375000 0.0055735664 -0.4998467031 0.0078073750 0.5156633789
0.4365556875 0.4493883281 -0.4332929258 -0.5058903437 0.0014689531 0.5203944492
0.2942349922 0.3671875000 -0.4379231914 -0.5016586172 0.0071804531 0.5169606445
-0.0923829063 0.2678859531 -0.2746689336 -0.5069614219 -0.0011333750 0.5189579570
0.0000000000 0.5211198359 0.2425625352 -0.5070706641 -0.0010133672 0.5146116914
-0.3462493125 0.2659438281 0.1489693477 -0.5063878906 0.0002890859 0.5192279336
0.3860961797 0.3437500000 -0.4036098711 -0.4962259688 0.0054420547 0.5142773633
-0.0028495156 0.5394058203 0.2182350117 -0.5035645391 -0.0054916953 0.5119995664
0.0827337500 0.1617272188 0.0525398242 -0.4950985937 0.0000030703 0.5099251836
0.4481627344 0.0446607578 -0.4484740508 -0.4922336406 0.0008468672 0.5156250586
0.0156250000 0.0997249062 0.3154852070 -0.4930244453 -0.0001254531 0.5177862930
0.1325463672 0.5859375625 -0.1738517305 -0.4999834531 0.0078102266 0.5155412383
-0.2497509688 0.5859375000 -0.1172849570 -0.5002497891 0.0078036797 0.5154821602
0.0447410312 0.5703125000 0.2206113320 -0.4999980391 -0.0078108594 0.5157390898
0.2616745234 0.5703125000 0.0906631914 -0.4998048203 -0.0078069687 0.5156956602
0.4819297188 0.3437500000 -0.3398653242 -0.4945558516 0.0048433047 0.5139958711
-0.1352229141 0.5540747031 -0.3405189492 -0.4988242891 0.0007663437 0.5230989805
0.0861443281 0.3003544844 0.2248228164 -0.5008210781 -0.0030307891 0.5085629570
0.1217123281 0.5703125000 0.1532043789 -0.4999924141 -0.0078106953 0.5156486289
-0.3184143906 0.3281003828 0.3112510586 -0.4970419219 0.0028349375 0.5222499258
-0.2191343594 0.3195437812 -0.1337131836 -0.4938358125 -0.0045634844 0.5169274414
-0.1988413047 0.3181706641 0.1830222617 -0.5032882656 -0.0066342188 0.5178901523
0.3521919219 0.3437500000 -0.4325301680 -0.4969895625 0.0055407578 0.5139731523
-0.4158886641 0.5637819141 0.1139222383 -0.4960308047 0.0011951172 0.5132348242
-0.3462838516 0.3515625000 0.2774272539 -0.5047075078 0.0049228125 0.5174440430
0.2492449844 0.3671875000 -0.2771776914 -0.5004718437 0.0077310938 0.5157069570
0.2678266172 0.5859375000 -0.2405041445 -0.4998240234 0.0078081406 0.5154922773
-0.3369514531 0.3187138438 0.1577884570 -0.5062490781 0.0041861875 0.5141043555
-0.2860162734 0.3178047500 -0.0134110430 -0.4922331328 -0.0008266719 0.5156250586
-0.0616849922 0.5859375000 0.2350777383 -0.5000056328 0.0078102734 0.5157720586
-0.1958936484 0.5421649844 -0.3334562227 -0.5025926250 0.0010529531 0.5085840586
0.3205776250 0.5859375000 -0.0887816523 -0.4990395781 0.0077358828 0.5154313242
0.3629323281 0.3671875000 -0.4365813164 -0.5041421094 0.0049843203 0.5182778945
0.3135233516 0.1341583125 -0.0156249414 -0.5000000000 -0.0001660391 0.5078151602
-0.2527369844 0.3593750312 -0.2162359961 -0.4981799844 0.0054567422 0.5195845977
0.4149935234 0.2512569453 -0.4189633711 -0.5041951484 -0.0011293125 0.5218339336
-0.1096898906 0.5703125000 -0.1419003633 -0.5000056094 -0.0078102031 0.5156310430
-0.2609064453 0.0664848203 -0.0836653711 -0.4944418672 0.0000657422 0.5211126367
0.0460587109 0.5703125000 0.2759668945 -0.4999978672 -0.0078105312 0.5157722695
0.3083912109 0.5859375000 -0.1504454648 -0.4994129844 0.0077829687 0.5154260977
-0.0790967969 0.5859375000 -0.2537336367 -0.5000021875 0.0078102891 0.5154945508
-0.3203125000 0.5842919375 0.0487723633 -0.5072244844 0.0020970000 0.5158522227
-0.1081140937 0.5703125000 0.1859037539 -0.5000045391 -0.0078081719 0.5158328711
-0.3715633281 0.3515625000 0.2261259805 -0.5032865625 0.0064837500 0.5163342617
-0.1604008672 0.3671875000 0.3025982695 -0.4993676250 0.0076467656 0.5146603477
0.1040199375 0.5703125000 -0.3069505664 -0.4999954688 -0.0078060859 0.5153322461
-0.2700880469 0.5703125000 0.1073781211 -0.5003499688 -0.0077985078 0.5157882930
0.4433702266 0.0004052656 -0.2206921602 -0.5055244766 -0.0000002109 0.5211491133
0.0759156328 0.5859375000 0.0640626523 -0.4999971094 0.0078102813 0.5156745117
0.2912318672 0.5859375000 -0.0906535977 -0.4996586328 0.0078002109 0.5155813008
0.2993052031 0.3464147422 0.0234375586 -0.5000000000 0.0073204687 0.5141707227
0.0884406562 0.2767561406 0.2377519883 -0.4939920156 -0.0011390000 0.5109047539
0.1726696484 0.4373620156 0.3092723633 -0.4979163516 0.0026050703 0.5224226914
-0.3079722109 0.4163038125 -0.2398082617 -0.4934050156 0.0011343516 0.5195151211
-0.3486641172 0.3671875000 0.2184023555 -0.4979566953 0.0074545391 0.5152097617
0.2154641172 0.0320354844 -0.2369672695 -0.5058506719 0.0008108750 0.5206151680
0.1422975625 0.5556297891 0.3156093320 -0.4988478828 0.0014814141 0.5224162383
0.0676401250 0.0616813516 0.2729943398 -0.4935776875 -0.0002971406 0.5189462695
-0.3491333750 0.3515625000 0.1573334961 -0.5019740469 0.0074218437 0.5156764805
-0.2079206406 0.3338407266 -0.2079206133 -0.5053832344 -0.0004070078 0.5212686367
0.1512460078 0.5703125000 -0.2722901680 -0.4999766641 -0.0078096328 0.5154593477
-0.4216718672 0.3899287891 0.1735000898 -0.5035476016 0.0062016016 0.5158966133
0.0745297656 0.5859375000 -0.1368789102 -0.4999953984 0.0078102734 0.5155604180
0.3129957891 0.0878002969 -0.0153155898 -0.5077503203 -0.0006700234 0.5157159102
0.3482124844 0.5805935234 -0.4895374180 -0.5028878672 0.0003195234 0.5228316914
0.2908243516 0.4826056641 -0.5042125586 -0.5013603281 0.0003386484 0.5232988945
-0.1171875000 0.3636332187 0.2263855898 -0.4957802422 0.0059315859 0.5154906055
0.3541166797 0.6000907422 -0.4966731680 -0.4973371484 0.0002578672 0.5083708633
0.1545972266 0.3437500000 0.0659685742 -0.4999656328 0.0077144531 0.5154403633
0.3681685313 0.3437500000 -0.2827068008 -0.4986513750 0.0074893203 0.5155084492
0.2870053047 0.5703125000 0.1022708398 -0.4996989219 -0.0078025469 0.5157600898
0.0028968437 0.5703125000 -0.1289986992 -0.5000000000 0.0078109844 0.5154988477
0.0328797109 0.5859375000 -0.3038190586 -0.4999960391 0.0078102734 0.5154657539
-0.4218750000 0.5709602266 0.1710130898 -0.5072515234 0.0009090234 0.5159165508
-0.1292346719 0.5703125000 -0.2071850898 -0.5000262187 -0.0078100703 0.5155654648
-0.3488197188 0.4907166328 -0.1391296992 -0.5077323828 0.0002333203 0.5146729023
-0.3672491875 0.1008224062 0.1223385898 -0.5069312031 0.0008974609 0.5121506445
-0.1818903125 0.3671875000 0.3171455586 -0.4991615859 0.0076070938 0.5145640039
0.0040142500 0.3509094141 -0.3151585508 -0.5012013438 0.0007417656 0.5083462773
-0.3020670703 0.3465167266 -0.0078151836 -0.5061413047 0.0007798438 0.5203022852
-0.1559400547 0.5859375000 -0.1770516055 -0.5000397422 0.0078100938 0.5155340195
0.1304910156 0.5703125000 0.2528913867 -0.4999821641 -0.0078108750 0.5157453164
-0.2277808203 0.3232762188 -0.2314112227 -0.4975941406 -0.0066802969 0.5185023867
-0.3890372187 0.5656385391 0.2724632617 -0.4932506406 0.0007365703 0.5120679414
0.2222868203 0.3671875000 -0.4364528086 -0.5006271250 0.0076273516 0.5168339805
-0.0910754219 0.5859375000 -0.1721041836 -0.5000035234 0.0078102813 0.5155409414
-0.2592432188 0.6007775703 0.3833154570 -0.4971527734 0.0002972891 0.5083981758
0.0851924453 0.2057912344 0.0775532695 -0.5000000000 -0.0008585391 0.5233891133
0.1306676250 0.3671875000 0.1546466914 -0.5002664375 0.0076072344 0.5144276602
-0.2782649375 0.5859375000 -0.1133733398 -0.5003012500 0.0078033828 0.5155153867
0.2919153594 0.5859375000 0.1818099570 -0.4996343281 0.0077995625 0.5158429180
0.1730047500 0.5703124375 -0.2476424570 -0.4999600469 -0.0078105469 0.5155427461
0.4432377187 0.1498781406 -0.2354030586 -0.4975274609 0.0007998828 0.5225851758
0.2351263750 0.5859375000 -0.2037107930 -0.4998511719 0.0078076719 0.5155122773
-0.2078336484 0.4988368125 -0.3283391602 -0.5030732891 0.0016638750 0.5089527930
-0.3862301641 0.3515625000 0.2416827383 -0.5050884844 0.0050516406 0.5171675430
0.2643320547 0.0819493125 0.2593674648 -0.5077486172 -0.0009907578 0.5156250586
-0.1381942031 0.0501108281 0.1365185039 -0.4922368281 0.0006155391 0.5162405977
-0.1628468047 0.3671875000 0.1195428945 -0.4991920391 0.0077151953 0.5149243867
0.0753738281 0.5859375000 0.2902275430 -0.4999991406 0.0078102813 0.5158029414
-0.1577435156 0.1618791797 0.3291915664 -0.4922385625 0.0007723281 0.5159110664
-0.4140625000 0.4779333750 0.1234573398 -0.4940176016 0.0025924375 0.5150052227
0.1812289922 0.5859375000 0.1591744727 -0.4999488281 0.0078099531 0.5157348086
-0.0485407109 0.5859375000 -0.1727477305 -0.5000013438 0.0078102891 0.5155404414
0.1311101875 0.5703125000 -0.2375445977 -0.4999874062 -0.0078078594 0.5154145117
-0.2918767187 0.5703125000 -0.1519796836 -0.5003871016 -0.0077981484 0.5154798398
0.4665029063 0.3518675000 -0.2109374414 -0.5010149375 0.0063684531 0.5195098164
-0.3054626016 0.5859375000 -0.1712086836 -0.5008765234 0.0077477422 0.5154599727
0.4977150000 0.3437500000 -0.2412517070 -0.4966137969 0.0050260078 0.5170589336
0.1443935625 0.3437500000 0.2952954492 -0.4992159297 0.0062483750 0.5193204570
-0.1932247891 0.3593750000 -0.2141051914 -0.4993555625 0.0075230547 0.5171611680
-0.3049152344 0.3539626328 0.3748102773 -0.5041811016 0.0014941250 0.5220507148
0.2423253047 0.5937500000 -0.5100887461 -0.5021656875 0.0052305234 0.5133540508
0.0821269766 0.1804242109 0.2501695742 -0.4931904297 -0.0011639531 0.5120187148
-0.0826814141 0.0697338437 -0.0780606289 -0.5022931875 0.0004732734 0.5224366914
0.1846423125 0.4160298125 0.2988076211 -0.5018949062 0.0031948359 0.5090044492
-0.3227400469 0.0724318047 -0.0179283008 -0.5073107578 0.0006228203 0.5142702539
0.2070583672 0.5703125000 0.0229463242 -0.4999233281 -0.0078103672 0.5156427617
-0.0693895781 0.0620063828 -0.3046678945 -0.5077666797 -0.0008153594 0.5155298477
-0.3065713047 0.5859375000 -0.0995360039 -0.5009635703 0.0077385156 0.5155437070
0.0776174687 0.2639853047 0.0762067461 -0.5014590703 -0.0006687969 0.5229980430
0.0906844766 0.4741978672 0.3125000586 -0.5004262969 0.0036526719 0.5104607695
0.4039872891 0.3014003047 -0.2663829961 -0.5069041406 -0.0036460938 0.5156250586
-0.4218750000 0.5049207187 0.1679711602 -0.5061404687 0.0024958047 0.5158505664
-0.1064226016 0.5468691016 -0.3515625039 -0.5002659687 0.0011322891 0.5085267148
-0.2016539844 0.5785765078 0.2861346445 -0.5000989219 0.0004518516 0.5158418555
0.3372190625 0.3622507187 -0.2109374414 -0.5006314297 0.0066160000 0.5193638945
0.3415749062 0.4235541250 0.1033382070 -0.4922595469 0.0002321719 0.5165475117
0.2148729531 0.5703125000 -0.0127753633 -0.4999019609 -0.0078090781 0.5155888242
-0.1901988359 0.3357494766 0.2863637383 -0.4938961641 0.0019827813 0.5113161523
0.0726723047 0.0212381484 0.0424159180 -0.4922578125 -0.0010435547 0.5156250586
0.4103615312 0.3224027187 -0.2772982148 -0.4949855703 -0.0015371094 0.5098420742
-0.1890727891 0.4813676172 0.3972643867 -0.4991222266 0.0001860547 0.5078766602
-0.3232471484 0.4412374531 -0.2275274414 -0.5066638750 0.0009159766 0.5117635586
-0.2076604375 0.3593750000 -0.1217740820 -0.4992790313 0.0076398203 0.5164009727
-0.0903681250 0.5859375000 0.2976418008 -0.5000076484 0.0078102656 0.5158076758
0.0687838203 0.1691557891 0.0633442383 -0.5077862734 0.0006196641 0.5156250586
0.3029037109 0.5859374375 0.1533000430 -0.4995696328 0.0077968281 0.5158072773
0.4762540469 0.5495656719 -0.3809280977 -0.4931786406 0.0010382656 0.5124673008
-0.3011503203 0.1916218437 -0.0171154180 -0.4931376875 -0.0007383359 0.5133180977
-0.2070007344 0.3368996094 0.2070007930 -0.4945245781 -0.0003606328 0.5211004805
-0.2977202109 0.5162535938 -0.2614857539 -0.5057777969 0.0005700547 0.5105327773
-0.1199889766 0.5703125000 0.1479544961 -0.5000157891 -0.0078080937 0.5157966602
0.3383522031 0.0617904297 -0.0148288633 -0.4922268594 0.0007829609 0.5156250586
0.0823181250 0.1783630703 0.0696102695 -0.4945295391 -0.0012450703 0.5210369258
-0.4115930000 0.4454084062 0.1891615664 -0.4945436406 0.0040009922 0.5149204961
0.4301429375 0.4897067813 -0.4447658633 -0.4946943359 0.0014698047 0.5103410352
0.2682178594 0.3010339766 -0.4041704570 -0.4999281172 -0.0029728281 0.5225246758
-0.1840755937 0.5703125000 0.1935656680 -0.5000647422 -0.0078095703 0.5157674102
0.1300261016 0.3671875000 0.2823670352 -0.5003330156 0.0072192813 0.5130768945
-0.3587449609 0.0236301094 0.1276256445 -0.5000375000 -0.0011443594 0.5233503867
0.0439901953 0.5859375000 -0.3485818477 -0.4999950703 0.0078102734 0.5154403008
0.0147907734 0.5859375000 0.1507111758 -0.5000009922 0.0078102813 0.5157239102
0.0113881250 0.5859375000 -0.0254609570 -0.4999996016 0.0078102891 0.5156238867
-0.2171277422 0.3515625000 0.3076638867 -0.5005843906 0.0076332344 0.5156980430
-0.4059954609 0.3973788047 0.2531981445 -0.5062736250 0.0033837031 0.5182562461
0.2608528750 0.0809462344 0.0692455742 -0.5015820156 -0.0010984531 0.5229822383
0.4790492031 0.5132928516 -0.3483642383 -0.5069795938 0.0016109219 0.5180636836
-0.1432613750 0.5703125000 -0.2556833633 -0.5000410156 -0.0078099844 0.5155173789
0.4869962969 0.4816093437 -0.3558626758 -0.4931753906 0.0021164062 0.5133430117
-0.1212757812 0.3437499688 -0.3451898086 -0.5004437109 0.0069241172 0.5124725664
-0.2708664531 0.3359375000 0.2134646445 -0.4998617813 -0.0077958984 0.5158115508
0.5000000000 0.4856292891 -0.2112375508 -0.4922412656 0.0000856484 0.5165263555
0.2813683750 0.3671875000 0.0946045195 -0.5012563516 0.0074091094 0.5143511445
-0.1507756094 0.5859375000 0.2876325273 -0.5000371328 0.0078100234 0.5158109414
0.2359164922 0.3437500000 -0.2789841914 -0.5001738437 0.0077163203 0.5156224102
-0.2451034766 0.5703125000 -0.0388657461 -0.5001566172 -0.0078079453 0.5156596680
0.4330286953 0.1808666719 -0.4301262539 -0.4931058672 0.0005655938 0.5176974336
-0.4131712578 0.5569447891 0.1781136992 -0.4927902422 0.0010881406 0.5149316445
-0.3515625000 0.3962457500 -0.1137482539 -0.5077863437 0.0002198906 0.5150803242
-0.0045928047 0.2526386641 -0.3187549727 -0.5047695625 0.0004551484 0.5096331523
0.4462257656 0.4579365859 -0.4163703320 -0.5061820938 0.0016452422 0.5198307930
0.4722341875 0.3671875000 -0.2844399805 -0.5023267578 0.0074299531 0.5157589492
0.3895422813 0.3437500000 -0.3720474258 -0.4979043906 0.0069798359 0.5152077930
-0.3522053359 0.1704331953 0.3252085273 -0.5035584844 -0.0003435391 0.5091014414
0.2233394375 0.0413046406 -0.4402139180 -0.5077289922 0.0006668906 0.5158525977
-0.2736807734 0.5859375000 -0.2415277383 -0.5003213203 0.0078016797 0.5153982852
-0.2802338594 0.4392652500 0.0000000586 -0.4974800391 -0.0002964688 0.5223360742
0.5000000000 0.3933618672 -0.2295183555 -0.4925697500 0.0006442891 0.5160866289
-0.2831587187 0.0836046563 -0.2953980586 -0.5001571953 0.0007303203 0.5078541367
-0.1462856250 0.3515625000 0.1664286836 -0.4998779844 0.0077526406 0.5156463086
-0.4140625000 0.4903516797 0.1070519961 -0.4933232031 0.0018766797 0.5147479336
0.2227452422 0.4722697109 -0.5156249414 -0.5002545391 0.0003167187 0.5078264961
0.1219156406 0.5703125000 -0.1577486992 -0.4999923125 -0.0078076797 0.5154375742
0.0178636328 0.5859375000 -0.0457482930 -0.4999990938 0.0078102813 0.5156123477
0.2096551641 0.5185752500 -0.5078124414 -0.5001446875 0.0019160938 0.5219000820
-0.1795844453 0.2803225547 0.3007606445 -0.5066321016 -0.0010985703 0.5129634492
-0.0499177578 0.5703125000 0.2825572773 -0.5000018906 -0.0078086719 0.5158486758
0.2304859766 0.3460468047 0.2864469258 -0.4964936953 0.0034618438 0.5216541367
-0.1916181406 0.3157861797 0.2857763789 -0.4981281406 -0.0045482578 0.5096765195
0.2037222422 0.5703125000 -0.2039644102 -0.4999077266 -0.0078085938 0.5154799883
0.0127016875 0.5654233672 0.0182057305 -0.4945555625 0.0056018672 0.5156308789
0.1504199531 0.5859375000 0.2018170977 -0.4999761328 0.0078101875 0.5157571211
0.0948939297 0.5859375000 -0.0572373867 -0.4999950625 0.0078102734 0.5156055742
0.2323765156 0.5703125000 0.2555006758 -0.4998887891 -0.0078099063 0.5157666367
0.4762710313 0.4056591953 -0.3548467773 -0.5064725469 0.0034207813 0.5177946914
-0.2234385625 0.3593750000 -0.1001339570 -0.4991785391 0.0076578437 0.5162465664
0.4695413672 0.5763638047 -0.3965908867 -0.4932381563 0.0005439766 0.5119047148
-0.0575660156 0.0000000000 -0.2948572070 -0.5007244922 -0.0011513047 0.5219673477
-0.3184692422 0.3368806563 0.1737183320 -0.5055738125 0.0024406641 0.5205216133
-0.1868213125 0.3538502422 -0.0546874414 -0.4999391484 0.0060779141 0.5194846523
-0.2806877812 0.5859375000 -0.1497844492 -0.5003163516 0.0078027812 0.5154881133
0.5000000000 0.3530645703 -0.2707188164 -0.4962179375 0.0059375625 0.5155364727
-0.1493898906 0.5859375000 0.0163763789 -0.5000356250 0.0078100938 0.5156482930
0.1630682969 0.6015625000 0.3097906992 -0.4995013828 0.0003619062 0.5178189570
0.0386272656 0.5859375000 0.1372179961 -0.4999996562 0.0078102813 0.5157161758
-0.1479515703 0.3437500000 -0.2778709570 -0.5001744609 0.0074201953 0.5136512617
0.2310143672 0.5859375000 0.1873897305 -0.4998883750 0.0078087344 0.5157692305
-0.1256663516 0.3515625000 0.1751565039 -0.4996581641 0.0077865547 0.5156312539
-0.4193930469 0.5857821719 0.1917306758 -0.5074313281 0.0006455781 0.5163605820
-0.0528725391 0.0539779688 -0.2915521289 -0.4922385469 0.0008878047 0.5156460195
-0.2430087031 0.5236663203 -0.0167893789 -0.4950838984 -0.0050475781 0.5122935977
0.3112245781 0.4967297891 0.1878718164 -0.5068461406 0.0008079922 0.5121040195
0.0637215937 0.0813067109 0.0608384023 -0.5068724844 0.0005017969 0.5177260898
-0.1793225078 0.5859375000 -0.1644836055 -0.5000618828 0.0078098281 0.5155369258
-0.0614223516 0.5859375000 -0.0834610508 -0.5000027969 0.0078102813 0.5155911836
0.3359374375 0.5160738203 0.0740313242 -0.5076443750 0.0002371953 0.5154702383
0.2800266172 0.1035413438 0.2545278945 -0.4928022031 0.0009205000 0.5179960352
0.2735638594 0.5703125000 -0.0728316914 -0.4997707422 -0.0078057813 0.5155835977
-0.0862970391 0.4509527109 -0.3515624414 -0.4998835313 0.0015784844 0.5088482539
-0.2360794531 0.5703125000 0.0922766289 -0.5001482188 -0.0078075938 0.5157472383
-0.3660535547 0.3515625000 0.1468051055 -0.5017716172 0.0073191563 0.5148934727
-0.0057418672 0.5522208203 -0.2146374570 -0.5028950859 -0.0067936250 0.5176470664
0.4921875000 0.4550555937 -0.2345172148 -0.5055385547 0.0032973984 0.5163751523
-0.2595189844 0.5193062422 0.3831972773 -0.4973143594 0.0006057266 0.5083514102
-0.1645793594 0.3593750000 -0.3257275820 -0.4988941406 0.0051074219 0.5208736523
-0.0866029531 0.5859375000 0.1459082070 -0.5000061172 0.0078102734 0.5157215039
-0.2452860781 0.4301025234 -0.3000175977 -0.4958460703 0.0018628047 0.5217810273
-0.3077079062 0.3251045938 0.1624677461 -0.4936585937 -0.0026064141 0.5121796523
0.2603557109 0.5703125000 0.1083841055 -0.4998085625 -0.0078071016 0.5157077227
-0.1870217891 0.5859375000 0.2380078398 -0.5000852734 0.0078093281 0.5157905586
-0.0083981172 0.5703125000 -0.0573177383 -0.5000008594 -0.0078115937 0.5156075664
0.3434350469 0.4315099687 0.0234375586 -0.4961888437 0.0003703906 0.5117720898
0.1689811953 0.5703125000 0.0343099492 -0.4999491406 -0.0078089219 0.5157250117
-0.3247301875 0.3515625000 0.2057204805 -0.5017476484 0.0074571953 0.5157766211
-0.1982309844 0.5859375000 0.0046212070 -0.5000893438 0.0078093750 0.5156375820
-0.1476048203 0.1184148203 0.1459697461 -0.5000000000 -0.0008914062 0.5233864648
0.1804364297 0.5859375000 0.1206001914 -0.4999478516 0.0078099453 0.5157114492
0.3093078750 0.3861020234 0.1923443086 -0.5068838516 0.0012702422 0.5122730820
0.3286238281 0.3437500000 -0.2270063789 -0.4994313594 0.0072686094 0.5176814336
-0.1735043828 0.3547244063 0.1015625586 -0.4999350781 0.0074915469 0.5135270273
-0.1853905625 0.3671875000 0.2245507227 -0.4993048672 0.0076703359 0.5151735664
-0.3477790469 0.3515625000 0.2453705977 -0.5031276797 0.0064397969 0.5163653477
0.1108986719 0.5703125000 0.2636608789 -0.4999951250 -0.0078114766 0.5157143555
-0.2647601953 0.1978777031 -0.0953277383 -0.5055081406 0.0010722188 0.5210568711
-0.3706704375 0.3763848828 0.3130080117 -0.5054523359 0.0030351250 0.5201744727
-0.1525124297 0.5168558359 0.3984375586 -0.4998385312 0.0021107031 0.5095245586
-0.1642015000 0.4287476562 -0.3447090977 -0.5016679922 0.0032440703 0.5093089023
0.0647155078 0.3671875000 0.1212311055 -0.5011276719 0.0075278828 0.5142279570
0.2127373203 0.0086990469 -0.2345083398 -0.5056999531 0.0007770859 0.5208374023
0.2988756875 0.2924934609 -0.0016228555 -0.5068965469 -0.0007391016 0.5178457148
0.3843432031 0.4478024844 -0.4755420117 -0.5034681719 0.0008673437 0.5225260508
-0.1727558672 0.4913135781 -0.3433724648 -0.5018309063 0.0018919453 0.5085554570
-0.0745555781 0.1085003047 -0.0789934414 -0.4955689531 0.0005858437 0.5189821211
0.3217284062 0.2280284141 -0.0142154102 -0.4922312266 0.0008232813 0.5156250586
0.2392213906 0.3671875000 0.1950725586 -0.5015954062 0.0054662031 0.5114516133
0.2999563203 0.3671875000 0.1635518398 -0.5045733672 0.0035549297 0.5122845430
-0.2737219922 0.0291784609 -0.0735545195 -0.5000000000 0.0007368594 0.5234022930
-0.2503300625 0.1835391484 -0.0939599883 -0.4942355703 -0.0000903047 0.5206782070
0.3260514141 0.0255811484 -0.0234374414 -0.4999975859 -0.0001879688 0.5078150977
-0.0803184219 0.0483361250 -0.0855987695 -0.5056895078 -0.0014761172 0.5105767773
-0.3632986094 0.6015625000 0.3186502148 -0.5023274141 0.0002183359 0.5166373086
0.0731737578 0.1996103516 0.0612415039 -0.5025770547 0.0010806484 0.5089571133
0.1618539062 0.5859375000 -0.2968153945 -0.4999476484 0.0078099219 0.5154609883
-0.2314019531 0.4523206953 -0.3168557305 -0.5038413203 0.0018905078 0.5092967695
-0.2177156172 0.3339172578 0.2774780195 -0.5030912813 -0.0062900078 0.5157130430
-0.0981276328 0.3437500000 -0.2711391445 -0.5000759141 0.0074301641 0.5137627383
-0.0800366094 0.5495411719 -0.0156249414 -0.5000000000 0.0000000000 0.5078125586
-0.2449624219 0.3671875000 0.1345075039 -0.4987016875 0.0076161875 0.5150894336
-0.1379467578 0.5859375000 0.2686297617 -0.5000282656 0.0078101016 0.5157966602
0.3889762734 0.3315182344 -0.3872317070 -0.4973054687 -0.0036084063 0.5216344023
-0.3437500000 0.2984410234 0.1444489961 -0.5058505703 0.0025335859 0.5116020977
0.3735186484 0.3483968984 -0.3766910430 -0.4963030078 0.0058028672 0.5173142695
-0.0066123047 0.0355563672 0.3161493398 -0.5036352734 -0.0008837422 0.5087996055
0.0000000000 0.5501464609 -0.0861648945 -0.5062020938 -0.0032064063 0.5156250586
-0.3195494844 0.5835246406 -0.2352905273 -0.5067901250 0.0003052578 0.5117999883
-0.1020753984 0.2810611094 -0.1171874414 -0.5054960391 -0.0016293437 0.5129495117
-0.4197728203 0.5120148047 0.1015625586 -0.5035793359 0.0000646563 0.5147360117
0.2270973906 0.3671875000 0.1349169336 -0.5008827500 0.0075622422 0.5143577461
0.3120805000 0.3443137734 -0.3525456758 -0.5050524766 0.0024216797 0.5210256133
-0.2794165781 0.3390009688 0.1971459961 -0.4942706094 -0.0004312813 0.5103439727
0.1142328984 0.5859375000 -0.0643544805 -0.4999940156 0.0078102734 0.5156014727
0.0176298047 0.5859375000 -0.1756205586 -0.4999979531 0.0078102813 0.5155385977
0.2783149453 0.3787424531 0.2509841289 -0.4947386172 0.0026595000 0.5205751602
0.0078125000 0.3847346875 0.2797210820 -0.4921875000 0.0000000000 0.5156250586
0.1513241562 0.5703125000 -0.2150202383 -0.4999766250 -0.0078101953 0.5154986133
0.2442102422 0.5703125000 0.1705542227 -0.4998549297 -0.0078087266 0.5157221523
-0.1808240391 0.5703125000 -0.0974438164 -0.5000691484 -0.0078098750 0.5155828008
0.3916573516 0.3437500000 -0.2418861992 -0.4987920703 0.0071982422 0.5171904102
0.2627533672 0.5234177734 -0.5156249414 -0.4995710000 0.0001575781 0.5078285195
-0.2996353828 0.3875397422 0.3653473086 -0.4964124297 0.0011977578 0.5088141992
0.2787381406 0.3671875000 0.1445391133 -0.5020053125 0.0058598281 0.5124351836
-0.1368354297 0.3281250000 -0.2152303477 -0.5000000000 -0.0078125000 0.5156250586
0.4151166641 0.4843808438 -0.4550263320 -0.5050463594 0.0011402500 0.5212763711
-0.4218750000 0.4530358906 0.1264910977 -0.5077848437 0.0001266406 0.5152435117
-0.1820903125 0.5703125000 0.1230013086 -0.5000624609 -0.0078098047 0.5157172305
-0.2403233359 0.5859375000 0.2063726445 -0.5001689219 0.0078079844 0.5157628398
0.2508717812 0.3437500000 0.2362385664 -0.4971516172 0.0043025703 0.5203504727
-0.2777376016 0.0405331172 -0.0971277383 -0.5054088437 0.0000982812 0.5100444570
0.2102141406 0.3437500000 0.0792972148 -0.4999548672 0.0076902734 0.5155642227
-0.3093475234 0.5806573594 -0.2047699102 -0.5010133984 0.0025079375 0.5153766523
0.2183985078 0.4287799922 -0.5156249414 -0.5001302109 0.0001311328 0.5078235430
0.2338739609 0.5290678750 -0.5156250586 -0.5001961250 0.0003836797 0.5078271445
0.3237977031 0.1534900781 -0.0052399023 -0.4930665938 0.0005304375 0.5191690352
-0.0541903984 0.5859375625 -0.1110838086 -0.5000021797 0.0078102813 0.5155754727
0.2755854688 0.0706846563 0.2499587227 -0.5000000000 -0.0010156797 0.5078795430
-0.0197939844 0.5703125000 -0.0750149492 -0.5000013750 -0.0078114922 0.5156052305
-0.2231482578 0.5703125000 0.1283608945 -0.5001157031 -0.0078085703 0.5157561211
0.1605979219 0.5859375000 0.1647272695 -0.4999696563 0.0078101563 0.5157374414
0.3462236562 0.3437500000 -0.2450173477 -0.4991219453 0.0074919609 0.5162227539
-0.1574463281 0.3593750000 -0.1180302539 -0.4996142969 0.0076828281 0.5162727383
0.0078125000 0.4642963672 0.2725921289 -0.4921875000 0.0000000000 0.5156250586
0.2915478359 0.3652179844 -0.5123845977 -0.4987153281 0.0003955625 0.5079762539
-0.0939957500 0.2990182656 -0.1157814258 -0.4927575000 0.0024505781 0.5140368555
0.1271108359 0.5859375000 0.0341684805 -0.4999887422 0.0078102500 0.5156587539
0.2908108203 0.3437500000 -0.3066363320 -0.5043965312 0.0058858672 0.5132034023
0.3131670937 0.3676964062 0.1833394180 -0.5070448203 0.0011387969 0.5126651133
0.0431171641 0.5859375000 0.1546593320 -0.4999995859 0.0078102813 0.5157260664
-0.3560616406 0.0397603359 0.3319755898 -0.5002436719 -0.0008277578 0.5079937227
0.1751480078 0.5859375000 -0.0419680508 -0.4999456172 0.0078099219 0.5156123477
-0.0061800781 0.3691179766 0.2834007617 -0.5047365938 -0.0007030625 0.5095892148
0.3405383203 0.3437500000 -0.3283036367 -0.4989891016 0.0075350234 0.5155257383
0.2039500469 0.5703125000 -0.1683741836 -0.4999108438 -0.0078089062 0.5155065195
0.0078125000 0.3274945625 0.2807824727 -0.4921875000 0.0000000000 0.5156250586
0.1007374531 0.3437499688 0.2997041758 -0.5001821094 0.0072722891 0.5180344336
-0.1742802578 0.4210562969 0.3984375586 -0.4996657656 0.0003074688 0.5080027695
-0.0723755938 0.0888804922 -0.0728827148 -0.4994936172 0.0005582734 0.5229090195
0.2001403594 0.3437500000 0.0241643164 -0.4999994141 0.0077798984 0.5149366367
0.0383515391 0.5859375000 -0.2395091680 -0.4999963281 0.0078102734 0.5155022539
0.4391371016 0.0805684297 -0.4570213008 -0.4958681250 0.0008829063 0.5091756836
0.4999863516 0.3760922812 -0.2813589570 -0.4965124687 0.0063669688 0.5153846133
-0.1988490234 0.5779113203 0.3960423711 -0.4986742344 0.0002044297 0.5079516836
0.2619214063 0.5476899766 0.2654899336 -0.4950126328 0.0008993437 0.5213301367
0.2558572266 0.2285349844 0.0788568867 -0.4922280156 0.0007943281 0.5156250586
0.2620102187 0.3437500000 0.1486722852 -0.4991334297 0.0061148203 0.5179832617
0.0728079062 0.5859375000 0.1167192148 -0.4999977344 0.0078102813 0.5157044258
-0.3515625000 0.5354918828 -0.1083031289 -0.5077974609 0.0001648906 0.5152929023
-0.3375171719 0.5667872422 -0.1942307383 -0.5073971797 0.0003097344 0.5133311836
-0.4042195312 0.3515625312 0.1619911211 -0.5023846641 0.0072953203 0.5154414961
0.0704984063 0.3671875000 0.2290458086 -0.5020255937 0.0068248594 0.5137509727
-0.3450411250 0.4636521016 -0.0546874414 -0.4993655391 0.0030008594 0.5205475742
-0.3203125000 0.5772423125 -0.1361953008 -0.5071337266 0.0002495469 0.5154011914
0.1283158047 0.3619929844 0.0234375586 -0.5000000000 0.0046631406 0.5101352852
0.2773687266 0.5703125000 0.0716818242 -0.4997501094 -0.0078048438 0.5157153242
0.2137027422 0.5562338828 0.2905046367 -0.5036908359 0.0008289141 0.5089786680
0.3628718281 0.3437500000 -0.4681948398 -0.4965476484 0.0040881406 0.5116096836
-0.1498164531 0.1181096641 0.3304732148 -0.4922072969 0.0005172891 0.5156526523
-0.1825561562 0.5568035859 -0.3391723008 -0.5020930625 0.0008573594 0.5083328242
0.1868798125 0.5859375000 -0.2338198398 -0.4999251406 0.0078096406 0.5154965430
0.2369231563 0.3437500000 -0.2382246836 -0.5004715156 0.0076888750 0.5163309414
0.0795275000 0.1532478750 0.2536971523 -0.4930293359 -0.0012011406 0.5125026914
-0.0023605234 0.1294310547 0.3040746445 -0.5043558594 -0.0007352422 0.5092968477
0.2848866016 0.3437500000 0.1572915898 -0.4980618750 0.0055419141 0.5182900195
0.0072573437 0.5859375000 -0.0682758711 -0.4999994297 0.0078102813 0.5155995898
-0.1003859609 0.5703125000 0.0727049727 -0.5000044531 -0.0078090313 0.5157571602
-0.0691491953 0.1337736875 -0.2976362148 -0.5000000000 0.0008127344 0.5078568789
-0.1187431797 0.3994631172 0.3984375664 -0.4996191562 0.0064471953 0.5130633164
0.2679244844 0.5703125000 0.0029718242 -0.4997870703 -0.0078063516 0.5156352852
0.4426553281 0.5372636953 -0.4297510430 -0.4942790547 0.0008502422 0.5106212148
0.2760471094 0.5859375000 -0.1433584102 -0.4997855469 0.0078065625 0.5155745117
-0.2885526719 0.5596270547 0.3707542695 -0.4964063281 0.0004670078 0.5087395820
-0.4105720078 0.5540843047 0.1963085508 -0.4925979531 0.0009609297 0.5144241055
-0.1171875000 0.3529484297 0.2606613633 -0.4990575234 0.0075601172 0.5156250586
0.2508821484 0.2101962578 -0.4356085664 -0.5000000000 0.0005943672 0.5078357695
0.2093256719 0.5859375000 -0.2914092539 -0.4998980469 0.0078091016 0.5154442227
0.0156250000 0.0774064063 0.3187469258 -0.4934329141 -0.0000615078 0.5187300352
-0.1135060781 0.5859375000 0.0942667383 -0.5000099922 0.0078102578 0.5156916992
0.2117202266 0.3671875000 0.1672486055 -0.5007908750 0.0075298672 0.5141226758
-0.3075087344 0.3216104844 0.2904731758 -0.5022912031 -0.0042686953 0.5098012852
-0.4207307656 0.4640359297 0.1810289648 -0.5050153281 0.0041016719 0.5160857305
0.1819285156 0.5859375000 0.0422721211 -0.4999428906 0.0078098828 0.5156650898
-0.2418692734 0.5703125000 -0.0094655195 -0.5001477500 -0.0078081719 0.5156754883
0.3100807109 0.3437500000 -0.4401947852 -0.4982856641 0.0066225234 0.5149841992
0.4323031875 0.5665396484 -0.4407349258 -0.5058422344 0.0004912656 0.5207132070
-0.1337262422 0.3292259609 -0.2412736992 -0.5051251562 -0.0035558516 0.5112102227
0.3049716328 0.3671875000 0.2009434727 -0.5066507109 0.0015593984 0.5119631211
0.2073319531 0.5703125000 0.2590061445 -0.4999162578 -0.0078094375 0.5158039258
0.0651223047 0.5703125000 0.1221268789 -0.4999973281 -0.0078113516 0.5156609102
0.0211145859 0.5703125000 0.0528142148 -0.4999993906 -0.0078114609 0.5156533086
-0.1668060391 0.2849906719 0.1653094570 -0.5000000000 -0.0011885625 0.5233253164
0.0156250000 0.5379818672 0.2220924492 -0.4921875000 0.0000000000 0.5156250586
-0.1315449453 0.3671875000 0.3417172852 -0.4995350703 0.0076569844 0.5144035430
-0.2325999141 0.4497681875 0.3918235039 -0.4983081797 0.0004283984 0.5080235273
0.4926797734 0.3803255547 -0.2109374414 -0.5010253047 0.0047220078 0.5192108086
0.3023768672 0.5859374375 0.1119251836 -0.4995677578 0.0077963906 0.5157592305
0.0390625000 0.3646945078 0.3104764492 -0.5025741797 0.0061960859 0.5119205430
-0.1510689297 0.0236830781 0.1203955977 -0.5077360391 -0.0007942266 0.5149101602
0.3378888984 0.3437500000 -0.4679715039 -0.4972534141 0.0051039219 0.5126756523
0.3437499375 0.3732175234 0.0473359805 -0.4922049375 0.0001594844 0.5155827695
-0.3324000234 0.2427748750 0.1378502852 -0.4922500938 -0.0008211328 0.5151637539
0.3029916250 0.2513333594 -0.0190528008 -0.5077716875 -0.0007973281 0.5156250586
0.1449873437 0.5703125000 0.1056403242 -0.4999731406 -0.0078105547 0.5156941055
0.0655049063 0.5859375000 0.2441211367 -0.4999992344 0.0078102813 0.5157767930
0.2654559609 0.5859375000 -0.1255976602 -0.4998043437 0.0078068750 0.5155879648
0.1139622344 0.5859375000 0.2167092539 -0.4999965234 0.0078102813 0.5157610742
-0.1652821562 0.5566061719 -0.3445740977 -0.5015226719 0.0012141875 0.5085653555
-0.2599999609 0.5703125000 0.2175846055 -0.5003277422 -0.0077990234 0.5159191133
0.0462145781 0.5859375000 -0.2925022227 -0.4999954609 0.0078102734 0.5154721367
0.0871075391 0.5859375000 0.2448478945 -0.4999981406 0.0078102813 0.5157771367
0.1312557422 0.5859375000 -0.1288033711 -0.4999847891 0.0078102344 0.5155667773
0.2159959062 0.5703125000 -0.1865435273 -0.4998816719 -0.0078072734 0.5154516914
0.1669759766 0.5859375000 -0.2348253711 -0.4999451484 0.0078099063 0.5154969258
-0.0676356563 0.5859375000 0.1159985039 -0.5000048828 0.0078102734 0.5157044648
0.4740512344 0.4200152187 -0.3860678086 -0.4937471797 0.0025513906 0.5121381133
0.2148652656 0.3787749375 0.2901724727 -0.5027602813 0.0034116641 0.5092202773
0.2230824219 0.5859375000 -0.0761109570 -0.4998950547 0.0078090938 0.5155825117
-0.0078125000 0.2807547422 -0.3081808086 -0.5065075234 -0.0001862266 0.5162592852
-0.1830931328 0.5703125000 -0.2851970820 -0.5000789375 -0.0078098516 0.5154703398
-0.0670154687 0.0406393047 -0.3003927461 -0.5056040391 -0.0000461484 0.5102745898
0.2652337578 0.2777290312 -0.4094079180 -0.4937928359 -0.0011414375 0.5191655039
-0.1802358594 0.5703125000 -0.0768138789 -0.5000677422 -0.0078098828 0.5155951680
-0.3155146875 0.0872677578 0.0000000586 -0.5003751484 -0.0003751484 0.5234122383
-0.1111543750 0.5546875000 -0.0175067773 -0.4999221406 -0.0077970234 0.5152241367
-0.2585402578 0.5859375000 0.1339159570 -0.5001904141 0.0078075625 0.5156953711
-0.0626339609 0.5703125000 -0.2479546055 -0.5000034766 -0.0078112578 0.5155287305
0.3359375000 0.5339224922 0.0319803945 -0.5067670703 0.0012758984 0.5155258242
-0.3437500000 0.4597766406 -0.0862107852 -0.4945987734 0.0029868906 0.5158894805
-0.2213274844 0.3671875000 0.2943593867 -0.4988756172 0.0075706016 0.5147129961
-0.3486444531 0.0993406094 0.3486355352 -0.4996083125 0.0008629453 0.5233741367
0.4197099844 0.3437500000 -0.2388259805 -0.4989019922 0.0070363516 0.5176395977
0.3359375000 0.4615370625 0.0649065352 -0.5063545625 0.0018148438 0.5153326602
0.0524634141 0.5859375625 -0.0775542852 -0.4999970469 0.0078102813 0.5155941758
0.2409089766 0.3671875000 0.2185227852 -0.5021681875 0.0048407422 0.5108674805
-0.1170443906 0.3437500000 -0.3071528711 -0.5001973516 0.0073710078 0.5133237930
0.3204118047 0.1722060156 -0.0234374414 -0.4956092031 0.0003774297 0.5098031992
-0.2127767812 0.5859375000 -0.0761406992 -0.5001108594 0.0078090625 0.5155897539
-0.3522144844 0.0859261484 0.3273941289 -0.5006681406 -0.0007570547 0.5081498945
0.3411828281 0.3947681484 0.1064748164 -0.4922954297 0.0002895703 0.5166972695
-0.4218750000 0.5423986875 0.1717328398 -0.5066264141 0.0018025078 0.5159158945
-0.3179140703 0.1303434844 -0.0046472539 -0.5072347969 0.0006286641 0.5173452305
-0.3451406641 0.3671875000 0.2848170117 -0.4947485234 0.0045532500 0.5133993086
0.4536509531 0.0655788359 -0.2299752852 -0.4928195781 0.0007048672 0.5170716367
0.0840072656 0.5859375000 -0.2562502617 -0.4999938516 0.0078102734 0.5154926055
-0.1765113437 0.5703125000 0.0991546523 -0.5000570313 -0.0078099141 0.5157006367
-0.2751425937 0.5703125000 -0.1428428320 -0.5002918516 -0.0078025312 0.5155420430
-0.0621585859 0.5859375000 0.0831308633 -0.5000043125 0.0078102734 0.5156857852
0.2400425078 0.1388593438 -0.2576162227 -0.4999057500 -0.0010275703 0.5078831758
-0.1852520703 0.2610183984 0.3086960898 -0.5077716094 -0.0007965703 0.5156250586
-0.2655829453 0.2023446250 -0.2659373320 -0.5003169141 -0.0009296172 0.5233711445
0.4880921875 0.3915744141 -0.3533057617 -0.4936100703 0.0034641250 0.5133229961
-0.0042821172 0.5703125000 0.2603142227 -0.5000000156 -0.0078096797 0.5158005508
0.0078125000 0.5503890547 0.0056624414 -0.4921875000 0.0000000000 0.5156250586
-0.3654263281 0.0503946797 0.3468311992 -0.5013909531 0.0003976328 0.5228996133
0.0783727187 0.3437500000 0.2395780039 -0.5012172891 0.0072158281 0.5171266992
0.4921875000 0.5357666641 -0.2459297773 -0.5070872500 0.0009792812 0.5162972539
0.2741258125 0.5508680312 0.2397991133 -0.5056876016 0.0006951719 0.5103802695
0.2377055859 0.3671875000 0.1777229883 -0.5012446563 0.0060613281 0.5121390508
-0.0852593203 0.5703125625 -0.1596143242 -0.5000043047 -0.0078107813 0.5156023398
-0.2738864688 0.3515625000 0.1236913164 -0.5008269687 0.0074383281 0.5142935195
-0.1049417578 0.5703125000 -0.2180756914 -0.5000052578 -0.0078107734 0.5155810820
-0.0642640625 0.5859375625 0.1371783008 -0.5000048984 0.0078102734 0.5157164805
-0.3551206172 0.3515625000 0.1835963711 -0.5020742812 0.0074073594 0.5157988086
0.4161891953 0.3671875000 -0.2118892070 -0.5028747734 0.0064259844 0.5182354727
0.3160073125 0.4079573437 -0.5006149414 -0.5017299375 0.0005043828 0.5232216680
-0.1982309219 0.5859375000 0.1532529570 -0.5001002109 0.0078091250 0.5157384258
0.0262211562 0.5859375000 0.2411025195 -0.5000012109 0.0078102813 0.5157751992
-0.2242307344 0.5859375000 0.1836791602 -0.5001672812 0.0078073516 0.5157526055
-0.0585810547 0.1053545391 -0.2999960820 -0.4934202891 0.0007586172 0.5127431680
-0.2903316641 0.3394635313 0.2603508789 -0.5050636406 -0.0024108281 0.5114404570
0.3458901641 0.3437500000 -0.2253119336 -0.4994913125 0.0071715234 0.5179448633
0.2001952500 0.3671875000 0.2648634570 -0.5016217656 0.0045787344 0.5099940586
-0.1171875000 0.3596456641 0.3955831992 -0.4994654453 0.0076840937 0.5148183477
0.2763005469 0.5859375000 0.0387475508 -0.4997493906 0.0078045234 0.5157270898
-0.1566271797 0.3515625000 0.2237775898 -0.4999706250 0.0077345859 0.5156538633
-0.3437500000 0.4958731797 -0.0742191680 -0.4946622344 0.0030458594 0.5158104414
-0.3415683203 0.4424970781 -0.1847780352 -0.5074276250 0.0005131953 0.5133462539
0.4202449297 0.3076389453 -0.2587962148 -0.4949292578 0.0044375469 0.5192478242
-0.0276174844 0.5703125000 -0.2493894727 -0.5000017891 -0.0078102734 0.5154949102
-0.3141076563 0.3515625000 0.2429747539 -0.5016250469 0.0074741172 0.5157688633
-0.2200257500 0.5703125000 -0.0791799414 -0.5001143437 -0.0078090625 0.5156132461
0.0143797969 0.0198988203 -0.3425413398 -0.4955036719 0.0004464375 0.5096895352
-0.3619128047 0.4580009844 0.3235171992 -0.5054368359 0.0020002891 0.5205728086
-0.1153396406 0.3184205313 -0.1369292773 -0.4931275547 0.0000000000 0.5119325820
-0.0601728594 0.0086723672 -0.0712760117 -0.4979903359 0.0006981953 0.5229289727
-0.3280014219 0.2120496797 0.3277911523 -0.4944345391 -0.0000672734 0.5210206914
0.0475252891 0.5859375000 0.2302861836 -0.5000000313 0.0078102813 0.5157689961
-0.2394772187 0.3437500000 -0.2701355820 -0.5026089844 0.0043601406 0.5108799961
-0.2590275703 0.5872573281 -0.2971231367 -0.5046093984 0.0002294844 0.5094176758
-0.2278095156 0.5859375000 -0.0326564883 -0.5001685469 0.0078070078 0.5155951914
-0.2061677578 0.3671875312 0.3751682617 -0.4977626250 0.0051957969 0.5122963555
0.2081786406 0.3437500000 -0.4257632539 -0.5005556875 0.0077584609 0.5156255586
-0.3484002344 0.2460477344 0.3226100195 -0.5071020703 0.0006471406 0.5137061758
-0.3005599844 0.1669560781 -0.0078124414 -0.4961173359 -0.0004975703 0.5212771289
-0.1195130625 0.3437500000 -0.1165829883 -0.5000483828 0.0076951094 0.5153885820
-0.3415405313 0.5652422891 -0.1326537773 -0.4923258125 0.0002140391 0.5169938320
0.1953125000 0.3606508984 -0.4933844258 -0.5009749062 0.0074406172 0.5167678711
-0.3073400547 0.5841575234 0.1664973789 -0.5014975703 0.0058532266 0.5160529180
-0.0520151250 0.5859375000 0.2728075977 -0.5000054766 0.0078102734 0.5157934570
-0.1738485078 0.3036287422 0.3096181445 -0.4937680547 0.0027827734 0.5184740273
-0.1611905078 0.1851878750 0.1533889727 -0.5000000000 -0.0009487344 0.5233794883
-0.1392468516 0.4982534922 0.3984375586 -0.4998056484 0.0032901016 0.5104920977
0.1753903047 0.5859375000 0.1938058398 -0.4999559922 0.0078100391 0.5157535352
0.3298152656 0.1284404531 -0.0156249414 -0.4983294531 -0.0000056406 0.5088513867
-0.0013362188 0.2575586172 0.2923730586 -0.5040937578 -0.0007055547 0.5090989727
0.0390624375 0.4310807266 0.3162008477 -0.5010464844 0.0004489531 0.5156954492
0.2420133984 0.1748251641 -0.2459874727 -0.5000000000 0.0007570234 0.5234003242
0.4007424141 0.3437500000 -0.2599700117 -0.4983970469 0.0074340703 0.5157664180
-0.2730402813 0.3983317578 -0.2815147617 -0.4948943672 0.0016687891 0.5212620586
0.1795622734 0.5703125000 0.0664826914 -0.4999402578 -0.0078089375 0.5157384648
0.2733390937 0.3976341484 0.2407431289 -0.5056063594 0.0015750078 0.5104874336
0.2519316641 0.2443957344 -0.4103449023 -0.5000000000 -0.0008189922 0.5233944883
0.2404589062 0.5859375000 0.0250814258 -0.4998428984 0.0078072266 0.5156793555
-0.1017277812 0.5859375000 0.1218238477 -0.5000066719 0.0078102734 0.5157078789
0.2121946250 0.3671875000 0.2317004805 -0.5013598672 0.0051451563 0.5107283945
0.2641590859 0.3437500000 0.0854327930 -0.4999499063 0.0076778125 0.5156063867
0.1991278516 0.5859375000 0.1290492383 -0.4999302656 0.0078097266 0.5157229102
0.3369148984 0.3671875000 -0.3303878320 -0.5013204453 0.0075686328 0.5160837305
0.3036689766 0.3437500000 -0.4716210977 -0.4981022969 0.0058468984 0.5136769102
0.0137413125 0.4951535156 0.2751200898 -0.4947824844 0.0020610937 0.5209817148
-0.0083173516 0.5703125000 -0.2200397852 -0.5000008672 -0.0078100313 0.5154967930
0.2350118125 0.1951414063 -0.2497404258 -0.5062107266 0.0010924375 0.5200483477
-0.4218750000 0.4535190469 0.1092348711 -0.5077700391 0.0001086016 0.5149120117
0.0678794375 0.5703125000 0.0532993086 -0.4999971953 -0.0078106016 0.5156114570
-0.3453785000 0.5629662266 -0.1666594727 -0.5076628047 0.0002571484 0.5141953633
-0.0444967187 0.5703125000 -0.3408498789 -0.5000026016 -0.0078098437 0.5154484648
0.3918257969 0.3437500000 -0.3197497773 -0.4983944531 0.0074473672 0.5154829492
-0.1395645703 0.3437500000 -0.1171438711 -0.5000488203 0.0076937500 0.5153892070
-0.1333290078 0.5703125000 -0.1417493242 -0.5000303672 -0.0078095469 0.5156005664
0.2611041641 0.2330321797 -0.4263957148 -0.4943578281 -0.0001368203 0.5102236680
0.1319267734 0.3437500312 0.1519562852 -0.4998961563 0.0075764844 0.5164392852
-0.0776352266 0.2768422344 -0.2804626836 -0.4922503516 0.0009880703 0.5156250586
0.1992265000 0.3671875000 -0.2605326211 -0.5045938359 0.0052040000 0.5156956367
-0.1325701172 0.5859375000 0.0892968477 -0.5000242031 0.0078101719 0.5156881133
-0.2571083125 0.5703124375 -0.1255820430 -0.5001969531 -0.0078066484 0.5156207930
-0.2939915547 0.4272718437 -0.0134018633 -0.5073315000 0.0008417656 0.5169131602
0.0785599922 0.5703125000 0.0006300820 -0.4999966875 -0.0078097969 0.5155655742
-0.2445485000 0.3613944922 -0.3074652539 -0.5041088750 0.0030635234 0.5098229492
-0.4023415938 0.4196701953 0.2617238164 -0.5063042344 0.0029525000 0.5185502070
0.2095406094 0.5859375000 -0.3126651680 -0.4998966641 0.0078090703 0.5154296523
-0.1725298750 0.4550104141 0.3984375586 -0.4997286875 0.0002289844 0.5079499492
0.2541612422 0.5703125000 -0.2122375352 -0.4998108438 -0.0078062422 0.5154314258
0.2875919922 0.3437500000 0.1119544492 -0.4992617031 0.0065396875 0.5170877695
0.1710374375 0.5475400703 0.3098844570 -0.4980537656 0.0010209766 0.5229372539
0.2464944141 0.3437500000 -0.3975000430 -0.5001021719 0.0076937813 0.5155966680
0.3054009688 0.5011911406 0.2130636836 -0.4934811953 0.0006506797 0.5197602070
0.2355903359 0.3437499688 -0.2988440430 -0.5001860156 0.0077161406 0.5156198945
-0.0560319453 0.0824125937 -0.2988956602 -0.4925389063 0.0007447109 0.5148666211
-0.4218750000 0.4142626797 0.1697990586 -0.5041887500 0.0052853516 0.5158422148
-0.2743739766 0.5859375000 -0.0831987305 -0.5002839844 0.0078039375 0.5155349648
0.2929190391 0.3437500000 -0.4360843945 -0.4995306094 0.0075665781 0.5155249180
0.2748210469 0.5859374375 -0.0285135508 -0.4997705391 0.0078055781 0.5156710977
0.2515378594 0.3879703594 -0.5078124414 -0.5004241875 0.0014641172 0.5223301289
-0.0826164219 0.3437500000 -0.0900175586 -0.4998213437 0.0077245625 0.5158511133
0.0472988516 0.0050862656 0.2765569648 -0.5062664297 0.0007021328 0.5200483789
-0.2825073281 0.3671875000 0.3672660586 -0.4966972969 0.0019872344 0.5094286914
-0.2340262813 0.5859375000 -0.1485263711 -0.5001897500 0.0078059766 0.5154980977
-0.2539327266 0.5038797891 -0.0147351055 -0.4939977734 -0.0048277031 0.5160262305
-0.1461189375 0.3671875000 0.2447746367 -0.4995942344 0.0077084844 0.5150414414
