-0.0941894258 0.6355931772 0.1838906401 -0.5000037966 0.0084721689 0.5000852881
0.1020210016 0.6355931772 0.1585807011 -0.4999839407 0.0084721181 0.5000727034
0.4999999322 0.5620087670 -0.2059688759 -0.4915549836 0.0001038983 0.5003113305
-0.4228965561 0.3782401354 -0.0744547407 -0.5084083638 0.0003141610 0.4991545763
0.1741741153 0.3983050577 0.2084006130 -0.5007988813 0.0082204910 0.4986897713
-0.3700321020 0.3813559063 0.1743628526 -0.5025686693 0.0079965079 0.5002182966
0.2216941206 0.3728813307 0.2784234811 -0.4979043900 0.0056423132 0.5038293048
0.2050752997 0.3983050577 -0.4387717499 -0.5008093644 0.0082696266 0.5013613728
0.2790291506 0.4717626714 0.0508474542 -0.4968095172 0.0003753474 0.5070799741
-0.0187543123 0.6355931772 -0.0000735169 -0.4999985678 0.0084721689 0.4999806017
-0.2248416712 0.6186440259 -0.2043033421 -0.5000615339 -0.0084716350 0.4998665593
0.2705971172 0.6186440259 -0.1556302606 -0.4995325509 -0.0084553215 0.4997763644
0.2937046072 0.3728813307 -0.2175199683 -0.4995040763 0.0082332367 0.5002861779
0.3220338426 0.5625442500 0.1068639165 -0.4915370768 0.0002644746 0.4997133475
0.2413447887 0.0160842192 0.1258282372 -0.5057634827 -0.0016117118 0.5059676013
0.4698231546 0.5804614945 -0.3359491128 -0.5074155758 0.0011922965 0.5034651438
0.0040289997 0.6186440259 0.1172728734 -0.4999981864 -0.0084732028 0.5000082288
-0.3634770686 0.3096887078 0.0423728785 -0.4996038221 -0.0000466102 0.4916985599
-0.1059869928 0.6355931095 -0.1826473012 -0.5000011695 0.0084721689 0.4998772034
0.0775581219 0.3983050577 0.2770576761 -0.5001786864 0.0082018469 0.4983591527
0.3818758385 0.3983050577 -0.2987179289 -0.5019113389 0.0081432283 0.5004596525
0.0128371940 0.6186440259 -0.1559037606 -0.4999977881 -0.0084702791 0.4998139492
0.0249915661 0.3983050577 0.0853665196 -0.5002475085 0.0084040333 0.4989493814
-0.0508474542 0.1159470176 0.4037236675 -0.5084526435 -0.0003706440 0.5003706101
-0.2768945067 0.6067501877 -0.2965851240 -0.5033711777 0.0008823135 0.4925050937
-0.3007576661 0.3983050577 0.1081025011 -0.4977281442 0.0075139825 0.4980701866
0.2273175015 0.3983050577 -0.3106114450 -0.5006752627 0.0083370503 0.5005317627
0.3381549432 0.3983050577 -0.2373915687 -0.5015328389 0.0081708554 0.5000628729
0.0315931250 0.1317961182 0.3352670959 -0.4919483734 -0.0011036948 0.4991554407
0.2417066701 0.5536897591 -0.4909731023 -0.5009138050 0.0001650593 0.5084152791
-0.0245329305 0.6186440259 -0.0510277169 -0.4999994746 -0.0084723130 0.4999196271
0.0286506675 0.3983050577 0.1283839489 -0.5003746101 0.0083524147 0.4987797289
-0.1854242417 0.6186440259 0.2533803727 -0.5000195932 -0.0084697367 0.5002017457
-0.3370050619 0.5174304141 0.3298878336 -0.5058658301 0.0018971609 0.5054846352
0.0544557336 0.3264458931 0.1342390248 -0.5025549998 0.0031948472 0.4930379242
-0.4237288187 0.5130558635 -0.0299840064 -0.5084624316 0.0001691102 0.5000007119
0.3101716908 0.6186440259 -0.0469485138 -0.4948024410 -0.0053669912 0.4998757288
0.0038052879 0.6186440259 -0.0845874773 -0.4999981949 -0.0084712198 0.4998708305
-0.2851665908 0.3941036851 -0.2809334216 -0.4968445680 0.0039389913 0.5067810419
0.3453982817 0.6287915760 -0.4742481712 -0.4966874748 0.0002738559 0.4922674243
-0.1499351170 0.6355931772 0.1511966169 -0.5000061864 0.0084721604 0.5000668898
0.2168449938 0.6186440259 0.1215630765 -0.4998299068 -0.0084701011 0.5000090847
-0.0457400308 0.2853868620 -0.2858680908 -0.5000000000 0.0008652372 0.4915697040
-0.1552685488 0.5300644980 -0.3135593008 -0.4994971865 0.0032119659 0.5061613470
0.0834330113 0.4541944438 0.4045458624 -0.5006501864 0.0053933047 0.4949484410
0.0045953810 0.3791349404 0.1055740352 -0.5009348474 0.0083770418 0.4991848899
0.2036815709 0.3728813307 -0.4527978761 -0.5004228220 0.0083854655 0.4999736441
-0.2820556249 0.6355931772 0.2002539102 -0.5001373559 0.0084704571 0.5001135169
-0.3613903145 0.6186440259 0.2457168732 -0.5005747711 -0.0084487621 0.5002755678
0.2014171304 0.6186440259 0.1329833130 -0.4998544153 -0.0084701689 0.4999981610
-0.1298406861 0.6032795862 -0.3220338765 -0.4996286695 0.0001022034 0.4915620684
-0.2317346792 0.6355931772 0.2534836438 -0.5000531186 0.0084717876 0.5001331186
-0.3817552029 0.2356665857 0.0362810992 -0.5071188131 0.0005175593 0.4956287461
0.3074483775 0.5388254974 0.2014293846 -0.5082502622 0.0003751610 0.4982003561
0.0625417924 0.6186440259 -0.0941116123 -0.4999955508 -0.0084695503 0.4998106102
-0.0477830900 0.6355931772 -0.0276512863 -0.4999997203 0.0084721689 0.4999650339
0.3296611641 0.6443995665 -0.4809925606 -0.4972953646 0.0002544830 0.4920494666
0.1864072077 0.6203164834 -0.4999999661 -0.5006002372 0.0004974830 0.4915620175
-0.3323167317 0.6525422608 0.3289380879 -0.4954353139 0.0003077881 0.4952827715
-0.1030840439 0.6071807300 0.4152542091 -0.4997240848 0.0003769322 0.5084605249
-0.1328410418 0.6355931772 -0.0694758512 -0.5000034492 0.0084721689 0.4999415424
-0.4237288187 0.4911340260 -0.0674382158 -0.5084511265 0.0002269407 0.4994299577
0.2410183396 0.3342902400 -0.2325437978 -0.4956295935 0.0005081695 0.5064117708
0.4429451903 0.4031676337 -0.4006690067 -0.4941747038 0.0031714320 0.4949258648
-0.1497087865 0.3583894249 0.1465250324 -0.4984989238 0.0052327285 0.4943442546
0.2100998332 0.0603902840 -0.1938539106 -0.4915997633 -0.0011153643 0.4999999661
-0.0084746096 0.3959415918 0.3992272017 -0.5025695422 0.0067865843 0.4959759240
-0.3404013244 0.1436607784 0.3264312067 -0.5083970503 0.0010974491 0.4998962797
-0.4181398530 0.5472215222 -0.1125083483 -0.5083291689 0.0002942966 0.4985707967
-0.0899589600 0.3983050577 0.3630681364 -0.4994821780 0.0082635333 0.4984063645
0.0273554134 0.6186440259 0.3149179109 -0.4999969576 -0.0084731265 0.5001162542
-0.2590775757 0.3898304820 -0.0558767081 -0.4992232373 0.0082926520 0.5007350593
-0.1844836316 0.6355931772 -0.1456517952 -0.5000161017 0.0084721096 0.4998963644
-0.1484805238 0.2685275750 -0.2451463986 -0.5073328554 -0.0005231271 0.4973155087
-0.2975063442 0.6355931772 0.0302217437 -0.5001859068 0.0084686096 0.4999759322
-0.0080622367 0.6355931095 0.1187546869 -0.4999990932 0.0084721774 0.5000480424
0.2090202146 0.2613097535 -0.2231458069 -0.5082094571 0.0008917965 0.5009082457
-0.1974894866 0.3684126360 0.2347138909 -0.4940085767 -0.0000323814 0.4940085428
0.3159415803 0.0693966309 0.0529295642 -0.4915687887 0.0008479999 0.5000406525
0.2308876708 0.5549694878 0.3513788999 -0.4943343309 0.0012981694 0.5058887199
0.3495808068 0.6487941594 -0.4639810787 -0.5042175845 0.0003163135 0.5072643893
0.0909698243 0.6355931095 -0.2568133555 -0.4999870085 0.0084721265 0.4998350932
0.3960546087 0.3497080780 -0.3820809571 -0.4937313394 0.0051922708 0.4991024323
0.3187561140 0.4625702907 -0.4771915693 -0.5025014575 0.0007408644 0.5079897622
-0.4042758624 0.3813559063 0.1201039919 -0.5030832456 0.0063535335 0.4987417967
0.2665334904 0.6355931772 0.1124099415 -0.4996267373 0.0084619571 0.5001152881
0.1984407662 0.3728813307 0.1177845852 -0.4999752203 0.0083844147 0.4996234831
-0.1508736932 0.6355931772 0.2157621379 -0.5000067966 0.0084721604 0.5001035593
0.4466639358 0.5346634044 -0.3775624151 -0.5066340673 0.0014327287 0.5048307963
0.4772442982 0.5286056337 -0.3186331055 -0.5074337283 0.0021297371 0.5026409151
0.2940199970 0.3728813307 -0.1725210985 -0.4999814831 0.0077498469 0.5031309150
0.2186016292 0.3983050577 0.2992781068 -0.5030373049 0.0049477370 0.4948429410
0.2508164915 0.6186440259 -0.1423958463 -0.4997256271 -0.0084661350 0.4998587203
0.1926034361 0.3983050577 -0.3313422572 -0.5004421949 0.0083669655 0.5006649661
0.4252495898 0.1388554736 -0.1894829194 -0.4967889155 0.0004459830 0.5032110506
-0.2645410583 0.3682516445 0.1676623361 -0.4940075682 0.0000000000 0.4940075343
0.3061842250 0.4785254167 0.2115423416 -0.5082450757 0.0004697203 0.4981572120
-0.3039175726 0.3189253852 0.3174203259 -0.4957552291 0.0015017541 0.5048725336
0.3188513513 0.4098330061 0.1780023608 -0.4916761446 0.0003655508 0.5013002541
0.0046479149 0.4752334339 0.4152542091 -0.5006662372 0.0001246441 0.5084345164
-0.1364996518 0.1648814210 0.3253084356 -0.5083597028 -0.0008118474 0.5010985169
0.1943201817 0.3983050577 0.3066233775 -0.5021906524 0.0053976861 0.4948547970
-0.3136712499 0.6186440259 0.1091807977 -0.5001978390 -0.0084679486 0.5001141441
0.0436040903 0.5904159176 0.4067796334 -0.5006847203 0.0012176101 0.4924211870
-0.2987771238 0.3447803665 -0.2166748582 -0.4932692293 -0.0044586692 0.4976780680
0.1174354158 0.3622145687 0.2021811727 -0.4946256699 -0.0037777116 0.4951936952
0.4288454879 0.3983050577 -0.3241627323 -0.5047369827 0.0061436606 0.5012801016
0.4402610041 0.5734467832 -0.3852461179 -0.5065287623 0.0008736949 0.5052264064
-0.3613975094 0.4886037889 0.2841749129 -0.4931136530 0.0023874829 0.4960930426
0.0739615713 0.6355931095 0.3474481290 -0.4999971356 0.0084721774 0.5001776525
-0.1409373803 0.6186440259 -0.0350846078 -0.5000043220 -0.0084722282 0.5000240085
-0.1735963526 0.6355400332 0.4122464975 -0.5011107457 0.0002027034 0.5083564486
0.0596598858 0.3983050916 0.3660379243 -0.5002632966 0.0080758384 0.4975307968
-0.3485845865 0.1453071596 0.1174037971 -0.5059839064 0.0000608644 0.5059504487
0.4652999007 0.3983050577 -0.2768834473 -0.5034046862 0.0073530165 0.5005585339
-0.4152542430 0.5616247162 -0.0408535905 -0.4928589327 0.0016906863 0.5001555763
-0.3754063474 0.6186440259 0.0441814038 -0.5007154322 -0.0084369486 0.4999850424
0.4364534789 0.3728813307 -0.2172118243 -0.4981990764 0.0078050588 0.5011965931
0.2224625527 0.3728813307 0.2508930254 -0.4988446357 0.0064131606 0.5031249150
0.0690276224 0.6186440259 -0.1543878963 -0.4999952542 -0.0084687791 0.4997635848
0.2534898811 0.1161411701 0.3425711378 -0.4933370513 0.0008810593 0.5049628810
0.2692195580 0.6186440259 -0.2041814607 -0.4995319068 -0.0084551011 0.4997219407
-0.1072458148 0.6330531689 -0.3220338765 -0.5000005847 0.0059337030 0.4997737034
0.2833962011 0.3728812968 -0.4300217420 -0.4980699408 0.0069200504 0.4990682289
0.1512241253 0.6355931772 0.0630671567 -0.4999329746 0.0084717028 0.5000174153
-0.3763559321 0.3735594069 0.0481270900 -0.5084245842 0.0009019406 0.4999999661
0.2228592222 0.1361052365 0.1337668723 -0.5003004152 -0.0010211694 0.5083429910
0.4915254243 0.6445072868 -0.2093188248 -0.5048879234 0.0052535674 0.5018733050
-0.2838863452 0.3898304820 -0.1651443108 -0.4990201272 0.0080522622 0.5017824490
0.2186237394 0.3983050577 0.0943965529 -0.5010813982 0.0083374571 0.4995175509
0.1768356745 0.6355931772 0.0571933012 -0.4998997373 0.0084712282 0.5000188051
0.4689042055 0.4849671536 -0.3654078227 -0.4930687547 0.0024168049 0.4962139833
-0.3735088476 0.6355931772 -0.0609358433 -0.5006952881 0.0084368130 0.4999063051
-0.1012799847 0.6355931772 0.0758103762 -0.5000031949 0.0084721689 0.5000239407
-0.0345947773 0.4640244940 0.3596363485 -0.5000000000 -0.0009023898 0.4915737972
0.0451835647 0.6355931772 -0.2279344168 -0.4999935169 0.0084721604 0.4998510339
-0.2213354172 0.3728813307 -0.0271777778 -0.5000104068 0.0084014825 0.5001034830
0.2094263163 0.2068708589 -0.2250793407 -0.5084149994 0.0008862542 0.4996604153
-0.0501894542 0.5881356296 -0.1813554792 -0.5012613897 -0.0075279825 0.5033618472
0.1229033645 0.6186440259 0.1315551267 -0.4999612881 -0.0084720757 0.5000689407
-0.2228140612 0.5841649858 -0.3059418013 -0.4977671442 0.0012591609 0.5078026859
-0.1797393098 0.3689718818 -0.0881933415 -0.4977745764 0.0077759740 0.5020478982
0.1947019699 0.3983050577 -0.3094236485 -0.5004052966 0.0083807367 0.5005230254
-0.1293425421 0.3728812968 -0.0099175332 -0.4996316865 0.0084306943 0.5004257118
0.2469567883 0.6195050512 0.3373112992 -0.4937763733 0.0004636525 0.5056454149
-0.0433778615 0.5801982149 0.3337469519 -0.5003349746 0.0061568809 0.5056857200
0.2488755170 0.5299214132 0.0435628699 -0.5079887791 -0.0022973558 0.4990210594
0.2652868634 0.3983050577 -0.2438111869 -0.5008213135 0.0083375842 0.5001001949
0.3113239196 0.4877230093 0.1704248868 -0.5083893638 0.0002529491 0.4989731611
0.1955915037 0.3983050577 0.2664591684 -0.5013828050 0.0068282961 0.4965504324
-0.3102395468 0.6186440259 -0.1247405932 -0.5001473135 -0.0084711265 0.4999280000
0.0894844855 0.3983050577 0.1054799251 -0.5002496695 0.0084186520 0.4997371102
0.1236447035 0.6186440259 -0.2871175653 -0.4999718644 -0.0084711011 0.4997892797
-0.3880888211 0.4468237324 0.2244029170 -0.4928793564 0.0037580930 0.4981655679
0.2540265252 0.3728813307 -0.4658526718 -0.4987883475 0.0068447961 0.4982949323
-0.2712974731 0.6355931772 -0.1731314459 -0.5000951017 0.0084713130 0.4998610424
-0.2684144988 0.6355931772 -0.0353127434 -0.5000944068 0.0084712791 0.4999471610
-0.3885598974 0.1799283946 0.0593220299 -0.5000986525 -0.0004265678 0.5084531774
-0.3983050916 0.5032244235 0.1003941966 -0.4936633733 0.0032571862 0.4990744068
0.2510220254 0.3728813307 -0.4215063019 -0.4998887458 0.0083157028 0.4999372034
0.3696251614 0.3681936191 -0.3737821780 -0.4988823984 0.0072664063 0.4963417799
-0.1775708863 0.3728813307 -0.0014707880 -0.4999856610 0.0084450079 0.5003627966
-0.1392656007 0.2535986523 -0.2340225435 -0.5038091608 -0.0012724745 0.5074326436
0.0268550745 0.6355931772 -0.1422307192 -0.4999951441 0.0084721604 0.4998997458
0.2191633580 0.1858171908 0.1282942371 -0.5059919742 0.0000650593 0.4940079919
0.0064132792 0.3728813307 0.2070204097 -0.5023048134 0.0079107452 0.5005053474
0.2425450005 0.2577724402 0.3206706054 -0.4919127463 0.0010694406 0.5013790508
-0.1105869671 0.0885029093 0.3317037487 -0.4922194582 0.0007435508 0.5027740507
0.0654311990 0.6355931772 -0.2220628239 -0.4999925932 0.0084721520 0.4998543051
-0.3220913595 0.3813559402 0.1401497363 -0.5020214321 0.0080725079 0.5001043475
0.1277736269 0.3634831448 0.2281585184 -0.5058547199 -0.0003733559 0.4939839072
0.2149410109 0.3983050577 -0.1893940804 -0.5012055762 0.0083174147 0.5008918220
-0.0748251220 0.6186440259 0.3102534112 -0.5000010085 -0.0084712452 0.5001889152
-0.1334047113 0.2938626326 0.3038268608 -0.4916008057 0.0008682372 0.4995500170
0.2524179490 0.3862856603 0.3296656302 -0.4940324241 0.0029254320 0.5051384149
-0.0115411772 0.6186440259 0.1909241989 -0.4999987458 -0.0084731943 0.5000682542
0.3724795256 0.4400778685 -0.4603353925 -0.4954728817 0.0011598813 0.4929752039
-0.3082387842 0.3983050238 0.1291379658 -0.4982662967 0.0078891690 0.4986178560
-0.0195344478 0.6186440259 0.1024255524 -0.4999992373 -0.0084736181 0.5000193729
-0.3628225093 0.4339172587 -0.2188741886 -0.4934099327 0.0015591355 0.5048612793
0.1923613005 0.3983050577 0.1703011664 -0.5009147711 0.0082571096 0.4989583984
0.2790720743 0.6186440259 0.0034766777 -0.4994948475 -0.0084538130 0.4999391102
0.1148795007 0.6355931772 0.0943443072 -0.4999751695 0.0084720757 0.5000379576
-0.3148308261 0.2217405443 0.1173725683 -0.4940075682 0.0000000000 0.4940075343
0.2068396894 0.4833043316 0.3583105605 -0.5046217539 0.0020430507 0.4934326445
-0.1335961859 0.1043650522 -0.0234266679 -0.5043501014 0.0002198983 0.5071656266
-0.4159095057 0.5525915812 -0.1303510420 -0.5082281435 0.0004169152 0.4980902035
0.0751965034 0.6201021444 -0.3220339443 -0.4999946864 -0.0070094487 0.4996489407
0.1185531191 0.6186440259 0.2730832188 -0.4999587203 -0.0084716011 0.5001493135
-0.2391403482 0.3898304820 -0.0850363163 -0.4993690000 0.0082709655 0.5009420254
-0.3982828628 0.6173450853 -0.1751931322 -0.5076807961 0.0003848135 0.4966031443
-0.2849236332 0.6355931772 -0.2262496118 -0.5001115678 0.0084710926 0.4998255254
-0.0460580731 0.6355931095 -0.0053300081 -0.4999998390 0.0084721774 0.4999777034
-0.0353774976 0.6355931772 -0.3120661992 -0.4999966525 0.0084721604 0.4998035000
0.3081665808 0.3559321793 -0.3132955042 -0.5000000000 -0.0084745757 0.4999999661
0.0302429471 0.6186439581 0.1672199887 -0.4999970000 -0.0084729910 0.5000182966
-0.2575702029 0.5681271564 -0.2927604717 -0.4969278477 0.0013753304 0.5075542198
-0.1540184896 0.6355932450 -0.1279109913 -0.5000039576 0.0084721689 0.4999084237
-0.0338983028 0.2788233201 -0.2702877698 -0.4915254243 0.0000000000 0.4999999661
-0.2297735268 0.6355931772 0.2207112223 -0.5000509322 0.0084718215 0.5001143390
0.4357840976 0.0440446326 -0.1743983102 -0.5000091441 -0.0000002542 0.5000091102
-0.1604307349 0.6355931772 0.2731282357 -0.5000077542 0.0084721520 0.5001361610
-0.1125931788 0.6355931772 0.1878936737 -0.5000047119 0.0084721604 0.5000876186
-0.1814962674 0.3898304820 0.0056412878 -0.4997887458 0.0084449571 0.5000771949
-0.0604263857 0.6355931772 -0.1681734378 -0.4999991102 0.0084721689 0.4998852797
-0.3688049072 0.6355931772 0.1902880803 -0.5006291610 0.0084423045 0.5002293898
0.0860034094 0.3625894754 0.2953524630 -0.4944012885 0.0010959321 0.5059802369
-0.1210780342 0.6186440259 0.1111871365 -0.5000032373 -0.0084716604 0.5000998813
0.3641642634 0.3728813307 -0.2158414430 -0.4985691865 0.0081233639 0.5004363305
0.2682640750 0.3728813307 -0.3744118644 -0.4996753136 0.0082919571 0.4999239237
-0.2084430282 0.6186440259 -0.0517322084 -0.5000456186 -0.0084708469 0.4999833644
-0.3962119308 0.6186440259 0.1596518621 -0.5060028979 -0.0051652963 0.5001675085
-0.1384607957 0.6186440259 -0.1607720823 -0.5000044746 -0.0084730842 0.4999443644
0.2249001458 0.2316668572 0.3217168341 -0.5000000000 -0.0011200508 0.4915997718
-0.0459667426 0.6186440259 -0.1889764702 -0.5000004492 -0.0084715333 0.4998451949
0.2396330261 0.3728813307 0.3316525368 -0.4949121529 0.0037231269 0.5050988980
-0.3157264362 0.6355931772 0.0200938800 -0.5002631779 0.0084657621 0.4999299407
0.4639322313 0.4397078431 -0.3496947644 -0.5069469995 0.0031401354 0.5033547964
0.4121338788 0.1806249030 -0.2036627913 -0.5084050927 -0.0010751355 0.4999999661
-0.1446372444 0.4686570614 0.4067796334 -0.4996592882 0.0004434830 0.4918118480
0.0406597854 0.6186440259 -0.1767118270 -0.4999965339 -0.0084693215 0.4997743136
0.2332150859 0.4047926929 0.3394710024 -0.5053543132 0.0023201863 0.4939811021
-0.1589190824 0.6355931772 -0.1572425826 -0.5000039407 0.0084721689 0.4998917881
0.0109774060 0.6186440259 -0.2351949502 -0.4999978814 -0.0084695418 0.4997616017
-0.1426759056 0.2786469981 0.3173336056 -0.5022309066 0.0007437372 0.5077333893
-0.2656936515 0.6355931772 0.2138243075 -0.5001075000 0.0084709401 0.5001148813
0.0844017570 0.6186440259 -0.0675253090 -0.4999945593 -0.0084692282 0.4998087373
-0.0816730877 0.6186440259 0.1331230333 -0.5000016356 -0.0084722537 0.5000843220
-0.0781389015 0.6186440259 -0.0663529701 -0.5000018983 -0.0084736011 0.4999582119
-0.3596241112 0.0515186406 0.0979495527 -0.5076392876 0.0008852457 0.4967024494
0.2210450443 0.6355931772 0.2325160944 -0.4997898644 0.0084674401 0.5001820339
-0.1913056989 0.3813559063 0.3577207554 -0.5021998388 0.0065674487 0.5015780507
0.4414661904 0.4165476497 -0.3837997706 -0.5064006097 0.0027390930 0.5045886353
-0.1503906169 0.3983050577 0.3351104010 -0.4990434662 0.0082109401 0.4985984747
0.2218701799 0.3728813307 -0.2700607020 -0.5001272119 0.0083666181 0.4999596441
0.0520553863 0.6186440259 -0.3180546988 -0.4999960254 -0.0084676265 0.4996675424
0.4915253565 0.5614671484 -0.2423177039 -0.5064567792 0.0027920846 0.5005106779
0.1748107170 0.3546700946 0.1758020898 -0.5066961860 -0.0015405338 0.4953370935
0.1610380484 0.3983050577 0.1066373996 -0.5007107627 0.0083640672 0.4995556187
-0.1137579499 0.3813559063 0.3124889873 -0.4998759237 0.0083996689 0.5000221102
-0.4153709210 0.3931816005 -0.1346597112 -0.5080647367 0.0007335762 0.4975240425
0.0228518120 0.3983050577 0.3710025426 -0.5017110423 0.0073263215 0.4968229663
0.1206783562 0.4036862353 0.3992250916 -0.5014833474 0.0048818302 0.4934645259
-0.0738877747 0.6186440259 -0.1751218780 -0.5000017034 -0.0084724147 0.4998801780
0.2219053494 0.5773888507 0.3475493663 -0.5053208386 0.0008694915 0.4935762123
-0.0870861043 0.6355931772 0.2388863313 -0.5000039322 0.0084721604 0.5001164915
0.4343610892 0.3728813307 -0.3508949084 -0.4944250343 0.0048648132 0.4977334239
-0.1835200638 0.3633514415 0.2768840321 -0.5060396691 -0.0024460422 0.5051983471
-0.1430059140 0.3728813307 -0.0459568867 -0.4999022797 0.0083711604 0.4999366525
-0.0338983706 0.4275698608 -0.2692286428 -0.4915261107 0.0000000000 0.4999548475
0.1540022607 0.6136989499 0.0423728785 -0.5000000000 0.0011385847 0.4918045599
-0.2770553710 0.4680473496 0.3741841611 -0.5041685167 0.0010586270 0.5072686266
0.1346519824 0.6186440259 -0.0255654813 -0.4999554492 -0.0084720333 0.5000015593
0.2430207971 0.3728813307 -0.4826945605 -0.4988617543 0.0056784742 0.4971884832
-0.1501533966 0.6355931772 0.2421583565 -0.5000069915 0.0084721604 0.5001185424
-0.3859110840 0.2588975079 0.0516912168 -0.5078901690 0.0007431949 0.5022820507
-0.3225313425 0.2050422912 0.1244773814 -0.5000000000 -0.0010985169 0.5083997537
-0.0338983367 0.2401495007 0.3944998970 -0.4915254243 0.0000000000 0.4999999661
0.1092102129 0.6327567876 -0.3185389021 -0.4999688729 0.0056363132 0.4998025509
-0.1314157030 0.2255475356 0.3233383933 -0.4976975764 0.0011183643 0.5078686774
-0.4025918541 0.5664984785 0.1860447755 -0.5066228979 0.0027112710 0.5010356694
0.2095213587 0.3983050577 -0.3633204076 -0.5006596101 0.0083206689 0.5008726864
0.2506175423 0.1851196654 0.3288046387 -0.4921243988 0.0010133474 0.5023035168
-0.1696454631 0.3813559063 0.1529279049 -0.5005010593 0.0083139740 0.5000534407
0.3807624572 0.4245579288 -0.4439972411 -0.5046761438 0.0015795084 0.5067909148
-0.3689813818 0.5555713691 -0.2080961215 -0.4931147293 0.0009025508 0.5046164149
-0.2332111283 0.6186440259 0.1641547177 -0.5000532034 -0.0084718215 0.5000807119
0.2870777687 0.3728813307 0.2108893840 -0.4964285087 0.0050917878 0.5023488388
0.1844739282 0.4456817833 0.3858307366 -0.4960978138 0.0028497795 0.5067231267
0.1904882837 0.6186440259 0.0966124680 -0.4998717797 -0.0084703299 0.4999796525
-0.4067796673 0.5358309298 0.1362763297 -0.5074064741 0.0016257965 0.5000377034
0.2537225760 0.5942961716 0.3185686140 -0.5062630674 0.0007347203 0.4944617546
-0.0960042223 0.5799571132 -0.3220338765 -0.4989100170 0.0001724407 0.4916067209
0.2250559678 0.3728813307 0.1323026775 -0.4999643305 0.0083587113 0.4997786865
-0.0898014261 0.6186440259 0.3729487629 -0.5000014831 -0.0084705672 0.5002388051
-0.3904463634 0.4856562552 -0.1652297176 -0.4922682717 0.0009182203 0.5032783557
0.1481865916 0.6355931772 0.2451529580 -0.4999465085 0.0084718554 0.5001250678
-0.2149402397 0.3577653317 -0.1748902763 -0.5055441013 -0.0028319151 0.4944558648
0.1482748459 0.6186440259 0.2763580321 -0.4999237797 -0.0084697198 0.5002218305
0.2020393761 0.3983050577 0.0851221807 -0.5009742203 0.0083619486 0.4996334492
0.2267241541 0.2800123031 -0.2136849686 -0.4939009411 -0.0000728644 0.5058804233
0.1615854890 0.6186440259 0.3242166560 -0.4999124322 -0.0084702876 0.5002213474
-0.2287508913 0.3648758312 0.2457000088 -0.4940008479 -0.0008654491 0.5058883132
-0.3488776882 0.1366839738 -0.2559992708 -0.5000000000 0.0005515000 0.4915496616
-0.1305313386 0.1832563774 -0.0415164463 -0.4915744921 0.0009103135 0.4999999661
0.1034541625 0.6186440259 0.3287189862 -0.4999745170 -0.0084725248 0.5001386356
-0.1451322868 0.6186440259 -0.0578557673 -0.5000045339 -0.0084722960 0.5000130085
-0.3702578732 0.4680287649 -0.2058622572 -0.4930310428 0.0012335762 0.5044231861
-0.2360517721 0.4738961204 0.3879390584 -0.4970483222 0.0008727288 0.4921736446
0.4323537842 0.0000000000 -0.1813918775 -0.5083629655 -0.0010551270 0.5001063305
0.1152144837 0.6235935594 0.4093269722 -0.4986525425 0.0011152881 0.5077751605
0.2394443566 0.1432502615 0.3439946631 -0.5020190168 0.0003537966 0.5076264571
-0.0374179127 0.6186440259 -0.1610658196 -0.5000000593 -0.0084715757 0.4998563983
0.1011598491 0.3728813307 0.1153444074 -0.4999770508 0.0083923215 0.4996379322
-0.3098155637 0.5799834268 -0.2771311422 -0.5046388048 0.0009923474 0.4932046361
-0.0508474881 0.4646735448 0.3721010595 -0.5084745757 0.0000000000 0.4999999661
-0.1221321782 0.3813559063 0.3442622817 -0.4999532881 0.0083858723 0.5000317288
-0.4237288187 0.3906381006 -0.0210012613 -0.5084568299 0.0001858813 0.5000049492
0.0250576424 0.0534780303 0.1061514081 -0.4983465001 0.0003740000 0.4919305090
-0.1600047858 0.6186440259 0.0987483492 -0.5000048051 -0.0084710164 0.5001209576
-0.1234758306 0.6355931772 -0.3112294281 -0.5000008898 0.0084721689 0.4998042458
0.0939730868 0.6186440259 0.1445966682 -0.4999891610 -0.0084722621 0.4999839915
0.2965582596 0.6355931772 -0.0901720702 -0.4988597713 0.0083725842 0.4996782373
-0.3119654026 0.6355931772 -0.0885985364 -0.5002536271 0.0084658215 0.4998565254
0.0169303972 0.6355931772 0.2172678751 -0.4999987458 0.0084721774 0.5001039068
0.4168457429 0.2859855738 -0.4016990406 -0.4917161701 0.0008962711 0.4994189746
0.1273993388 0.3983050577 0.2345772129 -0.5004983813 0.0082207537 0.4985876103
-0.1119753568 0.6186440259 -0.2901396498 -0.5000034237 -0.0084723045 0.4998366102
0.3955343884 0.3744778136 -0.4438676733 -0.4951539071 0.0024491354 0.4936179157
-0.3026557676 0.3609393230 0.1406003549 -0.5000361780 0.0053624149 0.4934763564
-0.3376136636 0.1173651192 0.1147354837 -0.5000812712 -0.0010715254 0.5084054655
-0.3364376891 0.1182590259 -0.0522277931 -0.5009263050 -0.0008685762 0.4917877294
0.1694914800 0.3746737204 -0.2573152114 -0.5011655762 0.0081451689 0.4999999661
0.1310029996 0.6525423286 0.4035025659 -0.4999678305 0.0004859745 0.5018054236
-0.2710724986 0.3898304820 -0.1186571191 -0.4991363221 0.0081970503 0.5012822033
0.2684229988 0.6186440259 0.1403907447 -0.4996313899 -0.0084618893 0.5001358983
-0.1059696623 0.1179311022 0.1206348817 -0.4933226106 0.0004207627 0.5043387285
0.2346933146 0.2054603590 -0.4065595487 -0.4915736870 -0.0009028135 0.4999999661
-0.0686335801 0.6186440259 0.1583806927 -0.5000010678 -0.0084723384 0.5000903220
-0.1071443317 0.0033913811 0.3288166472 -0.5002527627 -0.0036409404 0.4965765257
0.0171182531 0.6355931772 -0.0578343605 -0.4999963475 0.0084721689 0.4999477034
0.1598016332 0.3728812968 0.2440911953 -0.4955879664 0.0047485505 0.4955879325
0.1101424247 0.5993474763 0.4007302186 -0.5018983728 0.0011033898 0.4920911107
-0.3230277662 0.3898304820 -0.1280779320 -0.4985120086 0.0073909402 0.5023878558
0.3796519319 0.3983050577 -0.3806144318 -0.5049301268 0.0054349573 0.5023104236
0.1782741405 0.6186440259 0.1938606394 -0.4999089915 -0.0084721435 0.5000941695
0.4901492210 0.5377218280 -0.3087544621 -0.4923256870 0.0020200168 0.4979247374
-0.3194061139 0.3728813646 -0.1805443098 -0.5017090168 0.0059646013 0.4962290850
-0.1317458639 0.1204048732 0.3283700710 -0.5083703045 -0.0008326016 0.5010032287
0.2797955743 0.3983050577 -0.3924707700 -0.5013068897 0.0082064910 0.5010637881
-0.2984067255 0.6355931772 0.1600573790 -0.5002001610 0.0084682028 0.5000616017
0.3179823767 0.6245142627 0.1849544875 -0.4916286870 0.0002186186 0.5011194999
-0.0402383617 0.2663168972 -0.2877750483 -0.5000000000 0.0008909152 0.4915725684
0.0682627411 0.3728813646 0.2524970931 -0.4998741780 0.0081604740 0.5012282711
-0.3221027070 0.4028958879 -0.2668918463 -0.5049319488 0.0032415422 0.4940695851
0.1915649955 0.5602527841 0.3692210936 -0.5043139319 0.0014581270 0.4930548395
0.2030275795 0.4802450691 -0.4915253904 -0.5003902203 0.0035237370 0.5056130844
0.4915253565 0.4183498699 -0.1924326480 -0.5044424743 0.0063853979 0.5014580423
-0.2606946942 0.4526540795 0.3773778049 -0.4963188223 0.0012267457 0.4925037463
0.1385886177 0.6186440259 0.2998960898 -0.4999320509 -0.0084697621 0.5002303898
0.1195008478 0.6355931772 -0.2141014177 -0.4999561441 0.0084718893 0.4998542542
-0.3255651220 0.6186440259 0.2819611334 -0.5003516271 -0.0084598299 0.5003095763
-0.4063752775 0.4843741282 0.1557774810 -0.5050394997 0.0049844149 0.5003594746
0.4744241373 0.6232111866 -0.3252135203 -0.5076506944 0.0006136779 0.5032672625
-0.0853696213 0.6355931772 -0.2178050361 -0.4999998729 0.0084721689 0.4998571780
-0.2147065024 0.3983050577 0.1352506349 -0.4964423646 0.0074156690 0.4998684068
-0.2653011261 0.6355931772 -0.0142148211 -0.5000900847 0.0084713384 0.4999599831
0.4353972586 0.5725930713 -0.4097265824 -0.4940931021 0.0012090423 0.4943337716
0.4069116250 0.3288929947 -0.3903689990 -0.4996230509 -0.0025121015 0.5079132029
-0.1243443814 0.3813559063 0.0945956292 -0.4998228136 0.0083663384 0.4991876780
-0.0438528869 0.0609988603 0.4108771840 -0.5000000000 0.0007262542 0.5084431011
0.3007691660 0.6186440259 0.0189653801 -0.4987945255 -0.0083685757 0.4999696441
-0.2741967017 0.6186440259 0.2118312907 -0.5001026271 -0.0084707367 0.5001371017
-0.1040858828 0.3819086521 0.0877875534 -0.4994980678 0.0083750588 0.4988847289
-0.1130781957 0.3983050577 0.0911201125 -0.4994273729 0.0083706435 0.4989160255
0.1210913816 0.4607125281 0.4085923621 -0.4983596272 0.0039609658 0.5064745758
0.4129964551 0.3979455408 -0.1694915139 -0.5031473472 0.0068517368 0.5030229320
-0.1155291701 0.6186440259 -0.1499761085 -0.5000035424 -0.0084734401 0.4999340932
-0.4193264970 0.4745009763 -0.1030151795 -0.5083224825 0.0003538474 0.4986308221
-0.0508474881 0.3819958724 0.3716791528 -0.5084740842 -0.0000326441 0.5000326102
-0.1521333795 0.3509085779 -0.2168880277 -0.4967997714 0.0044683980 0.4976098391
-0.3082904621 0.6186440259 -0.0666552328 -0.5001448729 -0.0084709825 0.4999670424
-0.4237288187 0.4172354632 -0.0429264632 -0.5084527537 0.0002135254 0.4997157712
0.2920875649 0.2293829336 0.0338982689 -0.4973397883 0.0001135254 0.4922555429
-0.2289530099 0.6355931772 -0.1190641953 -0.5000493475 0.0084719147 0.4999113390
-0.3527337812 0.1058953233 0.1131430686 -0.5058856013 0.0000290593 0.5060026776
-0.1633504381 0.3036105726 -0.0607553179 -0.5075564995 -0.0020889660 0.4998901356
-0.0084746096 0.3919630582 0.1426161344 -0.5042218556 0.0072853893 0.4999668814
-0.3566628572 0.6186440259 0.0559500640 -0.5004855762 -0.0084545926 0.5000405339
-0.0584752333 0.6355931772 0.2320302046 -0.5000025000 0.0084721689 0.5001125169
-0.4096203536 0.4180527428 -0.1072338487 -0.4917077040 0.0004830339 0.5015394151
-0.3930739903 0.3983050238 0.1733169459 -0.4962241867 0.0071361012 0.4994872034
-0.2560703640 0.4143519719 0.3846766688 -0.5038377625 0.0011219830 0.5074288131
-0.0600839027 0.6186440259 -0.2449647122 -0.5000010847 -0.0084713554 0.4998199407
-0.3136772330 0.2681115327 0.1185261954 -0.4940075682 0.0000000000 0.4940075343
-0.1683026581 0.6355931772 0.3080466401 -0.5000084322 0.0084721520 0.5001560085
0.1906024023 0.3983050577 -0.4526385625 -0.5007250847 0.0082781689 0.5014507541
-0.3393471041 0.1366471348 -0.0504833779 -0.5039755591 -0.0003581949 0.4928824581
-0.1730283866 0.6186440259 0.1536928455 -0.5000087881 -0.0084703808 0.5001573559
-0.3958940579 0.4271798609 -0.1525183710 -0.4920876277 0.0008695762 0.5027675761
0.1964575121 0.0651594532 -0.2106297908 -0.5000000000 -0.0010058813 0.4915860599
-0.2513366186 0.3633444584 0.2654987701 -0.4977303646 -0.0074487876 0.5016326440
0.1393577024 0.3983050577 0.2024235371 -0.5005743389 0.0082541689 0.4988224662
-0.0275223286 0.6355931772 0.2744501848 -0.5000013814 0.0084721689 0.5001365085
-0.3798185844 0.1059047810 0.0508474881 -0.4995806441 -0.0000555000 0.5082906774
0.2211004511 0.0831250706 -0.4149578278 -0.4915748396 -0.0009130338 0.4999999661
0.0302654810 0.4950544410 0.4152542091 -0.5002288898 0.0006880254 0.5080706096
-0.1730190476 0.3463553494 -0.0891874262 -0.4970671951 -0.0042647539 0.4933434411
-0.1705231664 0.6355931772 0.2046434268 -0.5000083898 0.0084721520 0.5000971610
0.3092093519 0.4571767571 0.1873413856 -0.5083460079 0.0003660423 0.4987130425
-0.3341053418 0.1980706561 0.3348659519 -0.5021726354 0.0009874491 0.5070807961
-0.3714946358 0.6355931772 -0.0309990657 -0.5006529576 0.0084405503 0.4999478644
-0.0186250326 0.6186440259 0.2172501632 -0.4999989746 -0.0084728977 0.5000897881
0.2334047893 0.6355931772 0.0452686240 -0.4997660848 0.0084670842 0.5000610593
0.1739732933 0.6355931772 -0.0733056137 -0.4998968729 0.0084711350 0.4999319576
0.1695575563 0.6186440259 -0.1070478995 -0.4999094831 -0.0084713469 0.4999023305
-0.2962423274 0.6186440259 0.0638950126 -0.5001311102 -0.0084706435 0.5000518729
0.2583306011 0.6355931772 0.2455563478 -0.4996474661 0.0084622960 0.5002290424
0.4138244380 0.2161661718 -0.1963449782 -0.5059924318 0.0000000000 0.5059923979
-0.0567883267 0.6186440259 -0.2079099774 -0.5000009322 -0.0084716350 0.4998421865
0.3868426348 0.3728813307 -0.2241435780 -0.4983848137 0.0081168469 0.5000426102
-0.1894893516 0.3898304820 -0.2046845539 -0.4997324746 0.0081533469 0.5018507202
0.2142105872 0.5018908304 -0.4915253904 -0.5003162118 0.0019888643 0.5068779063
0.1351689061 0.3728813307 0.2600482536 -0.4998685170 0.0081450503 0.5012858219
0.2208795189 0.6186440259 -0.1629363110 -0.4997959492 -0.0084677706 0.4997944915
0.1767908694 0.6355931772 -0.2907908616 -0.4998826187 0.0084707876 0.4997819068
0.2630043127 0.4023627948 -0.4967854070 -0.4986723645 0.0003795169 0.4916837548
0.2578575757 0.3728813307 -0.3541159929 -0.4997783305 0.0083085588 0.4999319407
-0.3721639663 0.6355931772 0.0856981044 -0.5006898983 0.0084370418 0.5000919407
0.4044803031 0.2495078390 -0.3971678290 -0.5076066266 -0.0011969236 0.5018872287
0.2094409265 0.5833860113 -0.4915253904 -0.5001558644 0.0018444236 0.5069674826
-0.0739407916 0.6355931772 -0.0845689858 -0.5000004831 0.0084721774 0.4999327966
0.3499865864 0.3800913980 -0.3465268155 -0.4991701695 0.0083640249 0.4993627373
0.4018184897 0.3728813307 -0.1942230970 -0.4990968645 0.0076232452 0.5024946439
0.0286025998 0.6387720499 0.4069538961 -0.5027702202 0.0055401098 0.4948599919
-0.2587730587 0.3898304820 -0.2286533235 -0.4987260255 0.0065328979 0.5040808980
-0.0632413093 0.6355931772 0.3204903427 -0.5000035000 0.0084721604 0.5001627627
-0.4212564884 0.5983511289 -0.0875752314 -0.5084042028 0.0002216780 0.4991208814
-0.0338983028 0.5174127022 0.3720021273 -0.4915254243 0.0000000000 0.4999999661
0.4237485984 0.0000000000 -0.4246443102 -0.5058753894 -0.0016246609 0.5058753555
-0.0503142678 0.6186440259 0.2885855906 -0.5000000847 -0.0084718469 0.5001573813
-0.3605293908 0.3516134253 0.0527399964 -0.4926350005 -0.0007800508 0.5027067371
-0.1743029797 0.3324109520 -0.0560359623 -0.5011006609 0.0040241438 0.5071510927
0.2569819402 0.3417277056 -0.3791110506 -0.4939121191 -0.0057316606 0.4996437458
-0.4129867262 0.6268116185 -0.0836692401 -0.4916944751 0.0002325932 0.5015451355
0.4217862256 0.6371016009 -0.4074157181 -0.5061244742 0.0006421864 0.5057842623
-0.0338983367 0.1818117589 -0.2863182264 -0.4915360684 -0.0001736525 0.4997305339
-0.0081349401 0.6186440259 -0.0326740741 -0.4999987373 -0.0084720503 0.4999171356
0.4511351474 0.4728307222 -0.3908411176 -0.4938303564 0.0024395676 0.4951029749
-0.2792858539 0.3983050577 0.1518617270 -0.4983372967 0.0082080079 0.4999063220
0.3220338426 0.3882145415 0.1498019898 -0.4915566955 0.0002464746 0.5006422627
-0.3290636048 0.0943110445 0.3457363833 -0.4997392458 0.0009327965 0.5084078554
0.2119273331 0.0790477743 -0.2121728670 -0.4986360086 -0.0012618050 0.4921850683
0.2202650952 0.3983050577 0.2363249755 -0.5015767033 0.0067443894 0.4966076697
-0.3983050916 0.5279133286 0.1509800152 -0.4943687038 0.0039101608 0.4995905424
-0.2172547904 0.3983050577 0.3907129989 -0.4975601527 0.0017435846 0.4927296022
0.0453759122 0.2908440735 0.3320907402 -0.4997032627 0.0009721271 0.5084065333
0.3312679267 0.3728813307 -0.4490631560 -0.4969421527 0.0051417963 0.4962864070
-0.1937798174 0.3983050577 0.1174417209 -0.4986656442 0.0082991435 0.4996491441
-0.3169961480 0.3898304820 -0.1537485828 -0.4982787628 0.0065163470 0.5036444489
0.4915253565 0.6294330844 -0.2354493739 -0.5081527113 0.0004328135 0.5006986610
0.1195439071 0.3983050577 0.1664515904 -0.5004454406 0.0083161689 0.4991650001
-0.0798340793 0.6186440259 -0.2234275781 -0.5000019746 -0.0084721011 0.4998526865
-0.3408726294 0.4999852203 0.3244732492 -0.5059308216 0.0021165253 0.5053227115
-0.1292293641 0.0961673748 0.3292977234 -0.5083785927 -0.0008597372 0.5009214152
0.0000992458 0.5914079938 0.4152542091 -0.5016153134 0.0007259152 0.5082677283
0.2444891953 0.6186440259 -0.2085653248 -0.4997560848 -0.0084674740 0.4997891102
-0.3133871398 0.3898304820 -0.0214942697 -0.4988266018 0.0082907876 0.5005479745
0.2779721506 0.3983050577 0.2612630077 -0.5063158809 0.0024966947 0.4963057799
-0.1602724298 0.6186440259 0.2025633846 -0.5000046102 -0.0084703469 0.5001854322
-0.4059327521 0.0099478468 0.0593220299 -0.5000642373 -0.0006757542 0.5084440757
-0.3089213096 0.3813559063 0.2461747799 -0.5030881693 0.0070973216 0.5007461101
-0.3512900525 0.6186440259 0.0012705847 -0.5004344406 -0.0084575926 0.4999718729
-0.0765425457 0.3983050577 0.1699008190 -0.4999498220 0.0084513977 0.4998122288
0.2248755102 0.5645449617 0.0423728785 -0.5037093218 -0.0037093218 0.4947527800
0.2400116532 0.3983050577 0.2439992885 -0.5025610676 0.0058883132 0.4960332884
0.1842151146 0.6355931772 0.2522301270 -0.4999002542 0.0084712621 0.5001439152
-0.0884154686 0.6186440259 -0.0424806581 -0.5000022542 -0.0084732621 0.4999805932
0.0263374135 0.3728813307 0.3389014177 -0.5019805761 0.0076467113 0.5013788558
-0.1629399381 0.3650692803 -0.2105393332 -0.4963563053 0.0069559233 0.4972725849
-0.0352111417 0.4481571645 0.3786139998 -0.5000000000 0.0008919660 0.5084271350
-0.2810032691 0.6186440259 0.1582539638 -0.5001121525 -0.0084706350 0.5001067627
0.2406395854 0.3391838160 -0.2514881016 -0.4973333307 -0.0058694233 0.4947049495
-0.4040676167 0.6525423286 0.1468196680 -0.5048052370 0.0027667879 0.4997725763
0.4180992937 0.2329530859 -0.2207989342 -0.5000000000 -0.0008822711 0.4915715175
-0.3591395350 0.3728813307 -0.1981062662 -0.5043285251 0.0046132454 0.4957221783
-0.2933622767 0.3983050577 0.2143011719 -0.4981070595 0.0081348215 0.4994501187
-0.1710992850 0.3813558725 0.3529908828 -0.5016193050 0.0072971436 0.5006849491
0.1298858048 0.6355932450 0.1970720968 -0.4999657712 0.0084720248 0.5000978220
-0.4237288187 0.5827182402 -0.0270674049 -0.5084665842 0.0002786186 0.5002009152
0.2977706917 0.3608865010 -0.3378224517 -0.4956078562 -0.0036646438 0.4955129325
0.1151730430 0.6186440259 0.2979494967 -0.4999615509 -0.0084717282 0.5001551695
0.2408777125 0.6186440259 -0.0349820315 -0.4997653136 -0.0084677960 0.4999301864
-0.1238294916 0.1797455641 0.3278148846 -0.4960655935 0.0010289830 0.5072957283
0.0854243501 0.6355931772 0.1783554455 -0.4999947119 0.0084721689 0.5000816949
0.2666272446 0.3728812968 0.2743005746 -0.4953610935 0.0042462878 0.5037850591
0.0898581295 0.6186440259 0.2487378645 -0.4999915593 -0.0084728638 0.5000411780
0.3894125160 0.4522987659 -0.4482403510 -0.4951102037 0.0013718728 0.4933323903
-0.3692500597 0.3830896859 0.2847448451 -0.5064323555 0.0035799150 0.5041593133
-0.3420127734 0.0871856127 -0.0478177425 -0.5023455676 -0.0006425169 0.4923379158
-0.3239689441 0.1351269908 0.3250974695 -0.4916001955 -0.0011193304 0.4999999661
0.1844255638 0.6355931772 0.0378854720 -0.4998893051 0.0084710079 0.5000003475
0.1444452783 0.6186440259 0.2534104489 -0.4999275678 -0.0084696096 0.5002158644
-0.0450852936 0.5751770373 -0.2044838590 -0.5034811184 -0.0062738979 0.5039144828
-0.2225148324 0.5182931852 -0.3154060040 -0.5015448389 0.0030861015 0.4932458225
0.2228814595 0.3204626054 -0.2372881195 -0.5046617285 -0.0006715508 0.4949556190
0.3441200953 0.3881007110 -0.4747959424 -0.4962579494 0.0011329576 0.4925547886
0.0344301926 0.6355931772 0.2288791709 -0.4999980085 0.0084721774 0.5001104491
-0.3766491016 0.3898304820 -0.1395479566 -0.4956936444 0.0045710675 0.5035342116
-0.3627760686 0.0180972869 -0.2522264744 -0.5000198644 -0.0009360762 0.5084221265
-0.2581530249 0.5967240019 0.3784670845 -0.4960609240 0.0004697966 0.4925723395
-0.1690441919 0.6186440259 0.0294785573 -0.5000053051 -0.0084712876 0.5000847627
0.3002082169 0.3728813307 -0.4098712858 -0.4981348984 0.0071987199 0.4993537289
0.3160545294 0.3728813307 -0.2364223145 -0.4990798051 0.0082264910 0.4998871356
-0.2369351365 0.4608546806 -0.3136033940 -0.5020237117 0.0032948049 0.4927779242
-0.3517831456 0.5433941496 -0.2381930432 -0.4938914580 0.0009692711 0.5056525505
0.1092797214 0.6525423286 0.4076450486 -0.4988664747 0.0026766778 0.5059262708
0.0944902733 0.6355931772 0.0948373410 -0.4999881949 0.0084721350 0.5000354915
0.1208761443 0.6355931772 0.1593813367 -0.4999719068 0.0084720587 0.5000756949
0.2191565106 0.6355931772 -0.0418110226 -0.4997939576 0.0084678893 0.4999841610
0.2630774398 0.4200721071 0.0443241241 -0.5084284316 -0.0008826101 0.4999999661
0.2047735454 0.4181519208 -0.4999999661 -0.4998971102 0.0001854746 0.4915460514
0.2292101709 0.6355931772 -0.0018470931 -0.4997783814 0.0084675587 0.5000204153
-0.1163331955 0.6186440259 0.2405034922 -0.5000027966 -0.0084709232 0.5001764322
0.0220514646 0.3983050577 0.1068517978 -0.5006430169 0.0083720418 0.4989764407
0.3973813459 0.3728813307 -0.3339979265 -0.4973139409 0.0072988215 0.4994058475
0.4072547521 0.4715696121 -0.4354958942 -0.4948201783 0.0017348304 0.4937092038
0.2779404727 0.3728813307 -0.1820902927 -0.4996228390 0.0079466266 0.5023513642
-0.3433711293 0.3983050577 0.1739073187 -0.4977760595 0.0081065503 0.4997344746
-0.3345965621 0.6355931772 -0.2207390613 -0.5003467457 0.0084622028 0.4997239831
0.2865042094 0.3983050577 -0.3674454497 -0.5013000762 0.0082165588 0.5009018728
-0.3453517986 0.6355931772 -0.1699055732 -0.5003747203 0.0084615418 0.4997702627
-0.0719047409 0.6355931772 0.0498747678 -0.5000015593 0.0084721689 0.5000091271
-0.1074980690 0.6186440259 0.3642946278 -0.5000021949 -0.0084702876 0.5002465339
-0.2333981028 0.6186440259 -0.1516221168 -0.5000661780 -0.0084718045 0.4998917203
-0.3132633686 0.3311004098 0.2990798950 -0.5078109232 0.0032228557 0.4996398983
-0.3868560416 0.3728813307 -0.1566863538 -0.5048783387 0.0037780930 0.4964252884
0.0125329229 0.3983050577 0.1398896600 -0.5010959067 0.0082880249 0.4987841187
-0.1977961476 0.6355931772 0.3499815102 -0.5000287034 0.0084719910 0.5001850424
0.1433623547 0.3983050577 0.2907469464 -0.5006031610 0.0081350418 0.4980887459
-0.2077493673 0.3898304820 -0.2299980437 -0.4995994746 0.0081028384 0.5020961524
0.3588007977 0.3983050577 -0.2247380865 -0.5019004151 0.0081968893 0.5003137288
-0.1223750934 0.1654408108 0.3098283010 -0.4940075682 0.0000000000 0.4940075343
0.1164106785 0.6355931772 0.3067427419 -0.4999760424 0.0084720757 0.5001587627
0.4340306316 0.6109738993 -0.4113665145 -0.4939996784 0.0007508644 0.4942967885
0.0294769726 0.6355931772 -0.1136726703 -0.4999952627 0.0084721604 0.4999159576
-0.3515291796 0.5192705834 0.0338983028 -0.4977993137 -0.0008526525 0.4928405174
-0.1624140568 0.3813559063 0.1189194919 -0.5002729407 0.0083278215 0.4999047797
0.3047269539 0.3983050577 -0.3431991123 -0.5013894491 0.0082109232 0.5007453728
-0.2907379718 0.6186440259 -0.0786390709 -0.5001260000 -0.0084709740 0.4999521610
-0.3569592555 0.3287125031 0.0452416241 -0.4922722124 -0.0008199999 0.4982178222
0.0035047964 0.6355931772 0.0955088918 -0.4999983305 0.0084721689 0.5000348136
-0.0559751487 0.6355931772 -0.0590376740 -0.4999998475 0.0084721689 0.4999472373
-0.3983050916 0.0012889491 0.0351108875 -0.5012579575 -0.0000185593 0.4926066107
0.2990341323 0.6186440259 -0.0240200492 -0.4987962374 -0.0083665842 0.4998967458
0.1823906487 0.6355931772 0.3564384165 -0.4999081102 0.0084713554 0.5002054915
0.4525688337 0.6120163483 -0.3891206262 -0.4931862801 0.0007890508 0.4953735681
-0.0508474881 0.4161664379 0.3750456610 -0.5084745757 0.0000000000 0.4999999661
0.1314264911 0.3728813307 0.3140183601 -0.4998280339 0.0080534571 0.5019076100
-0.0084746096 0.3827844147 0.2485283815 -0.5043759234 0.0071953046 0.4999723475
0.2873645144 0.3728813307 0.1275804405 -0.4997908220 0.0080572791 0.5000501271
0.2701030156 0.3728813307 0.2005072661 -0.4981306611 0.0064365928 0.5019878727
0.4155913532 0.3738211357 -0.1694915139 -0.5000327034 0.0071911521 0.5043607455
0.4056413962 0.2503483813 -0.2170322056 -0.5062566775 -0.0012352881 0.4949759241
0.1551078708 0.3728813307 0.3171079700 -0.4993771780 0.0072694063 0.5028268557
0.4479159951 0.3983050577 -0.3644169075 -0.5064806521 0.0038963387 0.5034298896
0.2451167461 0.3983050577 -0.4369192331 -0.5013744575 0.0080233893 0.5014171609
-0.1550540827 0.3299387403 0.3053695979 -0.5012369321 0.0031512201 0.5073570165
-0.2411528820 0.6326529486 0.3778303896 -0.5000662458 0.0055327708 0.5002190508
-0.2706389139 0.3813559063 0.1033459591 -0.5008108220 0.0079085588 0.4979551527
0.0947760444 0.3728813307 0.2080183673 -0.4999075424 0.0082350503 0.5007056101
-0.4137814296 0.3732144662 0.0084745418 -0.4999722119 0.0084391435 0.5005663474
0.4237005645 0.1223929239 -0.4101295824 -0.5000000000 -0.0010178304 0.5084126265
0.4998671949 0.3728813307 -0.2203026969 -0.4953666020 0.0054512539 0.5001581102
0.0055799657 0.6355931772 -0.3112004620 -0.4999946949 0.0084721604 0.4998038729
0.2283305269 0.2992890051 -0.2129527483 -0.4938217123 -0.0001270085 0.5057972284
0.0752115627 0.6186440259 0.1323922961 -0.4999949746 -0.0084714401 0.4999534237
0.4534767320 0.4952635342 -0.3880312364 -0.4936344411 0.0021793134 0.4952690173
-0.2235650696 0.6355932450 -0.2464471443 -0.5000453051 0.0084719740 0.4998339661
-0.3400807736 0.6186440259 -0.0144006092 -0.5003411695 -0.0084620672 0.5000135593
-0.3311491640 0.6355931772 0.0023053388 -0.5002805339 0.0084657282 0.4999114322
0.1697640732 0.6522861592 0.3921349819 -0.4968863307 0.0003515000 0.5077802198
-0.1501511000 0.3728813307 -0.3020040049 -0.4993506526 0.0078739486 0.4977458222
0.2635886092 0.5341559892 0.0593220299 -0.4949437546 0.0010772203 0.5043421438
0.4287455303 0.4957087545 -0.4177085480 -0.4944048563 0.0020319914 0.4942305428
-0.1749209966 0.6355931772 -0.2945876495 -0.5000074322 0.0084721520 0.4998130932
-0.3267338084 0.1906154447 -0.0381286754 -0.5000000000 0.0008886440 0.5084263215
-0.0931090954 0.3983050577 0.3873740924 -0.4994114661 0.0082380249 0.4982292035
-0.0508474881 0.0897078583 -0.3051737590 -0.5084592367 -0.0004649491 0.4999999661
0.3166784616 0.3728813307 -0.3957079562 -0.4980965001 0.0073032283 0.4994083051
-0.3901830159 0.5192809309 0.2175189344 -0.4925221361 0.0025309914 0.4980696272
0.0238054899 0.6186440259 -0.0500499203 -0.4999972966 -0.0084710248 0.4998760763
0.2861870738 0.6355931772 -0.0318940656 -0.4993251695 0.0084393554 0.4998801949
-0.0064585758 0.6186440259 -0.1434322191 -0.4999986610 -0.0084709147 0.4998401017
-0.3576271707 0.6186440259 -0.1248110678 -0.5004328559 -0.0084583977 0.4998269068
0.3579349249 0.3728813307 -0.4009825830 -0.4962536782 0.0057068216 0.4979894747
0.3067152504 0.3728813307 -0.4466357155 -0.4975121697 0.0059451606 0.4974370171
-0.0077772283 0.6355931772 0.0447730987 -0.4999984322 0.0084721689 0.5000060339
0.1692628529 0.6355931772 -0.1499994475 -0.4998989746 0.0084711604 0.4998830254
0.3940632784 0.2669896599 -0.4042912184 -0.5084262537 -0.0008975169 0.4999999661
-0.0734483679 0.6355931772 0.1461863969 -0.5000024661 0.0084721689 0.5000638220
0.2183909852 0.6355931095 -0.0613233857 -0.4997982797 0.0084680926 0.4999675932
-0.2871476839 0.3983050577 0.3040558523 -0.4949968224 0.0052485505 0.4974156188
0.3152156820 0.4406973345 0.2070874182 -0.4918198311 0.0005095423 0.5020129405
0.3001714881 0.5176880073 0.2318031368 -0.5080215588 0.0005868135 0.4974655171
-0.0529001151 0.6186440259 0.2376284500 -0.5000002881 -0.0084721265 0.5001277458
-0.3530282388 0.0518556575 -0.2654246769 -0.5000000000 0.0006585847 0.4915534667
-0.3907882955 0.6291061268 0.2378781534 -0.5079164401 0.0006680339 0.5024597625
0.2655368210 0.5254234305 0.0348691417 -0.4933534157 0.0019265677 0.4962231697
0.4217904968 0.0719151138 -0.4177358276 -0.5059003132 -0.0014745931 0.5059002793
0.0224772612 0.6186440259 0.2257449084 -0.4999973305 -0.0084736096 0.5000646525
-0.1233158391 0.3898304820 -0.2458362715 -0.4985398476 0.0075264232 0.5027525591
-0.1467880917 0.6355931772 0.1895435295 -0.5000063729 0.0084721604 0.5000886610
0.1127927974 0.6186440259 -0.1397373973 -0.4999781949 -0.0084714232 0.4998533305
-0.0252299220 0.6355931772 -0.1294626692 -0.4999977542 0.0084721689 0.4999071525
-0.3262689525 0.6355931772 0.0411987938 -0.5002657712 0.0084662621 0.4999451610
0.1131548737 0.6355931772 -0.2556375844 -0.4999613220 0.0084719232 0.4998308305
0.2753726000 0.3728813307 0.2529273727 -0.4955319834 0.0043144234 0.5033398642
