0.3122316830 0.6135241464 -0.0900288946 -0.4858436279 -0.0042438054 0.4956727890
-0.2473662543 0.3584779565 0.3777380763 -0.4887395711 0.0063984853 0.5002690429
0.4153877420 0.3950086970 -0.2543284171 -0.4937825043 0.0080647413 0.4960473665
0.2935838855 0.6303330271 -0.1763851077 -0.4906597588 0.0083075288 0.4954141844
0.0485255662 0.1725687858 0.1346238133 -0.4839354333 -0.0012257288 0.4980293100
-0.4833195896 0.6402071772 0.2987287813 -0.4999233935 0.0003033919 0.4968769100
0.3235066852 0.4569988490 0.1170421191 -0.4833365581 0.0001679627 0.4958910859
-0.2898288152 0.6135241464 0.1447601567 -0.4918537777 -0.0084003390 0.4959692976
-0.0607047769 0.6303330271 -0.0606609309 -0.4917243073 0.0084020619 0.4958085543
-0.3938394460 0.3781998163 0.4212704552 -0.4964729085 0.0045208241 0.4998006131
0.4228260751 0.0184074389 -0.4244866580 -0.4975723438 -0.0014903762 0.5017103288
0.1473878386 0.6135241464 0.2513132652 -0.4916521972 -0.0083995154 0.4960761265
-0.4157052701 0.6471419078 0.4308138905 -0.4938506811 0.0002245582 0.4977287756
0.4257746049 0.3950086970 -0.1913576350 -0.4945392317 0.0071688111 0.4980595996
0.2479298140 0.3697953759 0.1724618477 -0.4916577105 0.0082186182 0.4961076095
0.2108106787 0.6284971864 -0.4874575074 -0.4917510418 0.0003448594 0.5039842594
-0.2705532396 0.3781998163 0.1817259194 -0.4919617075 0.0079526092 0.4935428349
-0.2084728996 0.6303330271 0.0364384681 -0.4917632366 0.0084018518 0.4958633933
-0.0294798100 0.4236522904 0.3639361615 -0.4833208586 -0.0000420054 0.4959040203
-0.0462886907 0.1900175554 0.3792613979 -0.5001170150 -0.0003454897 0.4958620150
-0.0462886907 0.1259639956 0.3862417479 -0.5001173764 -0.0003619624 0.4958620150
-0.1751937614 0.6303330271 -0.3152831168 -0.4917357121 0.0084020199 0.4956627541
-0.3930746504 0.3591870392 0.2363015985 -0.4970501003 0.0055363242 0.4939162609
0.2727777773 0.6135241464 -0.0210848667 -0.4912973869 -0.0083879424 0.4958034528
0.0345935338 0.3950086970 0.2510808152 -0.4924945406 0.0081267156 0.4942566828
-0.2248196958 0.1760688990 0.4181842775 -0.4942008773 0.0005417418 0.5023956689
-0.4564425591 0.5156280484 0.3727068926 -0.4987780952 0.0018994035 0.4995302758
0.3093534983 0.5117380952 0.1972700831 -0.4999352606 0.0003955886 0.4942018102
-0.1886457574 0.3950086970 0.4086933699 -0.4913919621 0.0082547321 0.4946751651
-0.2242109033 0.2542708046 0.2313002673 -0.4916037540 -0.0008559838 0.5042207015
-0.1986191723 0.3866042566 -0.1121581307 -0.4913495701 0.0081955144 0.4969653415
0.0583474658 0.3950086970 0.1598198212 -0.4917523193 0.0081989518 0.4950532641
-0.2537747241 0.4019159199 0.4874575746 -0.4914952526 0.0001220157 0.4874766359
-0.0313434779 0.5948516567 -0.0136324981 -0.4858722114 -0.0060314466 0.4958927920
0.0146565792 0.6303330271 0.2567898255 -0.4917234500 0.0084020535 0.4959885774
0.2813280935 0.3950086970 -0.3212746255 -0.4928500820 0.0081901776 0.4964768082
0.1217686335 0.6303330271 0.1066443556 -0.4916971525 0.0084019526 0.4959076175
-0.2065184722 0.1643858949 0.4028677396 -0.4835923809 0.0008876602 0.4949529235
0.1038096807 0.6303330271 -0.0273297189 -0.4917074648 0.0084020031 0.4958291284
0.0224121211 0.3697953759 0.4091996786 -0.4934099186 0.0049457190 0.4997554140
0.1722267587 0.4718347957 -0.4879150703 -0.4957454202 0.0046351581 0.4968152214
0.2195395052 0.3697953759 -0.2136200478 -0.4919112388 0.0082997378 0.4959218966
-0.0679647594 0.6135241464 0.0485478379 -0.4917254671 -0.0084028435 0.4958874216
-0.3733309475 0.3950086970 0.3810906916 -0.4871652598 0.0057878019 0.4942105760
0.0306311259 0.4463601218 0.4118176113 -0.4920112012 0.0015623014 0.5032561996
0.3941807504 0.5470974416 -0.4299632183 -0.4970832222 0.0009979432 0.5021664294
0.0573441689 0.5349143313 0.4034131710 -0.4922372219 0.0031180222 0.4897169487
-0.2242852490 0.6471419078 0.4929505151 -0.4919131887 -0.0054394967 0.4929509521
-0.3414100509 0.5527603367 0.4726359826 -0.4933303622 -0.0003705013 0.5036879189
0.0445445004 0.3950086970 0.2752749803 -0.4923174927 0.0080924927 0.4939185638
0.2369554807 0.6135241464 -0.0368142138 -0.4915077248 -0.0083983051 0.4957768696
-0.1237703274 0.1616668819 -0.2593835114 -0.4922102184 0.0007638376 0.4876975718
0.3536389067 0.5419058423 -0.4589354253 -0.4957034064 0.0008335944 0.5031355034
-0.2271030225 0.3174257112 0.2217461751 -0.4917795076 0.0019301470 0.4877622776
0.0279581861 0.5845919445 0.4034131710 -0.4924936161 0.0006233826 0.4879314253
-0.2504812509 0.4160310851 0.4311125087 -0.4889279482 -0.0012093317 0.5036652101
0.2000665934 0.4647464655 0.3619161458 -0.4958969438 0.0024949506 0.4892379124
-0.4772331779 0.4386262213 0.3251659570 -0.4847350234 0.0037221922 0.4940789205
0.4880789821 0.5049185643 -0.2683447712 -0.4986118470 0.0031214764 0.4968621686
0.4915954924 0.4749476744 -0.2399188108 -0.4962791021 0.0053341806 0.4961823754
-0.2294060661 0.6135241464 0.2018543356 -0.4917773897 -0.0084016921 0.4959653644
0.2185342838 0.3699564806 0.0840444372 -0.4917240299 0.0083433065 0.4950622904
0.3922355847 0.5614857679 -0.4431679304 -0.4868762731 0.0006019512 0.4891110642
0.1940933560 0.3950086970 -0.4430720021 -0.4924363735 0.0082128191 0.4972631108
-0.0367849916 0.4893659373 0.3717374824 -0.4917240299 0.0009038135 0.5042175919
-0.2067985165 0.5415563773 0.4874575746 -0.4916144696 0.0028973047 0.4897435740
-0.0462886907 0.1481138310 0.3965907320 -0.5001102494 -0.0003140991 0.4961761141
-0.2007510595 0.5425812904 -0.3057070638 -0.4901969767 0.0018372191 0.5035420598
0.2162254159 0.2847716197 0.3171865796 -0.4996351380 -0.0005789399 0.4978002470
-0.3445009940 0.4835997095 -0.2366291531 -0.4857177882 0.0013800763 0.5014406219
0.1277434762 0.3697953759 0.3619112461 -0.4909127913 0.0068557962 0.4995386214
-0.1951897656 0.6135241464 -0.0664410932 -0.4917623121 -0.0084009105 0.4958462734
0.4199943670 0.5918889570 -0.4233403092 -0.4862036909 0.0007082254 0.4896702200
-0.2903303417 0.6295021473 0.4709615828 -0.4889085844 -0.0008577740 0.5032903216
0.2117774247 0.3697953759 -0.2652882023 -0.4919843322 0.0083161433 0.4958315657
-0.2131453566 0.6303330271 -0.1972883544 -0.4917659933 0.0084018770 0.4957246024
0.2185507565 0.5854429613 0.0344030219 -0.4877782124 0.0068232710 0.4933320515
-0.1984361740 0.3697953759 -0.2205320781 -0.4918881770 0.0080098771 0.4939134623
-0.2547247032 0.4204405419 0.4874575746 -0.4914799313 0.0001301848 0.4874779133
-0.0110829439 0.6135241464 0.3101823611 -0.4917226936 -0.0084022300 0.4960073361
-0.3327550070 0.6135242136 0.1293410594 -0.4921174922 -0.0083886232 0.4960058233
-0.0294798100 0.3084254296 -0.2713390884 -0.4833259769 -0.0001051648 0.4957020028
0.0063340905 0.0197655544 0.3425037544 -0.5000760014 0.0008083055 0.4958076802
-0.0294798436 0.5987171193 0.0046893163 -0.4833195896 0.0000000000 0.4958620150
-0.4120146450 0.4736550883 -0.0997908370 -0.4999943522 0.0003278404 0.4945787157
-0.4046160985 0.5852487347 -0.0886801753 -0.4834946372 0.0002918862 0.4974335360
0.2136562961 0.6135241464 0.2734116486 -0.4915698421 -0.0084005155 0.4959898129
-0.3454830024 0.3624115456 0.3580254278 -0.4870750885 -0.0047598800 0.4982110056
-0.4763741012 0.5217023073 0.3271704749 -0.4843113219 0.0020824690 0.4935486675
-0.3858765414 0.0715930739 0.0588311161 -0.4923740966 -0.0003475824 0.5042281143
-0.3609432058 0.3973897590 0.4642646305 -0.4879816083 0.0016424209 0.4885706755
0.1652542668 0.3697953759 0.1262003957 -0.4916924124 0.0083004438 0.4956121341
0.2198186167 0.2174117867 -0.2258634012 -0.4916065526 -0.0010783990 0.4875365091
-0.2387431136 0.6303330271 0.2027375330 -0.4917910889 0.0084014904 0.4959597838
0.1877512980 0.6135241464 -0.1047991775 -0.4915900211 -0.0083991119 0.4957087516
-0.4323398596 0.5974827928 0.4148866104 -0.4978792403 0.0008404777 0.5012369739
0.1265314634 0.3529864952 0.2096981073 -0.4917240299 -0.0084044404 0.4958620150
-0.2711819926 0.5381644544 0.4518132168 -0.4890485183 -0.0010335276 0.5034583264
-0.2669488357 0.3697953759 -0.2642444380 -0.4940600945 0.0048670618 0.4901905809
-0.2671059147 0.6135241464 0.2304479310 -0.4918247655 -0.0084005995 0.4960113282
-0.3310282223 0.0121373482 -0.0213536995 -0.4857882006 -0.0000563266 0.5018107283
0.2320465816 0.2180210582 0.1475690299 -0.4858418041 0.0001106529 0.5006937613
0.3203114850 0.3697953759 0.1347185229 -0.4860010178 0.0028250854 0.4962138669
0.4358874159 0.0786291622 -0.2020386197 -0.4892412574 -0.0006652115 0.4885582033
0.1531164564 0.6135241464 0.1394133526 -0.4916548193 -0.0084005491 0.4959878210
-0.1359040029 0.6135241464 -0.1447305983 -0.4917285431 -0.0084028183 0.4958180009
0.0637494451 0.5601325605 0.4034131710 -0.4922655868 0.0025253830 0.4892889610
-0.1115575662 0.6303330271 -0.2254282109 -0.4917253158 0.0084020535 0.4957151474
-0.2676845940 0.3950086970 0.2372090679 -0.4906730462 0.0081824623 0.4958620150
-0.3394881908 0.1123243117 -0.0384603243 -0.5001147710 0.0004270800 0.4958620150
0.0616993163 0.3697953759 0.2718008536 -0.4915832051 0.0080569672 0.4973304136
0.0490570630 0.6135241464 0.3825395583 -0.4917201639 -0.0084028855 0.4960076639
-0.2146004174 0.3950086970 0.4207475645 -0.4911559066 0.0082098692 0.4945972559
-0.0889586396 0.5967152657 0.0375268852 -0.4917240299 -0.0078946018 0.4937826219
-0.1057674867 0.6135241464 -0.1225628867 -0.4917273076 -0.0084032385 0.4958094368
-0.2230421566 0.6303330271 0.1131555949 -0.4917735741 0.0084017425 0.4959124584
0.4952937235 0.3697953759 -0.2169776049 -0.4898493186 0.0075306139 0.4973994224
-0.2139428876 0.3950086970 0.2689074317 -0.4913299709 0.0083220937 0.4956392385
-0.0362137754 0.5188453775 -0.2400839832 -0.4912198055 -0.0020299581 0.5038708919
-0.4704525510 0.4207914105 0.3409874169 -0.4848731588 0.0037417745 0.4934300136
0.1065850202 0.5390504757 0.3983829621 -0.4931548691 0.0020410183 0.4882263708
-0.0958378421 0.6303330271 0.0220304335 -0.4917267109 0.0084020535 0.4958556108
0.4830694818 0.5941595426 -0.3028434272 -0.4994509043 0.0011116553 0.4983114135
-0.3714001114 0.3697953759 -0.1449049400 -0.4953791126 0.0050533715 0.4927434633
0.2119253512 0.3950086970 -0.3603135451 -0.4923781811 0.0082518073 0.4967275126
0.0467572467 0.3950086970 0.3661324771 -0.4928792286 0.0076012868 0.4932400565
-0.4833195896 0.5878290240 0.2996613380 -0.4838726017 0.0011414239 0.4943338272
-0.1626519327 0.4969419687 -0.3109642598 -0.4913473177 0.0044488485 0.5010724066
0.2193380340 0.1811186650 0.1356670313 -0.5000636804 -0.0010210555 0.4958620150
0.2325381321 0.1488089202 0.3364521959 -0.4974382173 -0.0000667313 0.5014139210
0.2032396731 0.6135240792 -0.0398964667 -0.4915616141 -0.0083984732 0.4957286533
-0.2417138900 0.4618269899 0.4223451058 -0.4905133871 -0.0013796981 0.5037040890
0.4066051186 0.2399471169 -0.4170352476 -0.4917240299 0.0006885086 0.4874880995
0.4663050942 0.5725140913 -0.3698878668 -0.4845282321 0.0012282585 0.4920015697
-0.2276182147 0.4923816353 -0.3114102834 -0.4935951861 0.0028677463 0.4886774959
0.3180477574 0.0739116153 0.0447551241 -0.4833499296 0.0007124444 0.4958620150
0.4693736646 0.4338710562 -0.3618180744 -0.4850424830 0.0029625568 0.4920611068
0.2281235485 0.4970857267 0.3526303234 -0.4863382124 0.0019168764 0.5017217589
0.0202187387 0.1345306165 0.3464431173 -0.4917240299 0.0005890504 0.5042402755
-0.2542046196 0.6303330271 0.3685203046 -0.4918323716 0.0084007256 0.4960796732
-0.2910984572 0.5780538110 0.0588311161 -0.4917240299 0.0000000000 0.5042664553
0.3318507228 0.3950086970 -0.4028971215 -0.4956165549 0.0060597024 0.4979972135
-0.0396153550 0.4562031418 -0.2661844182 -0.4917240299 0.0008817603 0.4875040343
0.3087036334 0.3699402264 -0.4865978424 -0.4891229481 0.0007280935 0.4879131793
0.0623640571 0.3950086970 0.2457521815 -0.4917843990 0.0078290051 0.4938993176
0.0184648748 0.4792533784 0.4034131710 -0.4926827244 0.0038943487 0.4900646824
-0.0161825062 0.6135241464 -0.1371098384 -0.4917233323 -0.0084012383 0.4957197026
0.1206397826 0.6135241464 0.1815162118 -0.4916894961 -0.0084021123 0.4959473620
-0.2359498642 0.6135241464 0.0572253386 -0.4917895509 -0.0084016501 0.4958785381
0.2670206936 0.4696597602 -0.4924170601 -0.4905432901 0.0002743209 0.4875684292
0.3569897318 0.3950086634 -0.2307120237 -0.4958407601 0.0066518960 0.4959309230
-0.4076796263 0.4613579717 -0.0330403848 -0.4858355764 0.0032004865 0.4961959738
0.0206779741 0.0732201484 0.1097203219 -0.5001067868 0.0004694973 0.4957812987
-0.1828666457 0.3697953759 -0.0287993361 -0.4917327873 0.0083294139 0.4959359152
0.4248427374 0.1732083048 -0.1909271848 -0.4912498346 0.0006782888 0.5040391740
-0.2260134373 0.1803634167 0.3987352427 -0.4979916497 -0.0014470177 0.4910526916
0.4060766306 0.2215515871 -0.4124140577 -0.4963721309 0.0001127624 0.4895034255
-0.3528695894 0.4375722708 0.0588311161 -0.4917746415 0.0000000000 0.5042653880
0.2413102415 0.6135241464 0.1406498223 -0.4914953703 -0.0083978513 0.4959398317
0.1959991553 0.6303330271 0.2323699004 -0.4916126711 0.0084009189 0.4959887623
-0.4063475561 0.6248844873 -0.0765599385 -0.4834511947 0.0002055390 0.4972436293
-0.0294798100 0.3571180508 -0.2607706307 -0.4833195896 0.0000000000 0.4958620150
-0.3820933498 0.3441441751 0.2284766779 -0.4844278495 -0.0036638401 0.4939464917
0.2652561562 0.6135241464 0.1363366130 -0.4913854318 -0.0083930692 0.4959846189
0.0690199201 0.6290058567 0.4118176113 -0.4914388504 0.0003891172 0.5040759014
-0.3412969104 0.5107621800 0.0588311161 -0.4917240299 0.0000000000 0.5042664553
-0.2012031427 0.4619979278 0.4586097365 -0.4955964346 -0.0006829364 0.5026417257
0.3042628784 0.1705418785 0.0362898356 -0.4860251134 0.0003633744 0.4900788523
0.3906787293 0.3243776541 -0.3997636016 -0.4994853373 -0.0014068613 0.4930721946
-0.3148668196 0.6303330271 0.0115161928 -0.4919913079 0.0083956997 0.4957839965
-0.1909886716 0.3866042566 -0.0729830171 -0.4914048713 0.0082553036 0.4966236506
0.0344144436 0.3176211228 0.3143483329 -0.4966779012 0.0009912197 0.4958907413
-0.3713617451 0.4492962466 0.4589846417 -0.4957391168 0.0009761337 0.5031189382
-0.0715581787 0.6303330944 -0.2326255803 -0.4917233323 0.0084020535 0.4957109451
-0.3365255079 0.3697953423 -0.1826019983 -0.4947764218 0.0051565780 0.4919603460
-0.3535448442 0.3950086970 0.3742133969 -0.4882812602 0.0067395123 0.4947600668
0.1910252394 0.3697953423 -0.2123997062 -0.4921831813 0.0083498283 0.4958475425
-0.3644116175 0.6303330271 0.1230375443 -0.4924024195 0.0083676709 0.4960017892
-0.2987722911 0.6135241464 0.1650614102 -0.4918855128 -0.0083991035 0.4959979568
0.0775461912 0.3697954095 0.1966911685 -0.4916395401 0.0081840171 0.4964604279
-0.1514461831 0.6303330271 0.1124576733 -0.4917301736 0.0084020451 0.4959071216
0.4216702292 0.5638419443 -0.4049599578 -0.4977408696 0.0010012966 0.5015812366
0.2417713343 0.1159779068 0.1137397707 -0.4883420915 0.0009736460 0.4884820843
0.2653651618 0.6348947052 -0.4842196631 -0.4933088132 0.0002035303 0.5040810197
0.0720393665 0.3697953759 0.2555629033 -0.4915953831 0.0080841639 0.4971393134
0.3877212824 0.3950086970 -0.3338481978 -0.4945961886 0.0073601802 0.4967937900
-0.3864758704 0.6139949884 -0.1839464230 -0.4991953169 0.0003900081 0.4921058689
-0.0628106019 0.6303330271 0.1925457287 -0.4917266101 0.0084020535 0.4959523291
-0.2807454641 0.5453670766 0.4874575746 -0.4908253515 0.0002334585 0.4875557721
-0.4373525535 0.0538395593 0.4298682733 -0.4998961715 0.0004421408 0.4946620458
0.0120884848 0.6135241464 0.1745069506 -0.4917220465 -0.0084035327 0.4959062055
-0.0930439708 0.6135241464 0.3379376387 -0.4917258789 -0.0084005155 0.4960851192
0.4243255365 0.3950086970 -0.2328125539 -0.4939818492 0.0080527313 0.4960876322
-0.1276036683 0.6303330271 -0.0689008375 -0.4917274505 0.0084020535 0.4958040747
0.4138371731 0.3950086970 -0.2086018909 -0.4939007379 0.0074703456 0.4976881990
0.2823119005 0.2438586947 0.0444897959 -0.5000847756 -0.0008556309 0.4958620150
-0.2663649372 0.5745819871 -0.2958877275 -0.4949443257 0.0013118743 0.4885231400
-0.2124577557 0.3781998163 0.2303339079 -0.4916963793 0.0083176561 0.4958948343
0.1489955408 0.6135242136 0.0928319016 -0.4916601394 -0.0084005659 0.4959668519
0.0468836915 0.3697953759 0.1847205560 -0.4918201263 0.0081958337 0.4962749587
-0.3705648360 0.5425932163 -0.2075838443 -0.4984783593 0.0007652915 0.4910639368
0.3056319869 0.4044010457 0.2406127234 -0.4840464812 0.0008292493 0.4990270936
0.0282407014 0.6303330271 -0.2627335634 -0.4917182729 0.0084020451 0.4956935479
0.2953741994 0.4267586220 -0.4888729748 -0.4896499065 0.0005343627 0.4877685893
-0.3991935788 0.3781998163 0.2172212664 -0.4935739733 0.0078538319 0.4949571677
-0.3889620131 0.5046305357 -0.1501306529 -0.4839243479 0.0007567526 0.4988049978
0.0917196411 0.6303330944 0.1973116347 -0.4917171383 0.0084020451 0.4959550605
0.3218521114 0.3950086970 -0.4571949330 -0.4950672659 0.0033491527 0.5014716343
0.2349175300 0.5734859724 0.0336177951 -0.4869414999 0.0033477743 0.4906114249
0.2943445462 0.3291277262 0.0420222354 -0.4896146078 0.0002791871 0.4883824244
-0.1850193422 0.6303330271 -0.0721082829 -0.4917454024 0.0084019779 0.4957995027
0.0031568423 0.6135241464 -0.1265320854 -0.4917224583 -0.0084008180 0.4957092222
-0.0376708532 0.6135241464 0.3141664860 -0.4917237358 -0.0084017089 0.4960294650
0.2191361173 0.1196241733 -0.1996583898 -0.4833871528 -0.0010562112 0.4958620150
-0.1723552962 0.3943106158 0.3297102043 -0.4883146930 0.0070842036 0.4952184281
-0.2800207072 0.3410252705 -0.0855213243 -0.4866479665 -0.0063060113 0.4945323989
0.1044606382 0.3697953759 0.1143898542 -0.4917012707 0.0083228669 0.4955029773
-0.2420358052 0.6135241464 0.0891253080 -0.4917941229 -0.0084016165 0.4958973640
0.2017000720 0.6303330271 0.0700680630 -0.4915872140 0.0084001037 0.4958864635
0.0127800862 0.3697953759 0.3182472284 -0.4947401062 0.0074265249 0.4965115773
0.1765713921 0.3697953759 0.3408311195 -0.4898201132 0.0051709412 0.5011466934
-0.0462838834 0.5422561310 -0.2324096198 -0.4923819547 -0.0032945910 0.5033102989
0.4098319951 0.2640634484 -0.2217153644 -0.4959096345 -0.0012177614 0.4888567122
-0.3402797630 0.3781997827 0.2573750687 -0.4931429096 0.0080850548 0.4959994444
-0.3068913755 0.4986899999 -0.2629017531 -0.4871190101 0.0015652598 0.5024829574
-0.2524426119 0.6303330271 0.1446424357 -0.4918126715 0.0084011626 0.4959269393
-0.4507741843 0.5500409708 0.3785939005 -0.4850551569 0.0011208330 0.4911687906
-0.1626208615 0.3536558164 -0.0737717066 -0.4881933329 0.0066613342 0.4994497613
0.0098371957 0.6303330271 -0.1187550028 -0.4917204076 0.0084020535 0.4957753484
0.0244477606 0.6303330271 -0.0079828148 -0.4917206765 0.0084020535 0.4958382052
-0.1505607670 0.6135241464 0.3826468578 -0.4917280724 -0.0083991540 0.4961553299
0.2523034932 0.6303330271 -0.1742820057 -0.4914992111 0.0083985488 0.4957410835
0.2081874932 0.3480225217 0.2796896059 -0.4916734268 -0.0047872533 0.4902096926
0.1314142584 0.4737864076 0.3944902691 -0.4937074946 0.0032492911 0.4886918507
-0.4025612633 0.6258512416 -0.1030640724 -0.4836106773 0.0002925418 0.4979072691
0.0288353575 0.2222764701 0.3273462285 -0.4990470541 0.0002849441 0.4921052469
0.2810705227 0.6303330271 0.2224500302 -0.4912432203 0.0083865137 0.4960463495
-0.2938536764 0.6303330271 0.3254949320 -0.4919009770 0.0083996330 0.4960545859
0.0896533506 0.3880416513 0.0840444372 -0.4917240299 0.0053477538 0.4903836225
0.3289125137 0.3950086970 -0.2793968288 -0.4931363457 0.0081593080 0.4962070088
-0.4076796263 0.5217102915 -0.0562688460 -0.4834942422 0.0002729930 0.4960787739
0.4981385089 0.5181000969 -0.2567591745 -0.4859301684 0.0037914363 0.4952287068
-0.1057757903 0.0815441751 -0.2675567288 -0.4849322840 0.0007344472 0.4920482816
-0.1537840211 0.6303330271 -0.0111676607 -0.4917292070 0.0084020535 0.4958369361
-0.3674732795 0.6135241464 0.1699186220 -0.4926306421 -0.0083328261 0.4960625281
-0.4163344265 0.3781998163 0.2819630406 -0.4940004230 0.0079464572 0.4960616877
0.0654664722 0.3697953423 0.0856225474 -0.4917228449 0.0083732767 0.4951894496
-0.2356015086 0.3950086970 0.4067687783 -0.4909912299 0.0081909592 0.4946970839
0.2160045220 0.3973434926 0.3505319532 -0.4962657895 0.0029315360 0.4896074809
0.4999999328 0.4380676706 -0.1883075375 -0.4834655243 0.0003083925 0.4963487413
0.0791328571 0.4017717754 0.4108476801 -0.4913006983 0.0069616501 0.4995270317
0.0174563840 0.6135242136 0.1298672026 -0.4917218111 -0.0084029612 0.4958709321
-0.4770467338 0.6201460302 0.1988665990 -0.4992229591 0.0031201149 0.4956236986
-0.2255360398 0.6303330271 0.2340989207 -0.4917765240 0.0084016837 0.4959837785
0.1911477761 0.6303330271 0.3354750453 -0.4916240171 0.0084011374 0.4960575527
0.4678880453 0.4617597879 -0.3382666978 -0.4987530920 0.0028140756 0.4989981487
0.4302104181 0.3950086970 -0.2670053555 -0.4939351373 0.0080357460 0.4961299737
-0.2763925271 0.3866042566 -0.2475504628 -0.4893157291 0.0048006163 0.5017451652
-0.4790990141 0.4195069431 0.3208123477 -0.4848212361 0.0041791752 0.4943836235
-0.2055960260 0.5339564604 0.4656137870 -0.4968950215 -0.0009915391 0.5021366609
0.1542449122 0.3862047852 0.3967120669 -0.4890134970 0.0040516378 0.5025610431
0.1393914002 0.3697953759 0.1651723404 -0.4916631818 0.0082352001 0.4960712435
-0.2893075129 0.4057167693 -0.2860551878 -0.4959662804 0.0031187786 0.4894257517
-0.0029479079 0.6303330271 0.0770824594 -0.4917227272 0.0084020535 0.4958865895
-0.4487450414 0.3781998163 0.2646279999 -0.4943762192 0.0078880463 0.4960882121
0.0525663959 0.6110985241 0.0588310825 -0.4916664175 0.0027654727 0.5035881161
-0.0416432708 0.3593427902 0.3825727474 -0.4917240299 0.0008481593 0.5042229539
0.0495749698 0.6135241464 0.1765781493 -0.4917203572 -0.0084025578 0.4958733946
-0.3820074816 0.3950086970 0.3614216706 -0.4874775856 0.0062755116 0.4947928273
0.4206300621 0.4621567885 -0.4228862005 -0.4864145835 0.0021927773 0.4899249754
-0.3833606805 0.6358669057 -0.1632004569 -0.4840882513 0.0002985593 0.4992980359
0.2607189686 0.3945821044 0.0840444372 -0.4930349377 0.0074014124 0.4938866353
0.2907998894 0.1589792007 0.0423779113 -0.5000854648 -0.0008488989 0.4958620150
-0.3835226425 0.6303330271 -0.0780468941 -0.4936820208 0.0077770489 0.4957783740
-0.2935560164 0.3697953759 0.0031249894 -0.4917175501 0.0083807398 0.4963048785
0.3875020526 0.5971255705 -0.4355287059 -0.4969547519 0.0006947447 0.5023278703
0.1249620434 0.3697953759 0.1118448384 -0.4917031785 0.0083264051 0.4954647791
0.2331598506 0.2480782785 0.3323133452 -0.4934480412 0.0004977530 0.5035307474
-0.0631564362 0.6135241464 -0.2784992598 -0.4917254503 -0.0084011038 0.4956662839
-0.2910569897 0.3950086970 0.3081365186 -0.4906248468 0.0081862779 0.4953843066
-0.3355463149 0.6145093653 -0.2342665641 -0.4920021497 -0.0074122962 0.4956577702
-0.0038575289 0.6303329599 0.1177719102 -0.4917231306 0.0084020619 0.4959096933
0.2627721146 0.3697953759 0.2394223268 -0.4888630492 0.0055391986 0.4987954168
0.2954903908 0.6303330271 -0.1485587956 -0.4906200058 0.0083034862 0.4954500293
0.1542208083 0.6135241464 -0.1279391568 -0.4916692666 -0.0084022216 0.4958073777
-0.2602041462 0.6216987169 0.4874575746 -0.4911597810 0.0000583604 0.4875276004
-0.4171339914 0.3015149710 0.2106888059 -0.5000636216 0.0010313677 0.4959517240
0.2221909633 0.1471178627 -0.2162068757 -0.4840448339 -0.0011223122 0.4942950071
-0.4962024704 0.3797586887 0.1764932812 -0.4980939906 0.0018286381 0.4950543146
-0.4346788321 0.5825472618 0.3979083298 -0.4853881829 0.0006365187 0.4904954184
-0.2738586892 0.3781998163 0.2671886144 -0.4917240299 0.0079113182 0.4931561634
-0.3989546490 0.3294036692 0.2114210008 -0.4964826661 0.0041000474 0.4904824335
0.4434237196 0.0553455006 -0.1876412587 -0.4833561993 0.0007800749 0.4958620150
-0.1895350817 0.0117425328 0.4210746486 -0.4833445844 0.0006220715 0.4958925567
0.4999999328 0.4035885716 -0.1694649335 -0.4833599645 0.0001257220 0.4966553269
-0.4639815186 0.3950086970 0.2507857017 -0.4892048157 0.0079882693 0.4958099915
0.1970919006 0.4319644920 0.3783490707 -0.4874737868 0.0027593879 0.5024188568
0.3039594613 0.5139251323 0.2249050849 -0.4997442445 0.0005164613 0.4935102256
-0.0471825702 0.6303330271 -0.0820088566 -0.4917234668 0.0084020535 0.4957963931
-0.1315904743 0.3697953759 -0.1092532703 -0.4914428089 0.0081957497 0.4952577861
0.2806491156 0.3521511947 -0.3498668594 -0.4861867980 -0.0049386341 0.4927740051
0.2878673869 0.4929187127 0.2801767608 -0.4845655058 0.0008978043 0.5001016181
0.2159181496 0.2419431379 -0.2269365306 -0.5000684037 0.0008701369 0.4954753351
-0.1190869446 0.3697953759 -0.0891573626 -0.4914825787 0.0082570097 0.4954435579
-0.0021279623 0.5742688208 0.4118176113 -0.4927926293 0.0001373538 0.5041892437
-0.2777375317 0.6405650383 0.4874575746 -0.4904987886 0.0000150860 0.4876202257
-0.0294798100 0.0281612962 -0.3082018715 -0.4833253802 -0.0002951471 0.4958620150
0.3278445866 0.3950086970 -0.2144743928 -0.4934489993 0.0081556017 0.4963183340
0.0495122559 0.3950086970 0.1825932829 -0.4918161762 0.0064506937 0.4916475915
-0.2572176115 0.3950086970 0.4140466202 -0.4907977009 0.0081556185 0.4946511452
-0.3168406108 0.4191579319 -0.2572164181 -0.4869082772 0.0023838355 0.5020899826
0.2759384856 0.3950086970 -0.2514897249 -0.4926337770 0.0082498491 0.4960245148
-0.4784150859 0.4765779761 0.3224081912 -0.4845307955 0.0030482569 0.4940090880
-0.3566038588 0.3950086970 0.1967122972 -0.4899041492 0.0074816748 0.4936765075
0.4999998655 0.6336280048 -0.2316731303 -0.4833353731 0.0001178050 0.4957412179
-0.1968797053 0.6135241464 -0.1620765479 -0.4917642788 -0.0084014820 0.4957848538
-0.0433222679 0.6303330271 -0.2150199334 -0.4917221305 0.0084020535 0.4957208540
0.2182644592 0.6303330944 -0.0705775318 -0.4915277862 0.0083980950 0.4958210517
-0.3181435849 0.3613909019 0.3244548153 -0.4912893186 -0.0083644016 0.4960803791
-0.4103969752 0.3939316596 0.0084044740 -0.4928502585 0.0055857507 0.4967725604
0.1753138525 0.3950086970 0.3395200688 -0.4938702214 0.0049596199 0.4900583623
0.1239039160 0.6135241464 -0.2441134585 -0.4916977913 -0.0084010954 0.4956711837
-0.3751910771 0.3866042566 -0.0602897320 -0.4895898904 0.0072054965 0.4978185939
0.2108313872 0.3697953759 0.2822879226 -0.4901142434 0.0058180243 0.4997694494
-0.4698988665 0.4826362665 0.3422793474 -0.4845571602 0.0025251982 0.4930446785
0.2392113166 0.3697953759 -0.4263974580 -0.4917697669 0.0082673555 0.4958104453
0.0377097070 0.2468870751 0.3171501884 -0.4917240299 -0.0011475927 0.4875372067
0.4030319876 0.6029257521 -0.4225871453 -0.4973230933 0.0007529622 0.5020220747
-0.1289669358 0.6303330271 0.3367296349 -0.4917310392 0.0084020367 0.4960343984
0.3319515845 0.6471419078 -0.4759349356 -0.4893926466 0.0002402914 0.4893316723
-0.4425106948 0.5555404836 0.3970876530 -0.4982331177 0.0013870520 0.5005134105
-0.3244756247 0.4874338489 0.4798936035 -0.4893631050 0.0007151590 0.4879562773
0.2386828285 0.3697953759 0.1524920317 -0.4916726872 0.0082529167 0.4958821772
-0.4293505514 0.1915658970 0.2045488832 -0.5000637309 0.0010059611 0.4958712851
0.3689662779 0.4939087978 -0.4509752101 -0.4961246201 0.0011090584 0.5028769912
-0.1959756312 0.5804085755 -0.3153655727 -0.4927293691 0.0019316850 0.4887272166
0.1930109985 0.3697953759 -0.4211060139 -0.4922720078 0.0083371124 0.4958460129
-0.0005770405 0.6303330271 -0.1378303678 -0.4917207438 0.0084020535 0.4957645487
0.2968402616 0.3950086970 -0.4545221192 -0.4948338325 0.0046411841 0.5001434974
-0.3330350934 0.3950086970 0.4559578834 -0.4881316359 0.0034197164 0.4904330827
-0.3753852448 0.3703083073 0.3771740123 -0.4930224907 0.0066014022 0.4997245361
-0.0541960001 0.6303330271 0.1703897833 -0.4917260050 0.0084020535 0.4959397224
-0.3372420873 0.6303330271 0.1870046980 -0.4920394318 0.0083940861 0.4959658770
-0.2987078038 0.3226032414 -0.0788744373 -0.4930646558 -0.0037045092 0.4884997084
0.2959321198 0.3697953759 -0.4682072880 -0.4892924908 0.0042996108 0.4916743597
0.3186871084 0.6458151829 0.1898365321 -0.4834375039 0.0002163387 0.4970759355
-0.3750221982 0.3950086970 0.4206857247 -0.4869027387 0.0038186415 0.4915614544
-0.4229603444 0.1734377629 0.4236242028 -0.4999866874 0.0008172058 0.4961060043
-0.3744972821 0.2561834031 0.0397946133 -0.4994147652 0.0007535085 0.4928967183
-0.3823597033 0.3781998163 0.4368432613 -0.4960581158 0.0045899590 0.5001951259
-0.0924624256 0.6303330271 -0.2184230846 -0.4917244585 0.0084020535 0.4957190722
-0.1222544521 0.6135241464 0.2873972257 -0.4917271396 -0.0084002970 0.4960754289
-0.3817937147 0.5665693281 -0.1941091815 -0.4989069437 0.0007151254 0.4916240255
-0.4076796263 0.3961394388 -0.0359061057 -0.4859663831 0.0033940576 0.4963168549
-0.4662817971 0.5506482000 0.3507191873 -0.4845234332 0.0013963810 0.4923578844
-0.4085641264 0.4060669066 -0.1273950281 -0.4997724078 0.0006531007 0.4936226266
0.2788428333 0.3778706816 -0.4909393914 -0.4899696786 0.0005039218 0.4877127250
0.1956353354 0.3697953759 0.2140923017 -0.4916264880 0.0081498783 0.4966088083
-0.2848216597 0.6135241464 0.2789146408 -0.4918475920 -0.0084000028 0.4960592756
0.0826202628 0.3447326708 0.1741028567 -0.4893271508 -0.0075713250 0.4985816078
-0.1348205865 0.1196470417 -0.0267794381 -0.4941724283 0.0005142593 0.5036689332
-0.1637872802 0.3360140388 -0.2174621713 -0.4971797724 -0.0058576008 0.4982764594
-0.1259712150 0.6135242136 -0.0167356528 -0.4917278960 -0.0084021796 0.4958898925
0.1367174939 0.5659493410 0.3922174731 -0.4942539934 0.0015532582 0.4882820502
0.3982917908 0.3950086970 -0.2467880708 -0.4936239293 0.0080928625 0.4959979652
0.1722267587 0.3747638373 -0.3386572606 -0.4937653928 0.0075382871 0.4958620150
0.3063707877 0.3750523197 0.2388889054 -0.4840614915 0.0009363807 0.4990224543
-0.1009763169 0.4793786718 -0.3193687001 -0.4910416734 0.0001214274 0.4874994707
-0.1543404959 0.4019857776 -0.3193687001 -0.4918442891 0.0059440993 0.4915319800
0.2181422502 0.3697953759 -0.4366480681 -0.4920055114 0.0082985780 0.4958266659
-0.2703701741 0.4763383571 0.4510014067 -0.4887256786 -0.0010309643 0.5035668445
0.3151022448 0.5430261542 0.1327163163 -0.4992888247 0.0010542950 0.4956571903
-0.4333173548 0.0388336328 0.1976170100 -0.4917240299 -0.0011088230 0.5041926811
0.4999999328 0.6358366413 -0.2029867667 -0.4847532106 0.0030289267 0.4989679263
-0.1258378702 0.6215664310 0.3866042903 -0.4917289465 -0.0003604580 0.4961173923
-0.4122352952 0.3781998163 0.3572785336 -0.4968488896 0.0053735302 0.4975184881
-0.2763855262 0.4475264144 -0.2795868784 -0.4884732260 0.0030683099 0.5027875344
-0.1072953887 0.6303330271 -0.2961368435 -0.4917244922 0.0084020535 0.4956749825
-0.4833195896 0.5525525874 0.2795966948 -0.4839666138 0.0018202841 0.4951789525
0.3654525158 0.3950086970 -0.4461441613 -0.4959170893 0.0020718206 0.5024202015
0.1402145143 0.6303330271 0.0851382079 -0.4916758304 0.0084017846 0.4958914725
-0.4045489891 0.5626714243 -0.0891499919 -0.4834808287 0.0003196713 0.4973812688
-0.1463272907 0.6303330271 -0.1829942923 -0.4917273581 0.0084020535 0.4957393437
-0.3223179863 0.6135241464 -0.0751311332 -0.4919547654 -0.0083974311 0.4958641077
-0.3200267594 0.3866042566 -0.2101321378 -0.4882965310 0.0044751544 0.5010563373
-0.1497514950 0.6303329599 0.0860249352 -0.4917298626 0.0084020451 0.4958921113
-0.1836061188 0.5653897565 0.4530408870 -0.4986238569 -0.0007853445 0.5003397831
-0.2893031847 0.6303330271 0.0103644567 -0.4918984893 0.0083988934 0.4958291788
-0.0921216255 0.3866042566 -0.1071345866 -0.4887968894 0.0075374719 0.4967987319
-0.0345116913 0.6303330271 -0.1126310822 -0.4917225928 0.0084020535 0.4957789623
0.1570010812 0.6302723723 0.3748706241 -0.4916701490 0.0083411129 0.4960676128
-0.3271539181 0.3123313512 -0.2141171116 -0.4963313525 0.0011362887 0.5007717125
0.4907511487 0.6471419078 -0.2664735394 -0.4901819496 0.0052762488 0.4955964851
-0.0462886907 0.0460012337 0.4073389523 -0.5001023325 -0.0004394346 0.4963014495
-0.2557311938 0.6303330271 -0.2491835548 -0.4918082340 0.0084013559 0.4956817565
0.4071986822 0.5785535642 -0.4191148759 -0.4974071461 0.0009058978 0.5019252472
0.0928818996 0.3950086970 0.1046070100 -0.4919716331 0.0083489795 0.4956013344
0.0662538170 0.6303330271 -0.1534240253 -0.4917173988 0.0084020451 0.4957554971
-0.3708428297 0.3495926141 0.0424027885 -0.5000926421 0.0007734606 0.4958620150
0.4752885501 0.5566472727 -0.3209988422 -0.4992328931 0.0014459756 0.4987880041
-0.0835564670 0.6135241464 0.0257999678 -0.4917261310 -0.0084027006 0.4958848666
-0.0336198037 0.5190279219 0.3666168754 -0.4917240299 0.0015294905 0.5040166585
0.2012448792 0.3950086970 -0.4106910717 -0.4924150346 0.0082278463 0.4970535545
0.2930949656 0.6135241464 -0.0986694914 -0.4907687392 -0.0083282121 0.4956663848
0.2680398917 0.6303330271 0.2063014359 -0.4913381737 0.0083909849 0.4960559726
0.2047179217 0.3950086970 0.2209009405 -0.4926962220 0.0081130920 0.4943791019
0.0653398341 0.6303330271 0.1328367351 -0.4917199370 0.0084020535 0.4959180390
0.0153195298 0.3950087306 0.2890496647 -0.4944767363 0.0071601882 0.4938008764
-0.3534351662 0.3613909356 0.2659450261 -0.4890357352 -0.0075843939 0.4947556712
-0.4673405465 0.3828204599 0.3482487525 -0.4984251760 0.0040339633 0.4987477048
0.0524668201 0.3403865666 0.3003595789 -0.4983414509 0.0008927281 0.4915601517
-0.4910439426 0.5451588146 0.1764932812 -0.4911300713 0.0003268739 0.4946370005
-0.2457844042 0.6135241464 -0.2242045327 -0.4918104192 -0.0084015829 0.4957096929
-0.2914633359 0.6303330271 -0.2011484298 -0.4918944383 0.0083988010 0.4956798823
-0.0549578206 0.6135241464 0.2866566768 -0.4917244753 -0.0084015576 0.4960252124
0.1292293476 0.3697953759 0.3149098420 -0.4915508732 0.0079810835 0.4977962717
-0.2975103728 0.3781998163 0.2641942383 -0.4926529895 0.0081625101 0.4959644399
0.1980091528 0.6303330271 -0.0539362608 -0.4915946436 0.0084004483 0.4957940482
0.1873688876 0.6135241464 -0.2278131893 -0.4915775909 -0.0083980362 0.4956164708
0.2079297290 0.3697954095 -0.2284007269 -0.4920068561 0.0083236485 0.4958345324
0.2087016180 0.3950086970 -0.4654965198 -0.4930684462 0.0078079352 0.4975345910
0.4693903306 0.6471419078 -0.3472532969 -0.4908304950 0.0003520620 0.4966339292
-0.0261372548 0.6135241464 0.1975567082 -0.4917235172 -0.0084026670 0.4959487404
0.2369238716 0.5488270334 0.0423820799 -0.4978315451 -0.0045836977 0.4929255035
0.2482398370 0.4039681330 0.3272134468 -0.4975135883 0.0019595457 0.4901064441
0.4345190133 0.4979146819 -0.3895413396 -0.4980055843 0.0013404746 0.5011495678
-0.3725618151 0.6471419078 0.4577951529 -0.4878381529 0.0001482207 0.4900549921
0.3117582188 0.1493861708 0.0476719860 -0.4833514340 0.0007291524 0.4958620150
0.1683496306 0.6303330271 0.1360470044 -0.4916430111 0.0084013980 0.4959290488
-0.1002948093 0.6135241464 -0.2622611834 -0.4917271312 -0.0084022636 0.4957113233
-0.1191513899 0.0675259888 -0.2660488630 -0.4976312925 0.0000348868 0.4898849787
0.2110205460 0.3697953423 -0.2988036901 -0.4920103608 0.0083157147 0.4958321456
-0.0932974739 0.6128787694 0.0588311161 -0.4917420827 0.0056310087 0.5013440549
0.2072885206 0.6135241464 0.1684883123 -0.4915791458 -0.0084004651 0.4958919096
0.4999999328 0.3868997904 -0.2349842613 -0.4878515411 0.0065114915 0.4957244931
0.1537909380 0.4841893063 0.3969066550 -0.4891419337 0.0027962918 0.5029948215
0.1713507386 0.6135241464 0.1099589828 -0.4916446584 -0.0084019022 0.4959239809
-0.3163396894 0.6303330271 0.1515993121 -0.4919588752 0.0083976664 0.4959020285
-0.0920965803 0.5706291939 -0.3109642598 -0.4908683570 0.0001511286 0.5041263113
0.0300898127 0.0822868670 0.3386693209 -0.4833993897 -0.0011377595 0.4958620150
-0.4833195896 0.4089681110 0.2569456859 -0.4879182892 0.0069132825 0.4956875388
0.2400913707 0.3950086970 0.1020601031 -0.4929200910 0.0082431507 0.4952683505
0.2962965111 0.3836983373 -0.4887576827 -0.4895074596 0.0006111457 0.4878094013
-0.2228544434 0.3866042566 -0.1823838022 -0.4911734130 0.0080789448 0.4975973806
-0.2361277694 0.6471419078 0.4691091433 -0.4927182752 -0.0060067460 0.4986284962
-0.0325509102 0.5936441991 -0.1040947509 -0.4858429471 -0.0060033758 0.4959027765
0.3229881396 0.5068151271 0.1554283163 -0.4833540982 0.0002179944 0.4965170066
0.3549444693 0.3697953759 -0.3722013487 -0.4888716469 0.0067122147 0.4949979628
0.2593097793 0.4738798650 0.0508410567 -0.4991775415 -0.0007197143 0.4996557709
-0.3220457329 0.6135241464 0.1705269018 -0.4920520720 -0.0083914387 0.4960828836
0.3022454513 0.1285681283 0.0352756045 -0.4992456258 -0.0009600812 0.4922857407
0.1532679717 0.3603052752 0.2038565422 -0.4975942374 -0.0004388547 0.4899778057
-0.2457077809 0.6303330271 0.3205192260 -0.4918128396 0.0084010786 0.4960430298
0.0246751007 0.6303330271 0.3240235835 -0.4917235509 0.0084020535 0.4960267252
-0.3270226576 0.4174889025 0.4788020096 -0.4895511291 0.0009259424 0.4879472341
0.2573436445 0.4889464884 -0.4936268288 -0.4907788497 0.0002389803 0.4875304915
-0.2674021712 0.6303330271 -0.1402579148 -0.4918211012 0.0084011626 0.4957419995
0.1324080666 0.3950086970 0.2698167669 -0.4922319607 0.0081023848 0.4941519046
0.0006021361 0.6135241464 0.0234864859 -0.4917225675 -0.0084023645 0.4958138239
-0.2196950714 0.6303330271 -0.0047144120 -0.4917709183 0.0084017930 0.4958413232
-0.2622889349 0.6303330271 0.2243439372 -0.4918370696 0.0084007256 0.4959857283
0.0755810145 0.6303330271 0.2492098019 -0.4917204580 0.0084020535 0.4959840895
-0.1809488280 0.6303330271 0.2096669772 -0.4917445536 0.0084019779 0.4959608007
0.2110495917 0.1368485359 -0.3982080321 -0.4976668685 0.0000000000 0.5018048536
-0.1990688519 0.6135241464 -0.3067547277 -0.4917668673 -0.0084023477 0.4956924218
-0.3471536707 0.6303330271 0.2069014457 -0.4921444957 0.0083876063 0.4960554263
0.4999998655 0.6193715778 -0.2171657383 -0.4833453492 0.0000909865 0.4959965196
0.0297799830 0.3950086970 0.3303416299 -0.4936875845 0.0073566840 0.4934411327
-0.1231180336 0.1253005491 -0.2457675196 -0.4956149076 -0.0013640491 0.5031391761
-0.2456936782 0.6135241464 -0.0526845539 -0.4918033846 -0.0084015913 0.4958123447
0.1595825891 0.6135241464 -0.2084006802 -0.4916595090 -0.0084020535 0.4957345700
0.0980942747 0.3950086970 0.2290100068 -0.4920094699 0.0081815042 0.4945689246
0.4701303500 0.3950086970 -0.2471604800 -0.4942130133 0.0079983210 0.4960026801
-0.1872211207 0.6264469232 0.4944288057 -0.4953530336 -0.0033090803 0.4944336131
0.3095090561 0.3946224962 0.0840444372 -0.4933421788 0.0081300354 0.4950946307
0.2856749037 0.3697953759 -0.2970658199 -0.4911933483 0.0082034902 0.4957746760
0.4021677674 0.3697953759 -0.2630475617 -0.4899018800 0.0080298208 0.4956849922
-0.4308542150 0.4543030491 0.4024978686 -0.4855800562 0.0017337940 0.4905803873
0.4768527089 0.4341553363 -0.3173491551 -0.4986783765 0.0036849941 0.4981582005
0.3429631747 0.5655358929 -0.4719152682 -0.4884144033 0.0003682490 0.4881928455
0.2192292890 0.6303330271 0.1080242638 -0.4915247270 0.0083977672 0.4959502112
0.2479047436 0.3950086970 0.1275262550 -0.4929713077 0.0082038684 0.4950407919
-0.4719321612 0.6470827910 0.3375349904 -0.4997203086 0.0000571250 0.4980900237
-0.2004027206 0.0255068210 0.4091395616 -0.4834168457 0.0009060743 0.4957095248
0.3201402193 0.3886021602 0.1782111404 -0.4834935278 0.0004030349 0.4972461506
-0.0363409934 0.6135241464 -0.0351378053 -0.4917240299 0.0084024905 0.4957782059
-0.2125430944 0.3950086970 0.3732348847 -0.4912262601 0.0082475547 0.4949229616
-0.2045485470 0.6303330271 -0.0878588513 -0.4917602699 0.0084019022 0.4957881147
0.2633306064 0.0877449123 0.3359290195 -0.4841046903 0.0009171598 0.4989870632
0.2020794737 0.0181592894 -0.1864109074 -0.4894996435 0.0002832885 0.5033281164
-0.2366119408 0.6247018084 0.4874575746 -0.4917198193 0.0002306935 0.4874612221
0.1498337240 0.3697954095 0.2982744709 -0.4915633454 0.0080085576 0.4975961199
-0.1295574906 0.6303330271 0.3576828628 -0.4917312577 0.0084020367 0.4960462991
0.2679643610 0.3938407067 0.3080409937 -0.4853490434 0.0021615632 0.5007036870
-0.2376001853 0.6135241464 0.1454183252 -0.4917875675 -0.0084016417 0.4959312423
0.0070050506 0.6303330271 0.2814303251 -0.4917240299 0.0084020535 0.4960025876
0.2600817944 0.3697953759 -0.4423691808 -0.4904115841 0.0071502289 0.4950450361
-0.2234347028 0.1571548320 0.3985406463 -0.4987892059 -0.0013599141 0.4927235364
0.2457466346 0.6135241464 0.2957400027 -0.4914828729 -0.0083973890 0.4960837073
-0.3600197007 0.2693593888 0.0571872833 -0.4833539889 -0.0007575594 0.4958620150
0.1988844669 0.3697953759 -0.3513653627 -0.4921708604 0.0083315234 0.4958414913
-0.4303865500 0.3950086970 0.2067520148 -0.4888663269 0.0074414932 0.4945161531
0.2328646362 0.6173791539 0.3384889448 -0.4972537567 0.0005789315 0.4896387454
0.2380255257 0.3482501476 -0.3796365385 -0.4977637633 0.0052449507 0.4939308931
-0.0521803631 0.6135241464 -0.2061892871 -0.4917249544 -0.0084015240 0.4957055411
0.2858761144 0.3950086634 0.1380228547 -0.4935146884 0.0075159061 0.4941393736
0.1830985662 0.4796212408 0.3843462104 -0.4880393804 0.0024712921 0.5026994138
-0.0450060807 0.4085869781 0.3784690693 -0.4917240299 0.0008692376 0.5042209201
0.3235066852 0.4537276643 0.0875546694 -0.4833506776 0.0002592350 0.4952492724
-0.0883108926 0.3802461630 -0.2834792689 -0.4891759885 0.0071389333 0.4983328280
-0.0450832167 0.2216902015 -0.2896356979 -0.4917240299 0.0008827436 0.4875043033
0.1156219535 0.3950087306 0.2467417960 -0.4921230139 0.0081451886 0.4943814299
0.4301404595 0.0000000000 -0.4275135425 -0.4955537737 -0.0039248316 0.4996917587
0.0650610420 0.3950087306 0.2266388789 -0.4917965350 0.0082091212 0.4946677692
-0.3482233038 0.3697953759 -0.1542327174 -0.4943787489 0.0056175027 0.4926176909
0.0374931077 0.3950087306 0.2928305535 -0.4938210554 0.0075267226 0.4942875523
0.3271104672 0.3920191619 -0.1680887736 -0.4928604279 0.0069064917 0.4999390930
-0.3511196084 0.3950086970 0.1765979921 -0.4893796113 0.0071243348 0.4931304626
0.2124539653 0.3698387176 -0.1689862754 -0.4918910430 0.0079954719 0.4984243523
-0.3288578596 0.6135241464 -0.1631154376 -0.4919690866 -0.0083972714 0.4957637839
-0.0362652610 0.0579304711 0.3901811865 -0.4917240299 -0.0007227483 0.4874889988
-0.1961678996 0.0714378775 0.1932984388 -0.4835078994 0.0008023299 0.4952168313
-0.3823225641 0.6303330271 0.1479131665 -0.4932804398 0.0082388645 0.4962681259
-0.1706800727 0.6135241464 0.2211534435 -0.4917359894 -0.0083997507 0.4960564349
0.1862771003 0.3697953759 -0.2616301108 -0.4922611577 0.0083546777 0.4958511984
0.3524014369 0.3529864952 -0.2723934254 -0.4896897603 -0.0070378111 0.4939548878
-0.1967809867 0.3781998163 0.4344065283 -0.4914417164 0.0083412978 0.4958820091
0.2260291031 0.3141341037 -0.2223734993 -0.4967095103 0.0037798130 0.5012953428
-0.2248421692 0.6303330271 -0.1143844081 -0.4917750617 0.0084017677 0.4957755165
0.3816824567 0.3950086970 -0.2342075649 -0.4950911093 0.0071748035 0.4959401342
-0.4587292056 0.6447940602 0.3683418952 -0.4993156180 0.0001621469 0.4994190851
0.2615799111 0.6303330271 0.2532416221 -0.4913655385 0.0083918841 0.4960970115
0.1083061488 0.6051197060 0.0374322764 -0.4916762591 0.0067231825 0.4926620747
0.1657846038 0.6135241464 -0.2526342163 -0.4916368338 -0.0084007844 0.4956778148
0.2237384561 0.3424119863 0.2958292914 -0.4846218660 0.0044511093 0.4958620150
-0.2146945471 0.6303330271 0.1661648964 -0.4917678086 0.0084017846 0.4959424455
0.3235067524 0.4076642210 0.0864946846 -0.4833371885 0.0001920499 0.4953766669
-0.2564142059 0.6303330271 0.2590625543 -0.4918285307 0.0084008433 0.4960064621
-0.1737370954 0.6303330271 0.0920709467 -0.4917381410 0.0084020115 0.4958942544
-0.1456239483 0.6303330271 -0.2019648792 -0.4917271564 0.0084020535 0.4957285777
0.0260461003 0.6135241464 0.2352318897 -0.4917213741 -0.0084034066 0.4959334863
-0.1366697062 0.2083093071 -0.2378931053 -0.5000683701 -0.0009817731 0.4958754537
-0.4557953583 0.3781998163 0.2245697057 -0.4939077557 0.0077186128 0.4949911468
0.3245737802 0.3697953759 -0.2248068874 -0.4907569142 0.0081433984 0.4958113530
-0.3670691520 0.1847658223 0.0533988053 -0.4833813370 -0.0007388007 0.4959352344
-0.3655346440 0.6135241464 -0.1454295115 -0.4923304523 -0.0083750500 0.4956241525
0.1387039590 0.6303330271 -0.0826734713 -0.4916687371 0.0084017005 0.4957914597
-0.1418894604 0.2623372940 -0.2313891358 -0.4925553972 -0.0011529295 0.5039918402
0.0753410761 0.6135241464 0.0225857821 -0.4917191974 -0.0084003558 0.4957448487
0.1013391114 0.6135241464 0.1253858710 -0.4917109442 -0.0084023897 0.4958473408
-0.2320720470 0.2348908375 0.2242152484 -0.4992545850 -0.0011204884 0.4978567248
0.4332877628 0.3697953759 -0.3240555456 -0.4872028528 0.0059179783 0.4945828339
0.2785272970 0.3665336462 -0.3307302008 -0.4975188915 -0.0018068958 0.5014334866
0.0678919685 0.6135241464 0.0486891922 -0.4917195335 -0.0084008096 0.4957694569
0.3979109099 0.5310970933 -0.4391141495 -0.4866543118 0.0007354137 0.4892756483
0.2522410398 0.3950086970 0.2969459978 -0.4967144017 0.0030479712 0.4907434839
-0.3222321434 0.6135240792 -0.2151141304 -0.4918976068 -0.0084009189 0.4957386210
-0.0460343556 0.6303330271 -0.1647904006 -0.4917226936 0.0084020535 0.4957493786
-0.4098029241 0.3875482770 -0.1174846465 -0.4998150771 0.0006127509 0.4938460503
0.3151022448 0.6260423838 0.1259619954 -0.4843828101 0.0021794311 0.4959635826
-0.3375623721 0.1833584651 -0.2485688961 -0.4945481824 0.0011122773 0.4887629355
0.1516452003 0.6135241464 -0.0822537367 -0.4916683421 -0.0084017762 0.4958440042
-0.4160840667 0.4836885529 -0.0115449780 -0.5001189480 0.0002197593 0.4961547080
0.0214076392 0.6135241464 -0.2287224825 -0.4917216346 -0.0083993221 0.4956228666
0.0545358000 0.2698132706 0.1476414594 -0.4893467079 -0.0010259889 0.5027507061
0.0257086032 0.6135241464 0.3763982152 -0.4917211052 -0.0084024905 0.4960211278
0.0590425298 0.5883984752 0.0504266758 -0.4917248704 -0.0000405262 0.5042565129
-0.2760626276 0.4144230635 0.4874575746 -0.4911357779 0.0003137378 0.4875065893
-0.2199643077 0.5123523422 0.4874575746 -0.4916638877 0.0015092862 0.4886298091
-0.1330186660 0.1754499036 -0.2510868580 -0.4995970155 -0.0008243243 0.4947029250
-0.4582492616 0.3781998163 0.2890473451 -0.4958857071 0.0066768740 0.4966988283
-0.1867012304 0.3697953759 -0.2727617332 -0.4919290058 0.0079231013 0.4933579792
0.3235066852 0.6399037601 0.1392575343 -0.4833309524 0.0003391612 0.4959449836
0.2398251433 0.6135241464 0.0448497665 -0.4914996986 -0.0083980110 0.4958538795
-0.1559177404 0.5919747495 -0.3193687001 -0.4919352419 0.0006516719 0.4878336901
0.5000000000 0.3815694254 -0.1991587626 -0.4853688611 0.0029959645 0.4962162957
0.2008912539 0.3950086970 0.3377722814 -0.4949121367 0.0043215296 0.4898984930
-0.0889397884 0.5347539661 -0.3109642598 -0.4907370629 0.0013644609 0.5034934317
0.3203956051 0.5222971568 0.1761689286 -0.4834091389 0.0002371565 0.4969164108
-0.2485535916 0.3950086970 0.3906055182 -0.4908980331 0.0081848323 0.4948104178
-0.2276608252 0.6135241464 0.1805380862 -0.4917765745 -0.0084017005 0.4959526821
0.2660202795 0.3950086970 0.1629970443 -0.4933287317 0.0074425017 0.4938368978
-0.3989005580 0.0129000007 0.0453484692 -0.5000993489 0.0006989469 0.4958620150
-0.3103578122 0.5651381444 0.0336177951 -0.4909169179 -0.0011152944 0.4881672960
0.0506771449 0.6303330271 0.3490791700 -0.4917225171 0.0084020535 0.4960408699
0.3140124494 0.6035683052 0.1599976592 -0.5000458042 0.0001958403 0.4947484938
0.2624299614 0.3697953759 0.2198443847 -0.4896304754 0.0060611227 0.4983452245
-0.3136594209 0.1654221203 -0.0444130382 -0.4834089708 -0.0011773024 0.4958620150
-0.4178616562 0.4568941128 0.4180889375 -0.4858718332 0.0016038950 0.4901024772
-0.2707254382 0.3781998163 0.2050689079 -0.4922442227 0.0082151387 0.4955753899
0.4082898223 0.1924527167 -0.4156471618 -0.4917264924 0.0008831890 0.4875042697
0.4133646671 0.3303640109 -0.2281684198 -0.4841263486 0.0034634867 0.4958620150
0.2892731052 0.5331653420 0.2591731483 -0.4992889171 0.0007466421 0.4923919476
0.0486287391 0.3697953759 0.2320508174 -0.4918309680 0.0081126886 0.4968014969
-0.4862383088 0.4721914045 0.2320539187 -0.4975541566 0.0040113049 0.4963019706
-0.3066301991 0.6135241464 -0.1623463053 -0.4918736878 -0.0084011290 0.4957653639
0.4996878591 0.5517620993 -0.2459131434 -0.4852247333 0.0028105205 0.4955011619
-0.3931907829 0.5065188537 -0.1682783106 -0.4993066925 0.0006220967 0.4924175139
