0.0074075352 0.6071428138 -0.3163685131 -0.5000130714 0.0303059621 0.3160462274
0.2366617331 1.0714283520 -0.2804703728 -0.4882440723 0.0012572856 0.2928537648
0.3768085802 0.2246791625 -0.1721342377 -0.4771960016 0.0011433928 0.3282248694
0.0754152446 0.6428570969 0.0797400657 -0.5024282498 0.0352845332 0.3224936198
0.3556338675 0.9027589355 -0.1800803086 -0.5247633197 0.0062121067 0.3463671895
0.2273781623 0.7242094483 -0.2888906579 -0.4848347154 0.0028615712 0.2892741579
0.0968404931 0.6428570969 0.1129357419 -0.5027453927 0.0352640332 0.3220599770
0.2472883752 0.8098352993 -0.2756171946 -0.4843002154 0.0023956784 0.2895106222
0.0039057854 0.6151674203 0.2142857347 -0.5000000000 0.0328901762 0.3347914047
0.3968900431 0.6989680929 -0.2082362351 -0.4785457515 0.0110888564 0.2957086574
0.1782215230 0.9176305416 -0.3214285128 -0.4900886436 0.0022872498 0.2873685152
0.3125634420 0.6428570969 0.1063267781 -0.5070731781 0.0345890690 0.3224946913
0.2124498420 1.0714284949 -0.2754176232 -0.5016987499 0.0015357856 0.3327805477
0.3810548656 0.4994899643 0.1429300255 -0.5000000000 0.0047204639 0.3568295459
0.2844217297 0.6071428138 0.0750126018 -0.4936059647 0.0343319618 0.3214285842
0.0049109639 0.6428570969 0.1853360582 -0.5031971069 0.0353944975 0.3240980840
0.4400658614 0.7175721630 -0.1434724183 -0.4740954661 0.0122303563 0.3018994784
0.4999999286 0.8142790133 0.1518015606 -0.5241417840 0.0156819989 0.3229352626
0.3411660113 0.6779084516 -0.2315160192 -0.4820811441 0.0071046423 0.2920796577
0.2588492315 0.6428570969 -0.2283981623 -0.5174624273 0.0121114634 0.3447469754
0.3337197262 0.6071428138 0.0887819222 -0.4922118220 0.0341343904 0.3214285842
0.4133551490 0.1048714568 0.1710806306 -0.5000000000 -0.0045251068 0.2860169796
0.0091633565 0.7045354854 -0.3214285128 -0.5000000000 0.0000000000 0.2857143010
0.4212724699 0.8788509372 -0.1716626663 -0.4754715375 0.0076351423 0.2985034787
0.2968681931 0.6071428138 -0.0461548181 -0.4933449290 0.0342751404 0.3214285842
0.3882691508 0.2821151227 -0.1896387722 -0.4645020382 0.0037720712 0.3214285842
0.0148404275 0.6428765969 -0.3214285128 -0.5000000000 0.0000000000 0.2857143010
0.1911448792 0.7535944105 -0.3130461919 -0.4865461081 0.0027290712 0.2886244437
0.4926590720 0.9468641109 -0.0220224270 -0.4669400738 0.0073693566 0.3146649061
0.4354156118 0.8808866157 -0.1504478107 -0.4734711805 0.0077771780 0.3011076928
0.3954486146 0.6868384509 -0.1402655614 -0.5271322123 0.0098409279 0.3413665113
0.3857440439 0.2892271222 0.1936266647 -0.5000000000 0.0025445355 0.3570521174
0.0001138571 0.6071428138 -0.2184721630 -0.5018022856 0.0354593189 0.3214285842
0.1585818101 0.9873910723 -0.3214285128 -0.4937058219 0.0014524999 0.2864415510
0.4853227510 0.9045029354 -0.0440316397 -0.4681203237 0.0089575708 0.3122752991
0.3197835486 0.6428570969 -0.1317478120 -0.5221793198 0.0206518200 0.3326150120
0.3045059068 1.0557333174 -0.2437360540 -0.4818930727 0.0011114999 0.2907659792
0.3640189740 0.4037331497 0.1851431296 -0.5356322475 -0.0024081427 0.3214487985
0.2124012705 0.6071428138 -0.1369909188 -0.4936190005 0.0328438548 0.3205865485
0.0572183173 0.6428570969 -0.2133221990 -0.5030407498 0.0349380689 0.3265926910
0.3979434359 0.1603876671 -0.1913731649 -0.4945444290 -0.0039596426 0.3546016890
0.2735302305 0.5836125297 -0.1303954907 -0.5238095340 -0.0038746069 0.2977115859
0.3821127227 0.1504224535 0.1938427362 -0.5356057117 -0.0024923213 0.3220722984
0.3905522578 0.0322664263 -0.1803771657 -0.4947945004 0.0001642143 0.3243351911
0.4172836131 0.1580284173 0.1718492734 -0.4643648597 0.0022192498 0.3214285842
-0.0027618927 0.6428570969 0.0293779979 -0.5010355356 0.0354566760 0.3230791912
0.0217399270 0.2904379793 -0.1727945234 -0.5000000000 0.0048587139 0.2860467296
0.3527184391 0.7668970881 -0.2276652337 -0.4811034656 0.0059224996 0.2924109077
0.4652987168 1.0121592848 0.0030393926 -0.5332414262 0.0040436783 0.3323836191
0.3512385821 0.8609792956 -0.1844755940 -0.5244867125 0.0060919996 0.3466011538
0.3957787217 0.9041135068 -0.1399354186 -0.5270410695 0.0047013925 0.3439917611
0.3627226169 0.6826439870 -0.2243304840 -0.4807911442 0.0088020708 0.2933656576
0.4999999286 0.7400198757 0.2116520206 -0.5245399625 0.0190293558 0.3275262266
0.4396385400 1.0714284949 -0.1126361705 -0.5001410000 0.0029965712 0.3261482267
-0.0357143189 0.6094437422 0.0869642795 -0.5044327854 0.0344427475 0.3214285842
0.4813177870 0.6785216658 0.0510963535 -0.5224997484 0.0227599269 0.3276737980
0.4978190716 0.6071428138 0.1938140933 -0.4976173573 0.0307321764 0.3369889402
0.0787474229 0.6071428138 -0.2247963768 -0.4995991786 0.0351426403 0.3214285842
0.3395673329 0.6428570969 0.1048843854 -0.5076169637 0.0345037475 0.3225577627
0.5000000000 0.9701106807 0.1086788137 -0.4690249308 0.0068234281 0.3214285842
0.1071428138 0.5836472083 0.0645507454 -0.5321354977 0.0086399280 0.3214285842
0.0367652474 0.0147141061 -0.1803755943 -0.4646367882 -0.0049769996 0.3214285842
-0.0357143189 0.6416181327 0.1253797053 -0.5301492478 0.0180299630 0.3214479056
0.4062010424 0.2181885558 0.1629865598 -0.5000000000 -0.0024708570 0.2857999796
0.3687536522 0.6071428138 0.2099251993 -0.4994925000 0.0311404263 0.3380636544
0.3399793329 0.4675485737 -0.1808893442 -0.5000000000 0.0023866427 0.2857941582
0.0368335688 0.3360294403 -0.1545693104 -0.5007414285 -0.0032717498 0.3569512245
0.3103746207 0.7454338753 -0.2253395196 -0.5200569629 0.0051424639 0.3500246179
0.3940144361 0.7146315918 -0.1416997399 -0.5270227124 0.0089480351 0.3419627256
0.3771220802 0.6428570969 -0.1401709543 -0.5261263196 0.0141384276 0.3379012259
0.1266655981 0.6071428138 -0.1481932394 -0.4981979644 0.0349541404 0.3214285842
0.1374375616 0.6878763080 -0.2994254786 -0.5095413922 0.0016581427 0.3556832603
0.4713705020 0.7777945873 0.0212546771 -0.5309617478 0.0124917848 0.3308719407
0.1455405253 0.7086685208 -0.3214285128 -0.4914764649 0.0019669641 0.2874332652
-0.0357143189 0.6354974546 0.1383177401 -0.5253141053 0.0211108913 0.3214285842
0.3571427959 0.5156250346 0.1339374190 -0.4642857168 0.0000000000 0.3214285842
0.0321549263 0.0695634593 -0.2093168422 -0.4842899654 0.0007027142 0.2922715506
0.0949661718 0.9029800069 -0.3135826205 -0.5102022136 0.0014878928 0.3555354389
0.3362845831 0.8646719740 -0.2331431262 -0.4816356799 0.0028267498 0.2912691221
0.4872050366 0.9187241129 -0.0383846044 -0.4677705380 0.0084253565 0.3129063705
0.1433890255 0.6279213837 0.2142857347 -0.5000000000 0.0306270335 0.3394992258
0.4217496484 0.6316336335 0.2142857347 -0.5096053565 0.0292824979 0.3359052974
-0.0357143189 0.6226802055 0.1336819547 -0.5150263204 0.0276707480 0.3214285842
0.0485661751 0.6071428138 -0.2026882355 -0.5004304285 0.0352652832 0.3214285842
0.0615122099 0.6071428138 -0.0542888890 -0.4999586786 0.0352214618 0.3214285842
0.2223477698 1.0529944605 -0.2922442291 -0.4880727509 0.0014444999 0.2881749437
0.0939489933 0.6286115980 -0.3214285128 -0.4972744645 0.0006289642 0.2862836581
0.1440952397 0.6428570969 -0.1004467428 -0.5043989997 0.0348249975 0.3251404053
0.4999999286 1.0098343564 0.1919152363 -0.5355596403 0.0000000000 0.3229393698
0.4233903983 0.8805609371 -0.1123238134 -0.5287741051 0.0073948209 0.3401563686
0.4451121468 0.6071428138 0.2110734135 -0.4996261429 0.0305600335 0.3393490472
0.0334558548 0.4683823594 0.1427762041 -0.5356344617 0.0023863570 0.3214285842
0.3394298686 0.6428570969 -0.1413979185 -0.5237818554 0.0187036415 0.3340892976
0.4999999286 0.9832579655 0.1761340588 -0.4642857168 0.0000000000 0.3214285842
0.0475373895 0.1655238096 0.1579804530 -0.4643754668 -0.0025301070 0.3214285842
0.3809899014 0.1661412381 -0.1689846308 -0.4865503581 0.0008454999 0.3230411198
0.0839910654 0.6071428138 0.0092561779 -0.4992811786 0.0351345689 0.3214285842
0.4860148581 0.9432049326 0.0651875668 -0.5331743905 0.0055329639 0.3297963336
0.4592355386 0.8496637965 -0.0151501775 -0.5314871049 0.0096688207 0.3326139048
0.1113189563 0.6071428138 -0.1430215255 -0.4986250358 0.0350161761 0.3214285842
0.3549214032 0.9793495372 -0.1807927728 -0.5247564982 0.0059006424 0.3464431181
0.4997615000 1.0034313926 0.1064274924 -0.5312635692 0.0052887853 0.3277870837
0.4784573944 0.8468093324 -0.0646275668 -0.4693063950 0.0107448207 0.3100635136
0.2032073069 0.8727690805 -0.2775021945 -0.5123122134 0.0027321427 0.3547379747
0.0296818907 0.1973010573 -0.2001927357 -0.4989421429 0.0019930356 0.2862941224
0.3892501508 0.6071428138 0.1580963101 -0.4934602862 0.0326388548 0.3290297979
0.2100224136 1.0561656746 -0.3004611571 -0.4892231436 0.0015472856 0.2877439794
0.2063696995 0.6071428138 0.1328146691 -0.4957307860 0.0346507832 0.3214285842
-0.0245313911 0.6071428138 -0.0435178540 -0.5023665713 0.0355681760 0.3214285842
0.4823970013 1.0638721383 -0.0528088534 -0.4661207881 0.0030324641 0.3122663348
0.3633292955 0.9404882543 -0.2241282697 -0.4799012514 0.0026141427 0.2923348363
0.3511464392 0.6428570969 0.0035242140 -0.5081855351 0.0343287475 0.3240038340
0.4573304316 0.7760182303 -0.1175756345 -0.4713482878 0.0109784635 0.3049674782
0.0772831373 0.8177525844 -0.3194770129 -0.5079334994 0.0013563570 0.3560767246
0.3505736178 0.6071428138 0.2042062354 -0.4988268929 0.0314513906 0.3367780117
0.1403319543 0.7149246275 -0.2984606930 -0.5101033564 0.0016842142 0.3555494746
0.3718036163 0.6428570969 0.0627467812 -0.5084006780 0.0343463547 0.3232023698
0.3237520840 0.5357142474 0.1273879195 -0.5009485714 -0.0300388193 0.3078075852
0.4843963940 0.8290935836 0.0603321743 -0.5293939622 0.0121982134 0.3290154765
0.0813271370 0.6428570969 -0.0324299620 -0.5029197141 0.0351121761 0.3240829411
0.3845366868 0.7790006944 -0.2170591631 -0.4791824658 0.0083042494 0.2942879076
0.1119465991 0.6071428138 0.1805407371 -0.4990603215 0.0350001761 0.3234812269
0.1669762024 0.6071428138 -0.0507539607 -0.5000000000 0.0357142832 0.3214285842
0.0120710706 0.0000000000 -0.2095701636 -0.4880502509 -0.0017071070 0.2977853716
0.0169242131 0.2369390902 -0.1694894879 -0.5356235332 0.0025445355 0.3214285842
0.2986868001 0.5714285306 -0.0892732436 -0.5019890356 -0.0310206406 0.3325906191
0.2579429459 0.5714285306 0.0476189966 -0.5000000000 -0.0357142832 0.3214285842
0.4496188250 1.0714284949 -0.0987199572 -0.4973354288 0.0027658569 0.3249972982
0.0212995342 0.0207843199 0.1756022375 -0.5000000000 -0.0073820709 0.2864890510
0.2380040901 0.8124380134 -0.2659033381 -0.5137727490 0.0039362140 0.3539961890
0.4368900045 0.7293820550 -0.0821869584 -0.5301861764 0.0119243920 0.3352315832
0.3529500462 0.6428570969 -0.0605324600 -0.5204427485 0.0240066769 0.3293453336
0.3812298656 0.7080841994 -0.1544842390 -0.5262166410 0.0078518209 0.3436782612
0.0666178524 0.6250774196 0.2142857347 -0.5000000000 0.0314449978 0.3378896187
0.3429649398 0.5070226424 -0.1785713801 -0.5000000000 0.0019085356 0.2857778367
0.4999999286 0.6249028125 0.0485524608 -0.4783042158 0.0254404625 0.3180134773
0.2249665554 0.8537863319 -0.2904984078 -0.4849616796 0.0020841784 0.2892613722
0.0575738887 0.6428570969 -0.0924083863 -0.5026452855 0.0351031046 0.3248901554
0.4919279649 0.8897889007 -0.0242157840 -0.4677984309 0.0094942493 0.3141436918
0.3447160111 0.5481410323 -0.1574921316 -0.4703839664 0.0192015343 0.3214285842
0.4973382145 0.6390568472 -0.0079851423 -0.4708683235 0.0187900701 0.3144038347
0.4421627184 0.6071428138 -0.0649389954 -0.4741092161 0.0198326772 0.3123284420
0.1597910957 0.6602577028 -0.3214285128 -0.4888566437 0.0025715355 0.2881041937
0.3245524768 0.6428570969 0.1137117776 -0.5072878923 0.0345622118 0.3224096555
0.4933692862 1.0714284949 -0.0128769991 -0.4689779665 0.0027281427 0.3185325487
0.2466355181 0.6071427423 0.1142108847 -0.4946382504 0.0344861404 0.3214285842
0.4860207153 1.0312980335 -0.0419377827 -0.4662875381 0.0042385711 0.3131601205
0.4959735003 0.7950521932 -0.0120791420 -0.4688026451 0.0130126419 0.3148289418
-0.0357143189 0.6362932403 0.0261899267 -0.5240091054 0.0218959627 0.3218699770
0.0153110346 0.6071428138 -0.1852728796 -0.5013513928 0.0354000332 0.3214285842
0.3657419382 0.2982333716 -0.1929832719 -0.5000000000 0.0024438213 0.2857981224
0.0623229955 0.4427801469 -0.1469442395 -0.5000618214 -0.0044098925 0.3568591174
0.3015647642 0.6428570969 0.1326598477 -0.5092535351 0.0340504976 0.3222794413
0.0174893916 0.2448519825 0.1450048825 -0.5356292475 0.0024618570 0.3214285842
0.3879276866 0.7252143053 -0.2159288417 -0.4791601443 0.0098907493 0.2947159789
0.1488155965 0.6428570969 0.1527510962 -0.5077209637 0.0343074261 0.3218940842
0.4602786457 0.8371749045 -0.1131533491 -0.4703273235 0.0092993922 0.3056642282
0.4507656821 1.0281934623 -0.1274227766 -0.4698272164 0.0038313926 0.3043319068
0.1212009913 0.5714285306 0.0733449233 -0.4846868225 -0.0293713550 0.3214285842
0.0726392805 0.6071428138 -0.0666036381 -0.4996552500 0.0351759975 0.3214285842
0.4131188991 0.1081667423 -0.2032190212 -0.4644246097 0.0030151784 0.3214285842
0.1627796312 0.9022854356 -0.2909781578 -0.5112792135 0.0018105713 0.3552661889
0.3420650827 0.6071428138 0.1581158816 -0.4934625719 0.0329743548 0.3283666551
0.2077780566 0.6428571684 0.1188440272 -0.5049399996 0.0349297118 0.3221524413
0.2878015509 0.6337482047 -0.2493041608 -0.4853292868 0.0039853926 0.2891485865
0.4743928233 1.0411976399 0.0303216050 -0.5338378904 0.0024786784 0.3314564763
0.3341158690 0.7558428389 -0.2338660547 -0.4822397870 0.0046262497 0.2913299792
0.2486833394 0.6071428138 0.0604123528 -0.4946200004 0.0344748904 0.3214285842
0.3769574731 0.6071428138 -0.0906389578 -0.4781690730 0.0225524627 0.3146076204
-0.0161740703 0.6071428138 -0.2276762695 -0.5022662856 0.0355243189 0.3214285842
0.4118426134 0.6071428138 0.0976403145 -0.4900120007 0.0338206404 0.3214285842
0.3608070099 0.4487000394 0.1819254870 -0.5356333189 -0.0023929641 0.3214491913
0.1867257724 0.5904520293 0.0081544637 -0.5256144982 0.0000000000 0.3461521896
-0.0357143189 0.6419257756 0.1570132745 -0.5199683557 0.0249781768 0.3214285842
0.4421988970 0.8230982626 -0.0662604238 -0.5309951764 0.0091257851 0.3350165832
0.4558807174 0.9589144315 -0.0252145696 -0.5326353191 0.0052447853 0.3334547262
0.0239520340 0.9038274712 -0.3214285128 -0.5011330356 0.0086136065 0.3500794393
0.0824455655 0.6071428138 0.1385506687 -0.4992159643 0.0351489261 0.3214285842
0.4012237213 0.3828660084 0.1518197392 -0.4643749668 0.0025020712 0.3214285842
0.3765083660 0.2591700172 -0.1979369144 -0.5060901424 -0.0020260356 0.3264756910
0.4048990425 0.8779991873 -0.1308150621 -0.5276036052 0.0056228210 0.3427354398
0.4429476469 0.6428570969 0.0157064989 -0.5209674985 0.0247005697 0.3280379766
0.3697174022 0.6651801668 -0.2219988770 -0.4804355014 0.0098126064 0.2938615862
0.0865539938 0.6071428138 0.2037561640 -0.4987745001 0.0333464619 0.3329668334
0.2097220564 0.6071428138 0.1850404868 -0.4965962502 0.0330628548 0.3313402978
0.4568514317 0.6678796666 -0.1182941701 -0.4724736805 0.0140039276 0.3046226568
0.3042931568 0.8271302623 -0.2438069826 -0.4833473226 0.0027613927 0.2901672650
0.4667388238 0.8652491525 0.0073596780 -0.5317369620 0.0094638565 0.3317038334
0.3742904733 0.6428570969 0.1451857753 -0.5081514994 0.0324196763 0.3287004765
0.4454970396 0.6071428138 0.0690221022 -0.4890880008 0.0336836762 0.3214285842
0.1502074893 0.9262518267 -0.3214285128 -0.4939891076 0.0013871428 0.2864832653
0.3571427959 0.5692004236 0.1270893124 -0.4678209666 0.0149754989 0.3214285842
0.3714754378 0.6520775606 -0.1642387383 -0.5256357125 0.0083921065 0.3442651897
0.3672648309 0.3582912244 0.1846689154 -0.5356230332 -0.0024229284 0.3216956913
0.4348788261 0.9692884665 -0.1512529892 -0.4726845377 0.0052928211 0.3012155856
0.3094631565 0.8117521206 -0.2420836256 -0.4832062155 0.0029269284 0.2902898007
0.3241314411 0.9535846105 -0.2371941973 -0.4816340013 0.0020562856 0.2911177292
0.4843331083 0.6240763126 0.2142857347 -0.5083534994 0.0294276765 0.3364648688
0.4915494292 1.0311014263 -0.0253514625 -0.4658482524 0.0042368568 0.3147889418
0.2408996614 0.6428570969 -0.0661678524 -0.5062170710 0.0345732832 0.3248108697
0.4999999286 0.7986019072 0.1028524927 -0.4779575373 0.0197748557 0.3212711199
0.2822762298 0.6428570969 -0.2328316262 -0.5174938559 0.0085428565 0.3487170822
0.1942530576 0.6071428138 -0.1038879569 -0.4962680717 0.0346847118 0.3214285842
0.4820378941 1.0269707838 0.0532567462 -0.5339315690 0.0026085712 0.3305411192
0.3390739401 0.6428570969 -0.0499206393 -0.5149196418 0.0285027122 0.3272487266
0.1761348803 0.8273177266 -0.3214285128 -0.4890658579 0.0025232498 0.2877583366
0.0714285306 0.5505818892 -0.1363660260 -0.5341446761 0.0066489995 0.3214285842
-0.0357143189 0.6213684199 -0.2878975866 -0.5044936068 0.0341094261 0.3235611555
0.3834187583 0.1422458827 -0.2048473425 -0.4888435365 -0.0006673928 0.3428350112
0.0083906065 0.0814865299 -0.2026447355 -0.5000000000 0.0049968925 0.2860658010
0.1985438430 0.8852571153 -0.3081135851 -0.4877841080 0.0022223213 0.2882138366
0.3801369728 0.2856255153 0.1581696316 -0.5000000000 -0.0036190712 0.2859200510
0.1664241667 0.9882422866 -0.2897632650 -0.5112789635 0.0018265356 0.3552655103
0.4060181853 0.6306365264 -0.1945440575 -0.4778442516 0.0130787491 0.2973166930
0.0582108887 0.3149530132 -0.1700892021 -0.4690019308 -0.0013307856 0.3112935135
0.4521162177 0.6428570969 0.1906888435 -0.5151339632 0.0299399979 0.3303160478
0.4857959653 1.0328007477 0.0645309954 -0.5341129261 0.0021926427 0.3301362621
0.4999999286 0.8285710480 0.0112256778 -0.4697308950 0.0131699991 0.3168679417
0.4764812160 0.6071428138 0.1357683474 -0.4908616078 0.0327258548 0.3262456910
0.0656452810 0.4190342558 -0.1786595230 -0.4902281436 0.0030486426 0.2933468719
0.1570840245 0.6428570255 0.1933439505 -0.5021973213 0.0305509264 0.3375860830
0.1621526670 0.6071428138 -0.0871564223 -0.4971571073 0.0348147832 0.3214285842
0.4999999286 0.8472690109 0.1446234182 -0.4673768952 0.0044506068 0.3214285842
0.3095733707 0.5832836012 0.0876381009 -0.4792682872 0.0279808194 0.3188786915
0.1356488117 0.6428570969 0.1395098115 -0.5186987844 0.0267594267 0.3218608699
0.0917403506 0.5357142474 0.1223659913 -0.4891088222 -0.0312029978 0.3214285842
0.0563801031 0.8294668336 -0.3214285128 -0.5000000000 0.0000000000 0.2857143010
0.4454722539 0.6428570969 0.1474328109 -0.5114958206 0.0321273906 0.3271672623
0.0042060711 0.0588856029 -0.1776791302 -0.5356235332 0.0025445355 0.3214285842
0.4168762559 0.9094829708 -0.1188378487 -0.5283418194 0.0059656781 0.3414870470
0.4889007865 0.9383012901 -0.0332973905 -0.4673605738 0.0076941423 0.3135111205
0.1660908453 0.5714285306 0.0208919985 -0.5000000000 -0.0357142832 0.3214285842
0.4098710422 0.6071428138 -0.0199524629 -0.4816874299 0.0269121409 0.3181339416
0.3826399727 0.1430407041 -0.1768285231 -0.4838165369 0.0007279285 0.3274207980
0.2989633001 0.5714285306 -0.1066395638 -0.5089659636 -0.0278036409 0.3397630114
0.1147420989 0.8185697272 -0.3069906209 -0.5101237136 0.0015726427 0.3555499389
0.0205855700 0.6428570969 -0.1636385597 -0.5021441427 0.0351193903 0.3258348696
0.2658944810 0.8597635457 -0.2632130883 -0.4839908583 0.0021777498 0.2896536936
0.4999998571 0.8094409065 0.2039285926 -0.4642857168 0.0000000000 0.3214285842
0.4002375786 0.8890032936 -0.2032148426 -0.4775760373 0.0066140352 0.2954078003
0.2269508052 0.5858373153 -0.0483793894 -0.5266263552 -0.0026716070 0.2982033358
0.3721457948 0.6428570969 0.1154634560 -0.5082319994 0.0344177118 0.3224603698
0.2227484484 0.6071428138 0.1802229871 -0.4960355360 0.0331229262 0.3306577264
0.3562175817 0.3237967983 -0.1911573435 -0.5000000000 0.0024351784 0.2857975153
0.0541167461 0.4940577147 0.1437060254 -0.5000000000 0.0047240711 0.3568290459
0.1353024903 0.6428570969 -0.1591062743 -0.5044187854 0.0347715332 0.3259527267
0.1330228834 0.9682849308 -0.3214285128 -0.4955516789 0.0010265356 0.2862282653
-0.0058861782 0.6428570969 0.1146073847 -0.5006894285 0.0355833903 0.3218737270
0.0307413192 0.4303791478 0.1309570621 -0.5356335689 0.0023991784 0.3214285842
0.4917079292 0.6923175577 -0.0248758911 -0.4704874664 0.0166346060 0.3130890491
0.1153504203 0.7487801251 -0.3214285128 -0.4961249288 0.0008942499 0.2863248010
0.0193204986 0.6428570969 0.0555963532 -0.5013889999 0.0354245332 0.3227448341
0.0683552451 0.4569738602 0.1239199197 -0.4643730025 -0.0024942855 0.3214285842
0.0003801071 0.6071428138 0.1589544886 -0.5014454285 0.0354842475 0.3214285842
0.1487287394 0.6428570969 -0.2093848779 -0.5119381063 0.0283718194 0.3295547979
0.2818194084 0.6428570969 -0.1467349181 -0.5198548557 0.0224934627 0.3318001549
0.0397708543 0.1064633138 -0.2066811638 -0.4826321441 0.0010754285 0.2929847291
0.4942206790 0.8767660088 -0.0173376773 -0.4677976094 0.0099750707 0.3147498347
0.4975689287 0.6428570969 0.2093829493 -0.5186029987 0.0288872837 0.3306569407
0.3843251154 0.6071428138 -0.1219861699 -0.4772177516 0.0201502128 0.3105280492
0.4275070766 1.0714284949 -0.1328643477 -0.4866223224 0.0037306426 0.3196878700
0.4624964313 0.6428570969 0.1257738482 -0.5105806421 0.0331713191 0.3251031553
0.1247412411 0.7978395859 -0.3036576212 -0.5104034635 0.0016231070 0.3554815818
0.0709981378 0.4977325002 0.1431810969 -0.5000000000 0.0047216425 0.3568293674
0.4156302917 0.6428570969 0.1568493459 -0.5108941064 0.0317301406 0.3286021908
0.4508497892 0.9762485374 -0.0403074257 -0.5320699977 0.0047794282 0.3349028332
0.3202499771 0.7377926259 -0.2384880187 -0.4831192512 0.0038974640 0.2905649078
0.1528556319 0.6071428138 -0.2725893734 -0.4924258934 0.0258471767 0.3103007278
0.0236149269 0.2678564809 0.1760205231 -0.5000000000 0.0048736425 0.3568083674
0.1380645973 0.6071428138 -0.2747034447 -0.4931822862 0.0267345338 0.3114560492
0.2019913070 0.9540259676 -0.2779075873 -0.5122611777 0.0026900712 0.3547639032
0.0260827839 0.6071428138 0.1591104886 -0.5007162142 0.0353813546 0.3214285842
0.0488194608 0.2112263063 0.1654662382 -0.4747461804 0.0000000000 0.3466824038
0.2259725196 0.6428570969 -0.2524161605 -0.5142634633 0.0126670348 0.3459114753
0.2100289493 0.6071428138 0.0690337451 -0.4956989646 0.0346308904 0.3214285842
0.1268787052 0.6471306323 -0.3214285128 -0.4931033219 0.0015915356 0.2871806938
-0.0161208917 0.6428570969 0.0327164977 -0.5007577857 0.0355024975 0.3230109769
0.4999999286 1.0414775328 0.0237254983 -0.4660356810 0.0042785711 0.3183668701
0.3020656570 0.5907913864 0.0996364215 -0.4884842151 0.0297455693 0.3363013688
0.4882506080 1.0451267825 -0.0352478903 -0.4659154667 0.0037203926 0.3138915847
0.4999999286 1.0377116044 0.0851605296 -0.4660397524 0.0029889284 0.3206217628
0.1756632017 0.6071428138 0.1175504202 -0.4966283931 0.0347718189 0.3214285842
0.3556631175 0.5046359282 -0.1785713801 -0.5000000000 0.0041405711 0.2862725510
0.1903815578 0.9808415728 -0.3135551205 -0.4898957507 0.0019788927 0.2874600152
0.1809315942 0.9621741456 -0.2849275154 -0.5113772492 0.0019613570 0.3552128675
0.1754457732 0.6071427423 -0.1965190217 -0.4903353221 0.0293394979 0.3186990487
0.2194823058 0.8723800448 -0.2941545861 -0.4857216439 0.0020726427 0.2889835151
0.3775645087 0.2420884470 -0.1969936288 -0.5000000000 0.0024627855 0.2857994082
0.1750194875 0.6087488137 -0.3214285128 -0.4860602867 0.0032168569 0.2888200508
0.2833390869 0.9294193265 -0.2507916249 -0.5188870701 0.0027869641 0.3514068320
0.3876606509 0.0727497091 0.1996475929 -0.5353812475 -0.0046851782 0.3210592985
0.1277763123 0.5920621006 -0.0835649226 -0.5213344270 0.0280787480 0.3214285842
-0.0288232479 0.6071428138 0.1280971694 -0.5023618213 0.0355949975 0.3214285842
0.0620767099 0.3690739022 -0.1570707388 -0.4644467168 -0.0032007855 0.3214285842
0.3214285128 0.5885043508 -0.1107187778 -0.4716946092 0.0151849989 0.3324844048
0.4074962566 0.6071428138 0.0646898882 -0.4901580721 0.0338362833 0.3214285842
0.3717900092 1.0714284949 -0.1861847724 -0.5088829279 0.0044923211 0.3293974765
0.2116058420 0.6071428138 0.1689785951 -0.4947268575 0.0337036047 0.3279535123
0.1416506327 0.7856476939 -0.3214285128 -0.4931122862 0.0015894642 0.2869306224
0.2211310556 0.9433843612 -0.2930554076 -0.4865991081 0.0018208927 0.2886832294
0.0407858185 0.3541817961 -0.1636882740 -0.5000000000 0.0048165711 0.2860409081
0.4361623260 0.9818782870 -0.0843697797 -0.5300677479 0.0049893211 0.3388557615
0.3710315449 0.3055580853 0.1655998453 -0.5354641760 -0.0035152497 0.3198775129
0.2348113047 0.6428570969 -0.1177670987 -0.5093293922 0.0319128906 0.3266592981
0.0933966362 0.6428570969 -0.0248262125 -0.5031352855 0.0350853904 0.3239949411
0.4999999286 0.7276003052 0.0952195646 -0.4815351442 0.0250867125 0.3209909414
0.4490975751 0.9394039329 -0.0455641396 -0.5318561763 0.0058169639 0.3348434404
0.4558982889 0.6428570969 0.0715172092 -0.5101326421 0.0340284261 0.3232425126
0.0398980686 0.2447248039 -0.1968053074 -0.4965087145 0.0024721070 0.2873361223
0.1039023497 0.6071428138 0.0316505335 -0.4987058215 0.0350557118 0.3214285842
0.4980720001 1.0714284949 0.0159536417 -0.4736143947 0.0075894995 0.3189027272
0.1177640273 0.6071428138 -0.2932680862 -0.4939036433 0.0191731058 0.3045920497
0.1251420625 0.6584051315 -0.3035239426 -0.5083974637 0.0015769999 0.3559569031
0.0192228558 0.9694951450 -0.3214285128 -0.5002605357 0.0059123924 0.3522252606
0.3718756163 1.0243393197 -0.1638385597 -0.5257417839 0.0052686068 0.3454628325
0.3036149783 0.9656661453 -0.2320991977 -0.5217437127 0.0028384284 0.3493901179
0.4094835065 0.6276938837 0.2142857347 -0.5069531066 0.0294713908 0.3372723331
0.0713885663 0.6428570969 -0.1990448429 -0.5032760355 0.0349139618 0.3264140481
0.3041877283 0.6817640942 -0.2315264477 -0.5185430344 0.0056261425 0.3509880821
0.4281836123 0.8176320130 -0.1612958099 -0.4749718232 0.0093712136 0.2997602643
0.2126358777 0.6428570255 -0.2105072707 -0.5163456060 0.0229849626 0.3333883690
0.4901121078 0.9067645067 -0.0296632836 -0.4677057166 0.0088655708 0.3136993347
0.0314795692 0.6428570969 0.0359838546 -0.5016969999 0.0353600332 0.3230403698
0.4999999286 0.7842424440 0.1488356322 -0.4696184665 0.0076779637 0.3214285842
0.4267790052 0.0250935339 0.2085689494 -0.4642956811 0.0002796071 0.3214285842
0.4957731074 0.6737716662 0.0944625290 -0.5147440347 0.0296529265 0.3242009054
0.1408654185 0.6428570969 0.0354323189 -0.5038821426 0.0350216404 0.3232213698
0.4481948608 0.9981277144 -0.0482722823 -0.5316941049 0.0042543568 0.3359126189
0.1695332736 0.6071428138 -0.0666539952 -0.4969349288 0.0347862118 0.3214285842
-0.0084012851 0.6071428138 -0.1883045937 -0.5020193213 0.0354952475 0.3214285842
0.3526001891 0.6428570969 0.1706509521 -0.5091529279 0.0311965335 0.3311674406
0.3849186868 0.2963177288 -0.1931200933 -0.5000000000 0.0024444641 0.2857981582
0.1621728813 0.8086619422 -0.3214285128 -0.4906784292 0.0021511427 0.2874321580
0.1832670583 1.0586554601 -0.3182980844 -0.4916569292 0.0017850356 0.2868305152
0.0219990699 0.3079872637 0.1699808807 -0.5354730689 0.0029229998 0.3228791555
0.1776106302 0.6867973795 -0.3214285128 -0.4868379652 0.0030373926 0.2885068365
0.3883273294 0.0634158169 -0.1778201659 -0.4928100005 0.0003227143 0.3241004054
0.1917985577 0.6428570969 -0.1938449504 -0.5146087490 0.0261988196 0.3305677264
0.2657136239 0.6428570969 0.0062541781 -0.5064712138 0.0345962118 0.3238300483
0.2520843391 0.8041841211 -0.2612098385 -0.5146744632 0.0041604283 0.3535390105
0.4232841126 0.6428570969 -0.1042872426 -0.5288241051 0.0148649275 0.3356468332
0.2454685539 0.5732228162 0.0668972095 -0.5233919626 0.0000000000 0.3483926180
0.2103905207 0.6071428138 -0.1149918132 -0.4958230717 0.0346191761 0.3214285842
0.4408257899 0.6071428138 -0.0345852475 -0.4747641804 0.0218365699 0.3157736203
0.0263726053 0.2722907306 0.1396727757 -0.5000000000 -0.0048707139 0.2860483724
0.3331105476 0.6428570969 -0.0935157790 -0.5222383198 0.0218902842 0.3309072264
0.4507656821 0.9993324286 -0.1274227052 -0.4701092164 0.0046403925 0.3042638354
0.4999999286 0.8068884424 0.0128425705 -0.4702825021 0.0141800347 0.3168486917
0.2890044079 0.6071428138 -0.1998170572 -0.4834794655 0.0214843913 0.3084378708
0.4976684645 0.9101517564 0.1001486357 -0.5270888195 0.0117480706 0.3269996909
0.4999999286 0.6319432406 0.1824505584 -0.4699506093 0.0081561780 0.3214285842
0.0466466038 0.6071428138 -0.2941313004 -0.4980938216 0.0317648192 0.3175498702
0.2168028774 0.6071428138 -0.1786597730 -0.4877827152 0.0277098194 0.3174274059
0.2542835176 0.6071428138 0.1409179185 -0.4951270718 0.0342873547 0.3232852269
0.1975497716 0.6428570969 0.1741874876 -0.5040462497 0.0325395691 0.3318449406
0.4789444301 0.7773039802 0.0439763897 -0.5292982836 0.0138507133 0.3295895836
0.0389309972 0.0450344254 -0.1767534159 -0.4646205025 -0.0048250354 0.3214285842
0.4316736477 0.8903322935 -0.0978360287 -0.5295181050 0.0075705352 0.3387437972
0.2301713050 0.6428571684 0.0392077829 -0.5056521067 0.0347511761 0.3233096198
0.3355156546 1.0275203909 -0.2001985214 -0.5236412840 0.0045555711 0.3475820823
0.3206370842 1.0694872093 -0.2383589830 -0.4810627156 0.0011818928 0.2913081578
0.2210774485 0.6428570969 -0.0622849598 -0.5058084996 0.0346398190 0.3247247625
0.4999999286 0.7508853749 0.0571618173 -0.4778576802 0.0218351056 0.3192039772
0.4816213942 1.0085898208 0.0520074249 -0.5337243190 0.0033181069 0.3305235835
0.4861671438 0.8225773341 -0.0414981399 -0.4692009665 0.0120044991 0.3120854777
0.0457919967 0.1972731645 0.1684937380 -0.4747461804 0.0000000000 0.3466824038
0.5000000000 0.6577379530 0.2088977708 -0.4642857168 0.0000000000 0.3214285842
0.1608638814 0.6071428138 -0.2126524848 -0.4910938578 0.0293124979 0.3180497630
0.3055106567 0.7154439846 -0.2302034478 -0.5190993558 0.0053258925 0.3506645107
0.4110454349 0.6197582772 -0.1870032366 -0.4773692873 0.0135272847 0.2980915501
0.2633843026 0.6071428138 -0.0043303211 -0.4942545004 0.0344121761 0.3214285842
0.4983621430 0.7291124479 -0.0049133925 -0.4695357879 0.0154622489 0.3151799061
-0.0128945348 0.6071428138 -0.1364943474 -0.5021076784 0.0355161760 0.3214285842
0.2479770537 0.9210899342 -0.2751580161 -0.4838712512 0.0016482856 0.2896990150
0.5000000000 0.8258434767 0.0286971408 -0.4724460020 0.0154677846 0.3179000844
0.3686446522 0.3389746901 -0.1558465603 -0.4747971447 0.0017250713 0.3224805127
0.1707553449 0.5855599225 -0.0714285306 -0.4825432870 0.0000000000 0.2918697292
0.1923191291 0.6071428138 0.1891692722 -0.4970767859 0.0330558548 0.3318371192
0.4999999286 0.8053805496 0.1853838082 -0.4642857168 0.0000000000 0.3214285842
0.1398598472 0.6071427423 -0.2002704500 -0.4948942147 0.0324729263 0.3202722271
0.2452505182 0.6395167043 0.2142857347 -0.5059571424 0.0294116050 0.3379856544
0.0134144633 0.1878024866 0.1561987388 -0.5356278903 0.0024811070 0.3214285842
-0.0188022487 0.6071428138 -0.0900709579 -0.5022396784 0.0355425332 0.3214285842
0.0164038917 0.9206732914 -0.3214285128 -0.5000000000 0.0000000000 0.2857143010
0.3963664717 0.6387802044 -0.2090215565 -0.4787983229 0.0125258920 0.2958818360
0.4646737168 0.6428570969 0.0415561756 -0.5192826415 0.0264002838 0.3269574052
0.1694335593 0.6428570969 0.0681498523 -0.5043434283 0.0349784261 0.3228057627
0.0421181041 0.6428570969 0.0505727821 -0.5018607499 0.0353472475 0.3228517269
0.0548831747 0.6258956696 -0.3214285128 -0.5000000000 0.0000000000 0.2857143010
0.2982838001 0.6428570969 0.1826188084 -0.5076581780 0.0307329621 0.3333836905
0.4999999286 0.7282422694 0.0293950336 -0.4739207519 0.0191871058 0.3174191916
0.0040490354 0.0566869602 0.1761412731 -0.5355936760 0.0026746784 0.3216955842
-0.0250954268 0.6071428138 0.1525138462 -0.5021979284 0.0355841403 0.3214285842
0.1420234541 0.6071428138 0.2102381993 -0.4995289286 0.0327456762 0.3349165832
0.2338421262 0.8000309071 -0.2845813368 -0.4843577511 0.0023632498 0.2894753008
0.4999999286 0.8366575474 0.1363906331 -0.5241384626 0.0155367132 0.3240011911
0.4985361072 0.9881561080 -0.0043915711 -0.4658915024 0.0058233567 0.3166185488
0.3930680434 0.6428570969 -0.0316367835 -0.5219149627 0.0232686412 0.3292854765
-0.0357143189 0.6243323840 -0.0938212790 -0.5165188560 0.0268124981 0.3214285842
0.1713152735 0.5741699233 0.0072561423 -0.5244414625 -0.0013227499 0.2957623360
0.4999999286 0.8397966900 0.1236823840 -0.5232723198 0.0166323202 0.3246699054
0.0322344977 0.6071428138 0.0635146383 -0.5006947142 0.0353457832 0.3214285842
0.4043762211 0.6690987379 -0.1970069859 -0.4778837516 0.0120875706 0.2969190859
0.3586624744 1.0233590340 -0.2256838410 -0.4796016800 0.0019154284 0.2923828005
0.4800534300 0.9475603252 0.0473032466 -0.5330302476 0.0056837853 0.3304864050
0.4053452568 0.1504184535 0.2035415569 -0.5000000000 0.0025445355 0.3570521174
0.0187553558 0.0984121358 -0.1715419163 -0.5000000000 -0.0045574640 0.3568367245
0.0341157118 0.2143689133 -0.1989735929 -0.4975310359 0.0021654641 0.2868908724
-0.0357143189 0.6247139911 0.0966491360 -0.5166862845 0.0266277838 0.3214285842
0.3925609005 0.1493408465 -0.2139894847 -0.4919413220 -0.0000209286 0.3336631905
0.3043905854 0.8551984032 -0.2437744826 -0.4831654655 0.0025595712 0.2902430150
0.0233106769 0.1375894902 0.1589158101 -0.5000000000 -0.0068138209 0.2863876938
0.0868627795 0.6428570969 -0.2388052687 -0.5074223209 0.0316555692 0.3283674408
0.0357142474 0.5061934638 0.1100482779 -0.5356488903 0.0019636784 0.3214285842
0.4999999286 1.0596288172 0.0559642817 -0.4650301454 0.0021509998 0.3195501557
-0.0179669630 0.6071428138 0.0924453148 -0.5020830356 0.0355493189 0.3214285842
0.0599877100 0.3398283329 -0.1809207728 -0.4828387512 0.0015422856 0.2983093001
0.1837762726 0.9421055756 -0.2839792297 -0.5114966420 0.0020597856 0.3551522246
0.0287919979 0.0275215337 -0.1766055588 -0.5000000000 -0.0049128211 0.3567986888
0.4292958265 0.6428571684 0.0475593895 -0.5103235707 0.0335306047 0.3237751197
0.2830618726 0.6428570969 -0.0766954945 -0.5095626422 0.0323255691 0.3259381196
0.4842756797 0.9894097150 0.0599701743 -0.5336065333 0.0038959640 0.3301556907
0.0778462087 0.6480667394 -0.3214285128 -0.4995365357 0.0001069643 0.2857678367
0.0885913865 1.0680843523 -0.3157075489 -0.5112839278 0.0014857856 0.3552804032
0.1264102410 0.6071428138 0.1744790590 -0.4987080715 0.0349036761 0.3235505840
0.4264454338 0.8445789040 -0.1639031311 -0.4750592518 0.0086551065 0.2993963358
0.3997500429 0.6071428138 0.1303219550 -0.4902277150 0.0334452476 0.3241818697
0.3561785103 0.7174214845 -0.1795357015 -0.5247107482 0.0068942495 0.3462513681
0.4048350782 0.6911423792 -0.1308790978 -0.5277243552 0.0106593564 0.3400998329
0.2253783768 0.6071428138 -0.0542026390 -0.4953579289 0.0345622832 0.3214285842
0.3293261550 0.8885478294 -0.2354626260 -0.4818055370 0.0025809641 0.2911124435
0.4935336076 0.9286935765 -0.0193988558 -0.4671248238 0.0080440351 0.3148254061
0.4059355067 0.6071428138 -0.1405705257 -0.4759169660 0.0175051773 0.3063026210
0.0694011022 0.4716155377 0.1286265265 -0.4643707883 -0.0024621427 0.3214285842
0.3436139755 0.3447017254 -0.1774257373 -0.5353868189 -0.0048228211 0.3214285842
0.2165490202 0.7173605202 -0.2730550162 -0.5128722134 0.0031938212 0.3544535818
0.1601297743 0.6777529159 -0.3214285128 -0.4890636079 0.0025237855 0.2880267294
0.1757842017 0.8757759017 -0.3214285128 -0.4898128222 0.0023508927 0.2875049795
0.0319541763 0.6428570969 -0.0963942788 -0.5021471784 0.0351767118 0.3249057268
0.0714285306 0.5611942813 -0.1277495266 -0.5330242834 0.0113950349 0.3214285842
-0.0270949266 0.9986410001 -0.3214285128 -0.5000431786 0.0009799999 0.3563277603
0.4760785017 0.9272983981 -0.0717642806 -0.4685400022 0.0081244994 0.3096722279
0.2741540518 0.5714285306 0.0386624972 -0.5000000000 -0.0357142832 0.3214285842
-0.0327336405 0.6822847727 -0.3214285128 -0.5013879999 0.0314967835 0.3309455835
0.0135273919 0.6850237368 -0.3214285128 -0.5027733927 0.0183024630 0.3421832970
0.0310465692 0.6164932417 -0.3214285128 -0.5000000000 0.0000000000 0.2857143010
0.3454705825 0.9091781136 -0.2300811264 -0.4809311085 0.0026017855 0.2916728363
0.1197693843 0.5714285306 -0.0792356372 -0.4836745369 -0.0289520694 0.3214285842
0.0577193173 0.6071428138 -0.0375309973 -0.5000529286 0.0352376403 0.3214285842
0.2119550206 0.6428570969 -0.0385501401 -0.5055473925 0.0347005689 0.3243760125
0.4692224665 0.9665388952 0.0148105704 -0.5328851048 0.0055438210 0.3317790477
0.1718000234 0.8025725855 -0.2879713009 -0.5112786421 0.0018500713 0.3552644746
0.1033364212 1.0495296036 -0.3107925135 -0.5112829992 0.0015503213 0.3552775818
0.3761582946 0.9216596127 -0.1595558815 -0.5259375696 0.0054511425 0.3451622611
0.4100753993 0.1331649548 0.1952621646 -0.5000000000 0.0049627139 0.3567960817
0.4999999286 0.7126558420 0.1376028830 -0.5172263559 0.0254877125 0.3227776198
0.2525752677 0.6071428138 -0.0580924601 -0.4945971790 0.0344526404 0.3214285842
0.4136836847 0.0000000000 -0.2077122709 -0.4941209290 0.0208266057 0.3273076552
0.3780026516 0.4810256442 0.1442124897 -0.5000000000 -0.0023820713 0.2857938367
0.4597630386 0.6213749556 -0.1139267061 -0.4724119305 0.0152841418 0.3051571925
0.3220965484 0.6428570969 0.0099798921 -0.5075842137 0.0344272833 0.3238668697
0.1042930997 0.6071428138 -0.2805556585 -0.4949473932 0.0286873551 0.3139251919
0.3689313665 0.4702990736 0.1471001681 -0.5000000000 0.0047397854 0.3568268674
0.4430585041 0.6428570255 0.1246437768 -0.5096274993 0.0332770691 0.3254823339
0.1875726295 0.6428570969 0.1180365273 -0.5045393925 0.0349909618 0.3221317984
0.4687397879 0.6282786337 -0.0937805290 -0.4716824663 0.0157268917 0.3070620138
0.0429894255 0.3559638317 0.1277194909 -0.5000000000 -0.0048153925 0.2860407296
-0.0088286065 0.6071428138 -0.0037747854 -0.5018966784 0.0355072117 0.3214285842
0.0022222498 0.8366762617 -0.3214285128 -0.5010308214 0.0174353559 0.3426762255
0.1144905990 0.6071428138 0.1409795971 -0.4982962501 0.0350213904 0.3214285842
-0.0357143189 0.6404425257 0.0724448520 -0.5268100338 0.0200688200 0.3219782270
0.2004438428 0.9909191078 -0.3068468352 -0.4891394651 0.0018527499 0.2877483723
0.3989586144 0.9167203988 -0.2051333782 -0.4776142159 0.0058962496 0.2951073718
0.1132144562 0.6071428138 0.0435024612 -0.5209605699 0.0270321409 0.3214285842
0.3447690111 0.5838023154 0.1222439556 -0.4703740378 0.0191877843 0.3214285842
0.3365238688 1.0375049259 -0.2330634119 -0.4805326085 0.0015802142 0.2917242292
0.2628601241 0.8251102268 -0.2652360525 -0.4842088226 0.0024048927 0.2895617293
0.1226891341 1.0080820351 -0.3043416568 -0.5112817492 0.0016350356 0.3552738675
0.4780886444 1.0011308571 0.0414090685 -0.5335329262 0.0037830712 0.3308972264
0.4823773941 0.9216545056 -0.0528674605 -0.4681154666 0.0083242137 0.3114989063
0.0263588910 0.0975306716 0.1879268080 -0.4747461804 0.0000000000 0.3466824038
0.4344611833 0.9473568966 -0.1518795249 -0.4729588234 0.0059025710 0.3010855856
0.4708136807 0.7205284128 -0.0875589223 -0.4707297164 0.0133851062 0.3078101566
0.3784027944 0.2061508067 -0.1998314500 -0.5119696777 -0.0027320355 0.3225982627
0.0355666760 0.6428570969 -0.0427283898 -0.5020406070 0.0352392832 0.3241555126
0.3955189717 0.7003740214 -0.1401951686 -0.5271276052 0.0094826422 0.3415481185
0.0361106760 0.8134390490 -0.3214285128 -0.5000000000 0.0000000000 0.2857143010
0.3679416523 0.7965267288 -0.2225908412 -0.4801054300 0.0064852138 0.2932102291
0.0259578196 0.0798814943 0.1883279151 -0.4747461804 0.0000000000 0.3466824038
0.4906901078 0.6920622006 0.0792133872 -0.5184082487 0.0259101053 0.3256502982
0.4049160068 0.0300352121 0.1764260588 -0.5000000000 -0.0049002139 0.2860571224
0.2542046247 0.6419019184 -0.2710064092 -0.4853636082 0.0036624640 0.2890808365
0.1742448447 0.7059955210 -0.2871564438 -0.5112784635 0.0018607499 0.3552640103
0.1161363131 0.9932796433 -0.3065259067 -0.5112821778 0.0016063570 0.3552751175
0.0187184629 0.2050633425 0.1849909868 -0.5000000000 0.0049151782 0.3568026531
0.4783610730 0.7578975887 0.0422263898 -0.5285063551 0.0151278561 0.3294606550
0.3410680114 0.6967560574 -0.1946461647 -0.5233420698 0.0063190353 0.3473803323
0.3234005840 0.9354162903 -0.2123135563 -0.5228893555 0.0041437497 0.3482374394
0.0187983558 0.0412508185 0.1726784877 -0.5000000000 -0.0072824995 0.2864712653
0.0324504263 0.0707517807 0.1818352727 -0.4747461804 0.0000000000 0.3466824038
0.0860238510 0.6071428138 -0.2752074803 -0.4955853575 0.0303514264 0.3166617274
0.2884099794 0.6071428138 0.1466714895 -0.4938285004 0.0342969261 0.3225694055
0.2733360876 0.6071428138 -0.1816783085 -0.4838989297 0.0238042840 0.3126280848
0.0035466783 0.6428570969 -0.2862169438 -0.5022121427 0.0350035689 0.3275344409
0.3821695084 0.7726532662 -0.1535446319 -0.5262330696 0.0062027853 0.3444592254
0.3999706857 0.6428570969 -0.0130441776 -0.5188540344 0.0259448196 0.3278756194
0.3540707247 0.6198971343 0.2142857347 -0.5003172500 0.0299237836 0.3407235114
0.1168597417 0.8328626548 -0.3062847638 -0.5104548564 0.0015897856 0.3554710460
0.0551914603 0.6428570969 0.1440339897 -0.5223868198 0.0238317126 0.3216579056
0.0424661755 0.4333652905 0.1166621345 -0.5000000000 -0.0047641782 0.2860336581
0.0309296049 0.3765249017 0.1247821697 -0.5000000000 -0.0048017854 0.2860388724
0.4999999286 1.0084467494 0.1231884198 -0.4642857168 0.0000000000 0.3214285842
0.1082044566 0.5724901734 -0.0966335645 -0.5162478203 0.0317449620 0.3214285842
0.4999999286 0.9565535388 0.1152660989 -0.4682745737 0.0057430710 0.3214285842
-0.0101817493 0.6071428138 0.0231434626 -0.5019150356 0.0355141403 0.3214285842
-0.0306115335 0.6071428138 -0.2875523009 -0.5027153212 0.0355790689 0.3214285842
0.4387394329 0.9123561848 -0.0766386017 -0.5304648193 0.0068021067 0.3371921545
0.2014372713 0.6071428138 0.0898948507 -0.4959249646 0.0346666047 0.3214285842
0.0458471039 0.8031676212 -0.3214285128 -0.5027600355 0.0046472497 0.3536197605
0.4153180060 0.8705000807 -0.1805943085 -0.4761044660 0.0076177137 0.2976736573
0.4475706823 0.8915060077 -0.0501448536 -0.5316803906 0.0071472495 0.3345681547
0.3376896902 0.6129832419 0.2142857347 -0.5000000000 0.0306666764 0.3394871900
0.4102630064 0.1663136667 0.1905266292 -0.5000000000 0.0049407854 0.3567991174
0.0910118149 0.5477454609 0.0951116718 -0.5000000000 -0.0261975338 0.2994628715
0.1444153468 0.6071428138 -0.1774294159 -0.4977048216 0.0348679618 0.3214222985
0.2877184437 0.6428570969 0.1459371681 -0.5077379994 0.0345712475 0.3236185126
0.4533058605 0.9992870001 -0.0329390691 -0.5323887834 0.0040971426 0.3345811904
0.0968778859 0.9908670007 -0.3129454419 -0.5112833921 0.0015220356 0.3552788318
0.4245856840 0.0557997460 0.1988307358 -0.4643148597 0.0008171428 0.3214285842
0.0729024234 0.6428571684 -0.2351039475 -0.5035628212 0.0347434618 0.3269747624
0.0360231046 0.5304684978 0.1071428852 -0.5000000000 0.0000000000 0.2857143010
0.4263890767 0.0305529978 0.1967166288 -0.4643248240 0.0010962499 0.3214285842
0.1017213142 0.7275638052 -0.3113308706 -0.5080420351 0.0014659642 0.3560459746
0.1586841315 0.9707645735 -0.3214285128 -0.4934892505 0.0015024642 0.2865150152
0.4066427924 0.0726980662 0.1733787376 -0.5000000000 -0.0046863568 0.2860342653
0.3633747240 0.4435172540 -0.1826058798 -0.5000000000 0.0023947498 0.2857947296
0.3924397220 1.0017283927 -0.2144247704 -0.4779775373 0.0035793212 0.2938443719
0.0077189637 0.6071428138 -0.0671221738 -0.5014783213 0.0354371403 0.3214285842
0.0248148911 0.6071428138 -0.0277541409 -0.5009696071 0.0353705332 0.3214285842
0.4047224354 0.8505391535 -0.1309917406 -0.5276107480 0.0063463210 0.3423717970
0.2467396609 0.5714285306 -0.0643354597 -0.4987282501 -0.0347833189 0.3227003341
0.1223689555 0.8169356916 -0.3214284413 -0.4961630003 0.0008854642 0.2861942296
0.1405616685 0.6428570969 0.0497084607 -0.5038285354 0.0350422118 0.3230197984
0.0990137072 0.6428570969 -0.0734069233 -0.5034091426 0.0350012832 0.3246881197
0.0995284572 0.6428570969 0.1635379169 -0.5044033925 0.0351735689 0.3234904769
0.0449763896 0.1296702407 -0.1826650584 -0.4645751097 -0.0044007854 0.3214285842
0.3944385433 0.8845995440 -0.1412755613 -0.5269562481 0.0048251425 0.3440622611
-0.0269668195 0.6157736346 -0.3214285128 -0.5000000000 0.0000000000 0.2857143010
0.0848606368 0.6071428138 0.0596731029 -0.4992200001 0.0351338546 0.3214285842
0.0259158910 0.1552348461 0.1563950603 -0.5000000000 -0.0067279995 0.2863723724
0.5000000000 0.7467940895 0.1633386669 -0.4683469308 0.0058472496 0.3214285842
0.3106809421 0.5464618181 0.1216250985 -0.5252538196 -0.0252538196 0.3214285842
0.2746039090 0.6428570969 -0.1147435275 -0.5170277488 0.0259046767 0.3292342265
0.0716320663 1.0694324593 -0.3214285128 -0.4999852857 0.0000033929 0.2857160153
0.4765983945 0.7996162286 -0.0702045307 -0.4698136093 0.0118489277 0.3094766208
0.1839117369 0.6428570969 0.1705723807 -0.5064406781 0.0348090689 0.3243225125
0.3788796872 0.6071428138 -0.2110061992 -0.4797781800 0.0143772133 0.2974634073
-0.0180078201 0.6428570969 0.0583520673 -0.5006347500 0.0355435332 0.3226469055
0.0046022497 0.6428570969 -0.0265703552 -0.5013687856 0.0353570689 0.3238789054
0.2167487345 0.6428570969 -0.0960802074 -0.5058346067 0.0346067475 0.3251939411
0.2145192347 0.7215582342 -0.2974632288 -0.4848472154 0.0027819284 0.2892577651
0.3741209376 0.2623061955 -0.1628682384 -0.4791667872 0.0013348928 0.3235732626
0.4999999286 0.6539855247 0.0613419599 -0.4798561443 0.0259660696 0.3189354772
0.3533022962 0.5044306068 -0.1428570969 -0.4984320715 -0.0019851070 0.3562652960
0.0397921400 0.6428570969 0.1619868099 -0.5104143564 0.0319102120 0.3216190485
0.4380376830 0.9318231120 -0.1465147752 -0.4725969305 0.0063807138 0.3017192284
0.3900829007 0.0388382472 0.1817540227 -0.5353691760 -0.0048555711 0.3212314413
0.2189543058 0.6428570969 0.1711162378 -0.5043561783 0.0334875333 0.3296292979
0.3977134002 0.1127395991 -0.1981800216 -0.4895685365 -0.0029644641 0.3526113320
0.4147744347 0.0387992829 0.1758000589 -0.5000000000 -0.0048562854 0.2860524439
0.3853629725 0.3024589427 0.1896346650 -0.4646170382 0.0048507497 0.3214285842
0.0934939576 0.8287015837 -0.3214285128 -0.4984064287 0.0003677500 0.2858984439
0.0155458203 0.2176424487 -0.1760349160 -0.5356235332 0.0025445355 0.3214285842
0.3689351165 0.4174537202 -0.1808856657 -0.4645622525 0.0043609640 0.3214285842
0.0584784244 0.6071428138 0.1047435639 -0.4999278214 0.0352424975 0.3214285842
0.4999999286 0.8133890490 0.0012527856 -0.4684156808 0.0124812491 0.3161891560
0.3831308298 0.3098688707 -0.1921521648 -0.5000000000 0.0024398927 0.2857978367
0.3872446509 0.8142829061 -0.1484695251 -0.5265269981 0.0055845710 0.3443306540
0.0337882476 0.3901558293 -0.1507030964 -0.5014567499 -0.0027981784 0.3569740816
0.2452566968 0.6297034907 -0.2769716231 -0.4854377153 0.0036818926 0.2890426222
0.0438497826 0.3713369735 0.1255233125 -0.5000000000 -0.0048052139 0.2860393367
0.3054684425 0.6071428138 -0.1083605637 -0.4919353934 0.0317326406 0.3125029062
0.3547427961 0.6071428138 0.1272829195 -0.4920170006 0.0339538190 0.3225185484
0.3746156875 0.8102036207 -0.1610985242 -0.5257993910 0.0059053210 0.3452028682
0.3853216153 0.1054958139 0.1876178437 -0.5353929260 -0.0045206068 0.3208930485
0.0277248552 0.6071428138 -0.1351414189 -0.5009662856 0.0353528546 0.3214285842
0.2362068760 0.6428570969 -0.1028017069 -0.5062453567 0.0345374261 0.3253194410
0.0055108210 0.0335667119 -0.1761737374 -0.5000000000 -0.0048824997 0.3568019388
-0.0357143189 0.6083473137 0.0669695309 -0.5035669997 0.0350028189 0.3214285842
0.3525846534 0.7055054496 -0.1831295226 -0.5244947483 0.0067181424 0.3464527967
0.3185340487 0.5807326371 -0.1364474545 -0.4821353584 0.0225280698 0.3015172642
0.2683221951 0.5836130655 -0.1071428495 -0.5240201054 -0.0081533208 0.3035158712
0.4860235724 1.0606418171 0.0652138168 -0.5344140333 0.0011391428 0.3302084407
0.0698931022 0.4785040372 -0.1768275588 -0.4956423217 0.0041517497 0.2897538007
0.1047209568 0.7646426597 -0.3103310135 -0.5087561065 0.0014961428 0.3558761174
0.4559850031 0.8676747595 -0.1195937772 -0.4706459664 0.0083931780 0.3049314782
0.3543576533 0.5384993187 -0.1604889528 -0.4685778951 0.0166957488 0.3214285842
0.3703757235 0.6428570969 0.0269487481 -0.5084913565 0.0343015690 0.3237043340
0.4999999286 0.7060943424 0.1916591649 -0.5210212842 0.0234327126 0.3271306909
0.3988578644 0.6508165964 -0.2052845211 -0.4785052158 0.0123264991 0.2961936931
0.2496169822 0.6071428138 -0.1829382369 -0.4854920725 0.0252883553 0.3143597633
