0.3095745345 0.8566573811 0.2434070211 -0.0086518953 0.0001028100 -0.0228903294
-0.3480240215 0.6194283669 -0.1232412948 -0.0095219965 -0.0014858470 -0.0239610341
-0.1904333319 1.2395127413 0.3206551155 -0.0092927772 -0.0003458891 -0.0225761680
0.1254960017 1.5445705619 0.3589763670 -0.0092853030 -0.0000234266 -0.0225363165
-0.3169693827 1.8130978148 0.3390847711 -0.0093490702 0.0002399385 -0.0225566587
0.1920484728 0.6617492143 0.2823720331 -0.0092987872 0.0003013723 -0.0225665678
-0.0416928077 1.3058290761 0.3002881731 -0.0092875880 0.0002853502 -0.0255372835
0.2261075612 1.8830563740 0.2880246498 -0.0093320927 -0.0001357082 -0.0255568443
0.2034788662 0.7296012656 0.1058889928 -0.0093145488 0.0015111603 -0.0241392633
-0.0239810567 0.5583530513 -0.3207618383 -0.0092613282 -0.0011036406 -0.0249410637
-0.0004011660 1.1631791545 0.2639634722 -0.0092889977 0.0004399711 -0.0254991507
-0.0896576437 0.6073088588 -0.1339540849 -0.0092909268 -0.0015102866 -0.0239421426
-0.0477050551 0.7196421932 -0.0495957551 -0.0092836828 0.0015110967 -0.0241469752
0.4130220389 0.1302941485 0.1228977422 -0.0095620978 0.0000874997 -0.0228309702
0.0231505283 1.6747143309 0.3558501067 -0.0092863857 0.0001067667 -0.0225399582
0.2504981500 0.0541865496 -0.4231448585 -0.0100623049 -0.0002834438 -0.0251870864
-0.2099700427 1.2615140583 0.3253720134 -0.0092929801 -0.0003156590 -0.0225694827
0.0221706213 0.6405185047 -0.1369859603 -0.0092507862 0.0014915601 -0.0240788789
0.1009504453 1.0001012928 0.2519100209 -0.0092820792 -0.0002589996 -0.0225585999
0.1494457291 0.7282014541 0.0837029718 -0.0092927318 0.0015110922 -0.0241464347
0.2815457188 0.7219885820 -0.1097765843 -0.0094110460 0.0014974460 -0.0240198376
-0.3457295055 1.0568563837 0.2288757822 -0.0092412511 0.0003515008 -0.0255220489
0.0901488729 0.8408454171 0.2143535318 -0.0092885540 -0.0001437260 -0.0255571759
-0.4924818633 0.9426485167 -0.3472904294 -0.0101186963 -0.0006450309 -0.0231024652
0.1453403825 1.0333243865 0.2262717702 -0.0092966491 0.0003167780 -0.0255309328
-0.0861498161 0.6303088320 0.2089856642 -0.0092876607 -0.0015089571 -0.0239241717
0.2338586225 1.8101852545 0.3035223584 -0.0093537734 -0.0003283816 -0.0255268777
0.2183171966 1.6832362994 0.3543673473 -0.0092617704 0.0001029433 -0.0225401066
0.0073962247 0.3648366071 -0.0554366525 -0.0081840533 0.0002002552 -0.0250545733
-0.0424047917 1.8185580564 0.3397284377 -0.0092885964 0.0002430230 -0.0225557501
0.0244736775 0.5774384813 -0.4074443523 -0.0092550275 -0.0013256098 -0.0247282889
0.1290667379 1.5738606736 0.3242221555 -0.0092949017 0.0000038037 -0.0255645154
-0.0827868941 0.5770706904 -0.3853610126 -0.0092884693 -0.0014396252 -0.0235813459
0.3236146486 0.0411625204 -0.3811077441 -0.0079412484 -0.0001312154 -0.0234598609
0.2403418039 0.6901195505 0.2423250476 -0.0092562389 -0.0003310088 -0.0255274213
-0.3958346152 0.7378028567 0.2415174476 -0.0105493807 -0.0000445410 -0.0244012778
0.2089386913 0.7198783295 -0.0430486657 -0.0093286130 0.0015112148 -0.0241354747
-0.4816394296 0.9988684870 -0.0303171400 -0.0092301972 -0.0015119931 -0.0241083306
-0.0718827055 0.2603057436 -0.0745534057 -0.0107437243 -0.0000582736 -0.0237447508
-0.1247809847 1.9247299964 0.3180192168 -0.0093000834 0.0009702493 -0.0228933973
0.1010014611 0.6048775808 -0.1663970634 -0.0092713494 -0.0015102851 -0.0239434145
0.0990494575 1.6985344040 0.3541030690 -0.0092835404 0.0001275828 -0.0225415497
0.0307986842 1.5573725553 0.3586941815 -0.0092839947 -0.0000231965 -0.0225363438
-0.0713707556 0.2347538145 -0.0700347506 -0.0104656045 -0.0007210421 -0.0239385902
0.1520679134 1.8345306482 0.3366161779 -0.0092621414 0.0002477277 -0.0225569055
-0.1901471504 0.8732732261 0.2441504345 -0.0092916431 0.0000866366 -0.0225386227
-0.1451213433 0.5591718566 0.0663719145 -0.0095905775 -0.0011901939 -0.0233078324
-0.2411356335 0.1637663055 -0.3123415790 -0.0104933678 0.0000232161 -0.0232712259
-0.0034494783 0.5061898603 -0.0095009079 -0.0083768191 0.0005304780 -0.0229794690
0.1096991694 1.5660671670 0.3590494028 -0.0092825850 -0.0000124167 -0.0225361530
-0.0737206151 1.5368270551 0.3581745908 -0.0092860207 -0.0000388839 -0.0225366421
-0.2179500780 0.6918330390 -0.3872386403 -0.0092687343 0.0014639346 -0.0244349421
-0.0989257284 0.5951142118 0.1440650859 -0.0095401855 -0.0011222581 -0.0231347062
0.0142407388 0.6164416397 0.0030152628 -0.0092835268 -0.0015096794 -0.0239341914
-0.0170784826 0.7165282012 -0.0991168104 -0.0092878454 0.0015111709 -0.0241464831
0.0733377319 0.5330606170 -0.2743521887 -0.0091246525 -0.0010920931 -0.0248145318
0.2354458637 0.7350631244 0.1895555263 -0.0093261841 0.0015112073 -0.0241345783
-0.4078660482 0.6352019315 -0.1279183942 -0.0103693632 -0.0007007575 -0.0240420514
0.2391265586 0.6034007844 -0.2780021070 -0.0091240680 -0.0014963330 -0.0239024350
0.1154547657 0.5785238755 -0.3104480776 -0.0083396160 -0.0005387230 -0.0248175436
-0.0153752969 1.5352863022 0.3578291196 -0.0092847836 -0.0000421788 -0.0225367450
0.1718783876 0.9935498348 0.2505038102 -0.0092749745 -0.0002438710 -0.0225560711
0.0615423898 1.4138804003 0.3509174041 -0.0092855634 -0.0001589667 -0.0225445312
-0.4162723977 0.9991230151 -0.0346446480 -0.0093214734 -0.0015127109 -0.0240951553
-0.2883979161 1.5044705027 0.3574350357 -0.0092928090 -0.0000576285 -0.0225373644
-0.0944653983 0.6144674769 -0.4412586188 -0.0093695153 -0.0006160652 -0.0254273642
0.1641298323 1.4367819911 0.3182188239 -0.0092949668 0.0001346497 -0.0255584978
0.0993974120 1.6206224493 0.3584622048 -0.0092795595 0.0000400528 -0.0225367163
-0.2813115465 1.4075339310 0.3499175925 -0.0092976318 -0.0001622541 -0.0225449249
-0.4135863160 0.6496291975 -0.0530106531 -0.0107827050 -0.0001740257 -0.0240318212
0.4177608401 1.0160531835 0.0819215309 -0.0092459709 0.0014741965 -0.0237195420
-0.1643843725 0.5693277862 0.0246501533 -0.0104190389 -0.0005032749 -0.0237667283
-0.3196785943 1.7851110265 0.3431808763 -0.0093426256 0.0002091225 -0.0225517586
-0.0046664590 1.3993918127 0.3144910168 -0.0092883587 0.0001854218 -0.0255529800
0.3735041868 0.9848286984 -0.2872989590 -0.0092891779 0.0014394465 -0.0245191513
0.0694389109 1.5937204995 0.3590494028 -0.0092809693 0.0000136114 -0.0225363271
-0.1982517809 0.1780418503 -0.2533201140 -0.0104205940 -0.0001842634 -0.0232100663
-0.0430642108 0.3441325596 -0.0594150689 -0.0102607309 0.0000571530 -0.0251875195
-0.2684397986 1.7302618446 0.3178349761 -0.0092525805 -0.0001797525 -0.0255530845
-0.2591345608 0.5883092417 -0.3479050531 -0.0093490323 -0.0014489331 -0.0236186141
0.2712627333 1.7636515746 0.3414735114 -0.0078875478 0.0001532777 -0.0234939644
-0.0330719389 0.1017830784 0.0026702293 -0.0098617242 -0.0002238196 -0.0226850228
-0.3849590259 0.1253188188 0.0693637598 -0.0094228328 -0.0007564009 -0.0253441513
-0.3061551378 0.2155880002 0.0718961640 -0.0092039208 0.0005706974 -0.0229220601
0.3980675096 0.6859453490 -0.1156282524 -0.0093821606 0.0015061967 -0.0241053143
0.0489678910 0.7038540268 -0.3180893664 -0.0093036070 0.0015095885 -0.0241601566
-0.3698971742 1.3139965183 0.3349998015 -0.0106048695 -0.0000401119 -0.0234706195
0.1285073593 0.5790005378 -0.2035521684 -0.0078087110 0.0000524029 -0.0241098327
0.1441622782 0.2324039141 -0.2432385617 -0.0084172626 0.0006635878 -0.0238245143
-0.0087361606 1.9314575167 0.2976837461 -0.0092790992 0.0013506854 -0.0247102197
-0.0176011229 1.1322857204 0.2544578188 -0.0092889553 0.0004524317 -0.0254953500
0.3640584679 0.6126381394 -0.3079702204 -0.0085364945 -0.0008769577 -0.0237361530
0.3722980904 0.6816595488 0.0470632646 -0.0077919303 0.0000001953 -0.0240293318
0.1028041482 1.3450332043 0.3416473781 -0.0092847594 -0.0002538800 -0.0225576747
0.3887554321 0.1587949961 0.0835425393 -0.0086710957 0.0003401380 -0.0253653989
-0.1279441452 0.7968392701 0.2523811609 -0.0092884238 0.0002700898 -0.0225606138
-0.0334239439 1.4014325637 0.3495921319 -0.0092873487 -0.0001757898 -0.0225464331
0.0761224217 0.5963929032 -0.2989868378 -0.0092696353 -0.0015090616 -0.0239407571
-0.1584623489 0.6050657509 -0.1642082406 -0.0093042248 -0.0015104123 -0.0239458010
0.0786323487 0.6057333090 -0.1545028649 -0.0092744051 -0.0015102533 -0.0239426620
0.1118517386 0.8354384098 0.2149226832 -0.0092887600 -0.0001599540 -0.0255558540
-0.1997056110 0.6865347653 -0.4068364760 -0.0092817960 0.0014681063 -0.0244210490
-0.0239954994 0.6573715944 0.2830528770 -0.0092875501 0.0002947067 -0.0225653518
0.0177600215 1.8383158491 0.3364848474 -0.0092847927 0.0002499794 -0.0225568918
0.3365858873 0.7294240479 -0.2812809787 -0.0094127086 0.0014958272 -0.0242191252
-0.2430260625 0.1313924016 -0.3670865548 -0.0080847351 -0.0003963962 -0.0247519715
0.0528576660 1.1813203178 0.3054006570 -0.0092834935 -0.0004305511 -0.0225986361
0.0087477687 0.6906265732 0.2756040087 -0.0092880392 0.0003350018 -0.0225736135
-0.1472799437 1.5754917214 0.3242221328 -0.0092831528 0.0000039325 -0.0255645260
0.2344229466 1.2331940914 0.2824435895 -0.0093119443 0.0003687585 -0.0255187145
-0.3372084834 0.6230245664 0.0576266155 -0.0094353615 -0.0014937270 -0.0238962902
-0.3200921315 1.4502723374 0.3538902231 -0.0092997291 -0.0001246755 -0.0225413650
-0.0964644838 0.2449004786 -0.1650851104 -0.0081424651 -0.0000969394 -0.0248662866
-0.2671533195 0.1668189773 -0.3668515965 -0.0099458381 0.0006795583 -0.0240108779
-0.0118230388 1.2124696654 0.3135695090 -0.0092858814 -0.0003820352 -0.0225850822
-0.2851977176 1.5684268644 0.3581292578 -0.0093003559 0.0000044246 -0.0225361802
-0.1340337636 1.6547352808 0.3242221555 -0.0092838463 -0.0000264415 -0.0255641929
-0.0405497895 0.7224499946 -0.0062328719 -0.0092849063 0.0015110997 -0.0241471100
-0.1883403749 0.6265300545 0.1528187661 -0.0092873972 -0.0015092660 -0.0239283116
-0.2472512103 0.0790734918 -0.4032021301 -0.0091051795 0.0003113026 -0.0239777133
-0.0636446185 0.5608736067 -0.3255230061 -0.0093825755 -0.0010221328 -0.0250517644
-0.4703165902 0.8702483737 -0.3510153943 -0.0098502085 -0.0003674426 -0.0253639892
-0.2270926560 1.1657224914 0.3007111394 -0.0092964629 -0.0004427285 -0.0226024156
-0.2489810570 1.1924064196 0.3082947104 -0.0093012009 -0.0004068216 -0.0225920250
0.1048939860 0.5549716391 0.0363518782 -0.0088228214 -0.0011655817 -0.0234520172
-0.0060420444 1.4689848478 0.3208707794 -0.0092884753 0.0001147028 -0.0255601711
-0.2854877120 1.0623195826 0.2653563744 -0.0093099562 -0.0004200787 -0.0225962194
0.3722980904 0.7053548071 -0.2051227032 -0.0077890593 0.0001064881 -0.0240504402
-0.0636309571 0.9870604844 0.2497517340 -0.0092879181 -0.0002419101 -0.0225556275
-0.2512166316 0.8815126638 0.2435946825 -0.0092923881 0.0000642336 -0.0225378974
-0.3749070934 0.6289289840 0.1757150434 -0.0094720800 -0.0014795145 -0.0238095416
-0.4097879913 0.6359706915 0.0682819997 -0.0105087721 -0.0005387730 -0.0240158703
0.0116750170 1.3360327701 0.3051696509 -0.0092891658 0.0002460484 -0.0255442066
0.0239270215 0.6883452492 -0.4071909114 -0.0092910677 0.0014689981 -0.0244175678
0.0799436885 1.0714221409 0.2354588709 -0.0092960359 0.0004032374 -0.0255092960
0.0819145760 0.9548039316 0.2145688959 -0.0092929135 0.0001334671 -0.0255585387
0.2748409801 1.5435400661 0.3575351746 -0.0092701531 -0.0000033873 -0.0225366027
0.0051157138 0.7299592125 0.1096746556 -0.0092880316 0.0015111058 -0.0241475052
-0.3132303234 1.1859332412 0.3055570344 -0.0093193640 -0.0004174197 -0.0225952366
0.1605264705 1.2731480321 0.3276336736 -0.0092809451 -0.0003065237 -0.0225674536
0.3117718719 0.6219515570 -0.1812934932 -0.0091064939 -0.0015017691 -0.0239923014
0.0186608464 0.7859751647 0.2223512881 -0.0092880316 -0.0002776140 -0.0255386751
-0.1188673257 0.5868785626 0.0895167932 -0.0094364457 -0.0004584644 -0.0234199565
-0.3062297211 1.3535284634 0.3425095978 -0.0093001228 -0.0002386378 -0.0225550990
0.3738620867 0.7803448678 -0.2738488851 -0.0095657714 -0.0006998929 -0.0253621494
-0.1863858516 1.0645384295 0.2665232143 -0.0092918778 -0.0004278361 -0.0225981485
0.2520040136 0.7164581000 -0.2047269218 -0.0094251056 0.0015057924 -0.0241082413
0.1144343668 1.5236222907 0.3587115346 -0.0092881573 -0.0000354496 -0.0225365482
-0.4135863160 0.6817518319 -0.1379828146 -0.0107832396 -0.0000066732 -0.0240415471
-0.1954876483 1.4915828358 0.3574726521 -0.0092852121 -0.0000749392 -0.0225379670
0.2343062647 0.7262932813 0.0486727680 -0.0093395972 0.0015109120 -0.0241312682
0.1354607343 1.6616225052 0.3567557878 -0.0092781892 0.0000825830 -0.0225386348
-0.2791485215 0.6045072036 -0.2608020925 -0.0094637563 -0.0014981304 -0.0239460463
0.0236021893 0.6405185047 -0.3009670772 -0.0092721580 0.0014922824 -0.0242677016
-0.0159083824 0.2918575398 0.0056658722 -0.0091492148 -0.0000780736 -0.0225772840
0.0924063403 0.9047161962 0.2121692729 -0.0092908632 0.0000162038 -0.0255642277
-0.2612368879 0.6152506538 -0.0229973657 -0.0093354951 -0.0015095901 -0.0239495986
-0.2468053700 1.3865605220 0.3480157038 -0.0092932194 -0.0001900447 -0.0225481078
-0.3659531474 0.6155853119 -0.2829011438 -0.0094701842 -0.0014576808 -0.0236866166
0.0380056107 0.7060154800 -0.2606390616 -0.0092964038 0.0015112103 -0.0241440922
-0.0834561496 0.6034354420 0.2582244431 -0.0092893218 -0.0002913632 -0.0255359858
0.1946234647 1.7327476045 0.3497568481 -0.0092581938 0.0001572117 -0.0225447371
0.0213736619 0.7318784770 0.1395102013 -0.0092878560 0.0015110937 -0.0241476794
0.1012296841 1.1785557233 0.3046508218 -0.0092815068 -0.0004369926 -0.0226005637
-0.2790358614 0.1146872777 -0.4164439083 -0.0083363029 0.0000261628 -0.0248199073
0.1539499082 0.7261224870 0.0520393575 -0.0092959556 0.0015110997 -0.0241456957
0.2727589618 0.0521256109 -0.4461476965 -0.0091554958 0.0001123209 -0.0253966193
0.1285073593 0.5801701731 -0.0785420704 -0.0078350813 0.0001529037 -0.0240669846
0.2438953279 0.1835154004 0.0678892150 -0.0096051640 0.0001633580 -0.0226637752
-0.0192224403 0.7263631523 0.0537721675 -0.0092882633 0.0015111255 -0.0241471948
-0.4111040691 0.0333996118 0.1227676367 -0.0080129531 -0.0000516397 -0.0248634883
0.0741729120 0.9771960043 0.2480943219 -0.0092828454 -0.0002035244 -0.0225502716
-0.0538764402 1.6889553211 0.3543346536 -0.0092875986 0.0001183672 -0.0225407275
-0.1550926962 0.7235197226 0.0127307126 -0.0092640750 0.0015109377 -0.0241459425
-0.4135863160 0.6631978234 -0.2096002652 -0.0107697872 -0.0001680551 -0.0240364472
-0.1513780477 0.9399512055 0.2133256465 -0.0092824457 0.0000945242 -0.0255612734
-0.0963448916 1.1345945852 0.2905509578 -0.0092904302 -0.0004814958 -0.0226147974
-0.1235494735 0.4831228810 -0.1405604412 -0.0095007080 -0.0014692798 -0.0239624832
-0.3595479003 1.0620884371 0.2638465602 -0.0095531518 -0.0003886675 -0.0226717748
-0.3838186652 0.1499743673 0.0690862199 -0.0097179937 -0.0001498556 -0.0253798810
-0.0244080040 0.7355310996 0.1964727885 -0.0092879302 0.0015110725 -0.0241479050
-0.0847897636 0.6559493707 -0.4478195028 -0.0093424742 0.0002248296 -0.0255415763
0.4092383628 0.9997245846 -0.0755778871 -0.0093092884 0.0015055970 -0.0241634077
0.1924205141 1.2741335191 0.2926353322 -0.0092989825 0.0003333891 -0.0255272139
0.0735584731 0.6326225953 0.2271189248 -0.0092680090 -0.0014448538 -0.0238212708
0.3922158189 0.6783742083 -0.1444296409 -0.0094190381 -0.0015033469 -0.0240078722
-0.2546814324 1.2888563926 0.3306287669 -0.0092953802 -0.0003056364 -0.0225672931
-0.2217058423 1.4305622323 0.3526350521 -0.0092905029 -0.0001390879 -0.0225425960
0.2157733509 1.4977203401 0.3570985545 -0.0092810874 -0.0000660991 -0.0225377490
0.1029628802 1.3863117253 0.3128427083 -0.0092920035 0.0001985940 -0.0255514158
-0.2212052900 0.6757594285 0.2788201263 -0.0092835495 0.0003259830 -0.0225716298
-0.0614814376 1.4218846254 0.3516595924 -0.0092877879 -0.0001506702 -0.0225436378
0.1044709984 1.6680180476 0.3566367952 -0.0092824396 0.0000954842 -0.0225393374
-0.0971224538 1.0546160014 0.2310032486 -0.0092833300 0.0003567476 -0.0255218293
-0.3762439661 0.7331173351 -0.2199506959 -0.0091867843 0.0015097809 -0.0240951508
0.2153100440 0.1222019952 -0.3417841159 -0.0086477327 -0.0005795118 -0.0233332351
-0.1541447909 0.5428140982 -0.2597505928 -0.0099617208 -0.0009860669 -0.0245530716
-0.2062926973 0.6164347545 -0.4355331284 -0.0094745679 -0.0005751235 -0.0254377548
-0.0010675112 0.6405185047 -0.0027336073 -0.0092633709 0.0014933878 -0.0239360660
0.1156350225 0.7242575212 0.0219261204 -0.0092906876 0.0015111164 -0.0241465058
-0.1323650645 1.6092054796 0.3242221555 -0.0092874017 0.0000000000 -0.0255645457
0.0747816726 0.6634905676 -0.4441179903 -0.0092049096 0.0004192443 -0.0254942461
-0.2699498914 1.0967959060 0.2764593432 -0.0093078786 -0.0005019151 -0.0226221187
0.0982227965 0.5804466515 0.1089646522 -0.0090644574 -0.0007321762 -0.0233257276
-0.0723580672 0.6405185047 -0.0255227833 -0.0093134782 0.0014954987 -0.0239828238
-0.1178701822 0.7363584996 0.2093968695 -0.0092684254 0.0015110150 -0.0241450113
-0.0838754121 0.6837312612 -0.4245368596 -0.0092909390 0.0014520358 -0.0244780976
0.0369992016 1.3331525567 0.3047429429 -0.0092899986 0.0002495175 -0.0255436236
-0.3559629758 0.7127149507 -0.3486570612 -0.0092742507 0.0014431594 -0.0245005157
0.1790604928 1.3786605470 0.3112891556 -0.0092945837 0.0002048463 -0.0255505057
-0.1221347256 0.6095015960 -0.1003908986 -0.0092939280 -0.0015101715 -0.0239411053
0.0695235744 0.5877311473 -0.3474690796 -0.0092830771 -0.0014699582 -0.0236879748
-0.1127764368 0.2998033324 0.0122496666 -0.0090294514 0.0004333963 -0.0226369112
0.0698087505 0.6187909389 0.0397758796 -0.0092754802 -0.0015094932 -0.0239327211
0.0927746278 0.9786854642 0.2170827509 -0.0092937569 0.0001708473 -0.0255546154
0.0874212529 1.4312875537 0.3526805683 -0.0092845671 -0.0001457687 -0.0225431472
-0.2367094220 0.6253082934 0.2545789828 -0.0092926228 -0.0002625808 -0.0255415279
-0.0900980994 1.4656284809 0.3206221674 -0.0092858163 0.0001171816 -0.0255599621
0.1285073593 0.5422922891 -0.2072025727 -0.0078056326 -0.0001559276 -0.0241305989
0.3619460440 0.1463317492 0.0748490482 -0.0088484891 -0.0000850618 -0.0253917965
0.0902361531 0.6369418054 -0.3329528588 -0.0092471581 0.0013888243 -0.0243447789
0.2982728384 0.9932393923 0.2474296061 -0.0086952234 -0.0001506294 -0.0227091475
-0.4151449989 1.0049438837 -0.2511794103 -0.0092411784 0.0014773582 -0.0243743684
0.3477376552 0.1483975470 0.1016568312 -0.0095993721 0.0000518911 -0.0227890230
0.1127594306 0.6117066725 -0.0644632920 -0.0092693506 -0.0015098732 -0.0239383328
0.3557663033 0.6250574161 -0.2622277579 -0.0090257386 -0.0014671765 -0.0237826641
-0.2472701563 0.1409974081 -0.3201397752 -0.0102828508 -0.0004721757 -0.0231521516
0.1485924630 0.6141111941 -0.0290825913 -0.0092624881 -0.0015096945 -0.0239369230
-0.1325726425 0.6405185047 -0.2186203617 -0.0093252105 0.0014918070 -0.0242039223
-0.0129507799 0.0732691555 0.4074212467 -0.0101430557 0.0012344851 -0.0241298493
-0.0231947771 1.0565574932 0.2314346703 -0.0092882724 0.0003634587 -0.0255202060
-0.3608419582 0.7374291058 0.0043796914 -0.0092369870 0.0014971522 -0.0240253964
-0.0350292802 0.1803196038 0.3131420833 -0.0106536883 0.0004312385 -0.0237715163
-0.3405400109 1.8923960862 0.3181652429 -0.0093115839 0.0001399313 -0.0225909665
-0.2354280034 1.1400055675 0.2567201952 -0.0092761767 0.0004584629 -0.0254933800
0.2033361214 0.7168759361 0.2695656273 -0.0093077151 0.0003402440 -0.0225752125
0.1240157256 1.9180089449 0.3211153954 -0.0092683285 0.0006438029 -0.0226946185
0.3147719076 0.6409526066 0.2740479606 -0.0078366228 -0.0001292878 -0.0238880574
-0.4342698926 0.9991679316 -0.2759799325 -0.0092887342 0.0014675884 -0.0244186414
-0.4340766862 0.9455975835 -0.3428332110 -0.0091544979 0.0009727508 -0.0251840550
0.2404423123 0.7056467200 0.2722678825 -0.0093211372 0.0003581437 -0.0225797234
0.2183233898 0.6151763022 -0.0768974597 -0.0091899430 -0.0015063193 -0.0239506101
-0.3584076078 1.5943883347 0.3241001359 -0.0102247317 0.0001025753 -0.0251850937
-0.1077567206 1.7709042307 0.3136392861 -0.0092819944 -0.0002549067 -0.0255428755
0.2234376060 1.8404829412 0.2962243693 -0.0093686961 -0.0003744202 -0.0255148638
0.3102503875 0.7260809895 -0.0518173974 -0.0093791518 0.0014880850 -0.0239109752
0.2695533817 1.4387662735 0.3525013185 -0.0088542219 -0.0001155068 -0.0226919595
-0.1272108060 0.6405185047 -0.1121408396 -0.0093398758 0.0014949475 -0.0240909670
0.2818691004 1.1806015576 0.3020988416 -0.0086272876 -0.0003270733 -0.0229330443
0.0615003442 0.7248469829 0.0302019905 -0.0092869656 0.0015111209 -0.0241472493
-0.3609875436 0.6300318464 0.1977717903 -0.0094415138 -0.0014854412 -0.0238328108
-0.1659446029 1.4075489960 0.3153973913 -0.0092834011 0.0001812592 -0.0255534267
-0.3129047704 0.1806466362 0.0463454584 -0.0097857554 -0.0000019034 -0.0253866133
0.2191996812 1.3206771808 0.3021183661 -0.0093006876 0.0002600505 -0.0255418459
-0.4809327317 0.0117757071 0.1300495795 -0.0089202998 -0.0008379239 -0.0252057705
0.3219760675 0.7289178566 -0.1796510524 -0.0093672182 0.0015032061 -0.0240175663
-0.0062589454 0.2684502650 0.0536474163 -0.0079034926 -0.0000911187 -0.0240473708
-0.1546791589 1.1295116999 0.2536042862 -0.0092815644 0.0004581630 -0.0254935375
0.1108268923 1.9322090857 0.3035130247 -0.0092403925 0.0014332639 -0.0244359233
0.4529205271 0.9149382522 -0.3336723806 -0.0078906595 -0.0005498253 -0.0238676077
0.0440075613 0.6537709582 0.2497144416 -0.0092860268 -0.0003258074 -0.0255290688
0.3666403450 1.0162565111 -0.1535919386 -0.0093922469 0.0014918539 -0.0242851031
0.2449008011 1.1250021029 0.2499196392 -0.0093257495 0.0004797620 -0.0254858633
0.0822336481 0.5642024783 0.3011047600 -0.0092885071 0.0002248886 -0.0225529730
-0.0243961642 0.1813115610 0.1770152475 -0.0095367466 -0.0007568279 -0.0242771671
0.1928348372 1.5206891217 0.3234705865 -0.0092957315 0.0000347485 -0.0255639945
0.1606531342 0.1804749530 -0.3091767316 -0.0102862366 0.0003328743 -0.0250271885
-0.1912644054 0.5803788595 0.2984021807 -0.0092799911 0.0002625717 -0.0225590557
0.0551492081 0.5554289390 -0.3159329269 -0.0093401105 -0.0010465512 -0.0248594241
-0.0062589454 0.2047932571 0.1186078173 -0.0079346706 -0.0006167360 -0.0241839800
0.2908841591 0.6123068096 -0.2666890193 -0.0090550631 -0.0014859514 -0.0238812540
-0.1967017155 1.3819277274 0.3473718055 -0.0092897094 -0.0001993814 -0.0225493828
0.3419147287 0.6277457631 -0.2079996579 -0.0089974982 -0.0014822431 -0.0239840610
0.2730146226 1.2869759923 0.3296204984 -0.0087654685 -0.0002067966 -0.0229644342
0.2117028921 0.6309086920 0.2153088659 -0.0092174747 -0.0015082061 -0.0239451074
0.2679605954 1.2337681186 0.2819872602 -0.0091975293 0.0003646655 -0.0254717447
-0.0267271943 0.1710110498 0.3714700196 -0.0099087849 0.0008263082 -0.0236142849
0.1535896748 0.5727506490 -0.1372450175 -0.0093162145 0.0009198830 -0.0252459248
-0.3393065131 1.7967586784 0.3387261307 -0.0101160252 0.0001969572 -0.0230535178
-0.2842549758 1.3189873522 0.3367024299 -0.0092944293 -0.0002802715 -0.0225624415
-0.1782976610 0.9203834287 0.2433164249 -0.0092898972 -0.0000505722 -0.0225372266
0.3025333842 0.7242139901 -0.2143096661 -0.0093969183 0.0015040344 -0.0240493424
-0.2434648768 0.5945668471 0.2599986506 -0.0092956316 -0.0003136693 -0.0255316385
-0.0817621508 0.5919841371 -0.3246375885 -0.0092966855 -0.0014927004 -0.0237969130
-0.1425178870 1.1862813002 0.3068352413 -0.0092916552 -0.0004168428 -0.0225946582
-0.0909400799 0.6405185047 -0.0980741780 -0.0093148183 0.0014939511 -0.0240645952
0.0524527917 0.9417752295 0.2134404795 -0.0092912918 0.0001093227 -0.0255603119
0.1903296694 0.6467823017 -0.4354736086 -0.0090255054 -0.0000056026 -0.0255308162
0.0004499983 1.2398979519 0.3207281512 -0.0092856725 -0.0003508451 -0.0225773294
-0.2871910808 1.7430194756 0.3155685778 -0.0092435709 -0.0002107170 -0.0255490460
-0.2067373822 0.7347231998 0.2657675797 -0.0092870686 0.0003525017 -0.0225777170
-0.0142766608 0.6139329134 -0.0356464796 -0.0092872776 -0.0015098505 -0.0239359842
-0.1413116407 0.6405185047 -0.3226035849 -0.0093135479 0.0014888800 -0.0243153574
0.0622723553 1.6724653539 0.3234649945 -0.0092910222 -0.0000799967 -0.0255622334
0.4272049417 0.0576670560 0.1222958486 -0.0102355417 0.0006677807 -0.0230909162
-0.3336187300 1.6163052713 0.3567003806 -0.0093147305 0.0000443745 -0.0225371266
-0.3991011021 0.0211725920 0.1417436394 -0.0079394525 -0.0004334993 -0.0239177650
-0.2209432286 0.8395697269 0.2464154215 -0.0092913281 0.0001441954 -0.0225434637
0.1353777743 0.6076407428 -0.1242905519 -0.0092661919 -0.0015100928 -0.0239415323
-0.4959251061 0.9924584337 -0.1411355663 -0.0103978261 -0.0009710548 -0.0239615020
-0.3030512200 0.5838646626 -0.3677060770 -0.0095045754 -0.0014636378 -0.0240025966
0.1373252383 0.9771734544 0.2481674955 -0.0092812615 -0.0001991528 -0.0225498643
-0.2687756575 0.8414075228 0.2140665871 -0.0092884496 -0.0001481354 -0.0255569397
0.0651435045 0.7618206183 0.2267794863 -0.0092878590 -0.0003056212 -0.0255333541
0.0505088287 0.6151271337 -0.0151780051 -0.0092785768 -0.0015097263 -0.0239353558
-0.0168397221 0.7041160867 -0.3021663565 -0.0092879892 0.0015134771 -0.0240740288
-0.0915791371 0.5500596389 -0.3063707791 -0.0093690474 -0.0011831240 -0.0249054779
0.2749953920 0.6219207819 -0.0170089174 -0.0091441467 -0.0015051019 -0.0239745607
0.4587102950 0.0620833539 0.1057750487 -0.0098263170 0.0013554795 -0.0243208268
-0.2302340737 0.5967636045 -0.3034264033 -0.0093493337 -0.0014872522 -0.0237832758
0.1028278307 0.6405185047 -0.0456191331 -0.0090196544 0.0013495770 -0.0239902345
0.0939864192 0.6405185516 -0.2951631437 -0.0092560254 0.0014938739 -0.0242516947
0.4312957335 0.9945059321 0.0602357684 -0.0090023513 0.0014520418 -0.0238340494
-0.1370004136 1.4835386835 0.3564714309 -0.0092875971 -0.0000783007 -0.0225381957
-0.1238570738 1.5334234624 0.3584758828 -0.0092871943 -0.0000363672 -0.0225365648
-0.2918274793 0.8439067746 0.2136038798 -0.0092910010 -0.0001410428 -0.0255576196
-0.2307081482 0.8793793995 0.2121692729 -0.0092843051 -0.0000422182 -0.0255634009
0.0447924357 1.4117859518 0.3158681618 -0.0092901758 0.0001670178 -0.0255550545
-0.2478371136 1.5570098946 0.3237826704 -0.0092777803 0.0000004588 -0.0255645093
-0.1515409756 1.8034974751 0.3419764441 -0.0092933481 0.0002363316 -0.0225546705
0.3722980904 0.7114270618 -0.0202525183 -0.0077905039 0.0001472223 -0.0240400511
0.3127530372 0.7790002317 0.2300913743 -0.0079099735 -0.0000500755 -0.0246748685
-0.4620308035 0.6933054002 -0.0738779570 -0.0101480708 0.0010210153 -0.0241778382
-0.2629142151 0.8866179158 0.2121321652 -0.0092843672 -0.0000183646 -0.0255643231
-0.3427622543 0.8127640820 0.2492063786 -0.0092667219 0.0002312408 -0.0225545736
-0.1062854571 0.6288837904 -0.3329528588 -0.0092588918 0.0011469491 -0.0244807929
-0.2766840668 0.6577129059 0.2831077739 -0.0092720262 0.0003140994 -0.0225695251
0.0546330773 1.0521703533 0.2630876896 -0.0092845171 -0.0003853953 -0.0225863178
0.4035876404 1.0009048028 -0.0278343449 -0.0093648742 0.0015078002 -0.0240491379
-0.4329230851 0.6880017662 -0.1245124318 -0.0091538604 0.0014996355 -0.0241636590
0.4217981191 0.9039942016 -0.3352613541 -0.0092211240 -0.0014667329 -0.0243923150
0.0679382275 0.5603018433 -0.1112753552 -0.0093687688 -0.0004100848 -0.0228019303
0.3722980904 0.6313085057 -0.2975293569 -0.0077933507 -0.0001732474 -0.0239767821
0.1917366205 1.8207183073 0.3384239589 -0.0092454061 0.0002488725 -0.0225575702
-0.0964101927 0.6017636812 -0.2152771655 -0.0092975955 -0.0015105849 -0.0239470290
-0.3177900823 0.1500812748 0.0477312376 -0.0094662003 -0.0006808787 -0.0253705034
0.1652972159 1.7939583178 0.3081352607 -0.0093165264 -0.0003068644 -0.0255325409
0.1475731028 1.8648852668 0.2920624830 -0.0093175121 -0.0002597053 -0.0255409510
-0.1421547523 0.2043393066 -0.1762690980 -0.0103845917 -0.0002888193 -0.0231763838
0.1863886014 1.1373049279 0.2551134084 -0.0093075152 0.0004644759 -0.0254912161
-0.1175710616 0.6157069831 -0.0092650441 -0.0092869459 -0.0015098399 -0.0239357117
0.2753635523 0.7278447549 0.0174980161 -0.0093834159 0.0015023218 -0.0240578932
0.1852072733 0.8706638067 0.2121692729 -0.0092880952 -0.0000471621 -0.0255636296
0.2296895739 1.0079775156 0.2201114843 -0.0093156103 0.0002594282 -0.0255417308
-0.2586612252 0.7936573953 0.2204766873 -0.0092911343 -0.0002667313 -0.0255407677
-0.1836520565 0.6005470034 -0.2296900827 -0.0093128165 -0.0015106561 -0.0239502846
0.2622190920 0.7035352197 -0.3607670508 -0.0094277949 0.0014676005 -0.0243922408
-0.0169124399 0.0757114072 -0.0058857669 -0.0091308593 -0.0004238052 -0.0230779196
0.1017921714 0.6072150978 -0.1314137279 -0.0092713373 -0.0015101473 -0.0239416308
0.1517568697 1.1376345027 0.2918180760 -0.0092768582 -0.0004834749 -0.0226155864
0.4372537549 0.9209946106 0.1282673648 -0.0092078502 0.0000520879 -0.0225620705
0.3942149347 0.6844311208 -0.1939047045 -0.0094158295 0.0015011331 -0.0240250753
0.1592449475 1.5310724521 0.3238971097 -0.0092950940 0.0000266368 -0.0255640944
-0.0645288005 0.5505708666 0.0494181210 -0.0093513915 -0.0012997998 -0.0233361909
0.2228384638 0.7091944899 -0.3018911259 -0.0094340865 0.0015004154 -0.0241543223
-0.2663727531 0.6310811504 0.2206179057 -0.0093135767 -0.0015092933 -0.0239332026
0.1285073593 0.5826353683 -0.1332359955 -0.0078241849 0.0001233551 -0.0240856672
0.0577760365 1.5216876401 0.3242221555 -0.0092909284 0.0000437506 -0.0255637643
0.1183711737 0.8628605969 0.2121692729 -0.0092883966 -0.0000629661 -0.0255631632
-0.1191730317 1.8598939696 0.2945561442 -0.0092788600 -0.0003861312 -0.0255138614
0.2531943286 1.0533172994 0.2623455013 -0.0092546126 -0.0003928014 -0.0225885604
0.0356874485 0.5147425600 -0.0514982677 -0.0091929351 -0.0013883564 -0.0235727966
0.0523318019 0.2594019569 -0.1073477912 -0.0082296271 -0.0001090047 -0.0232787501
-0.1175971699 0.6391544153 0.2862015267 -0.0092839402 0.0002855789 -0.0225635802
0.2607138296 0.7470350830 0.2631066826 -0.0093284146 0.0003253380 -0.0225722113
0.0576713761 0.7480491283 0.2621351054 -0.0092887630 0.0003365963 -0.0225739754
-0.3803571003 1.1138177564 0.2670351825 -0.0104594325 -0.0000501997 -0.0238059741
-0.4584006399 0.6901981541 -0.0959592419 -0.0092840553 0.0015064178 -0.0242002564
0.0989676877 0.7041160867 -0.2969332628 -0.0093142157 0.0015131500 -0.0240800161
0.0106976145 0.0100455424 0.4578770501 -0.0092943323 -0.0013327812 -0.0247661492
-0.2156531348 0.2113768545 -0.2792294601 -0.0104905044 0.0005530173 -0.0235306768
-0.2607847167 1.4095855890 0.3152128493 -0.0092786222 0.0001740408 -0.0255542898
-0.2339626197 0.7259878297 0.0120518220 -0.0092172596 0.0015088663 -0.0241401718
-0.1762622809 0.6993027007 -0.3518401141 -0.0092640190 0.0015018963 -0.0242393492
-0.0614933319 1.6607979232 0.3563793098 -0.0092895050 0.0000917077 -0.0225390088
-0.2783163623 0.5589351191 0.2681957142 -0.0093353089 -0.0004910551 -0.0254803213
-0.4089062472 0.7301055611 -0.1845738202 -0.0103279354 0.0006162909 -0.0240151693
0.0976556999 0.6405185047 0.1529569591 -0.0090554250 0.0013834125 -0.0235679041
-0.0275617929 0.6405185047 0.0309617666 -0.0092894111 0.0014955002 -0.0239093974
-0.3764683414 0.1702580832 0.0981028454 -0.0090774994 0.0004520032 -0.0226593460
-0.1859749128 0.7137656872 -0.1366835129 -0.0092602244 0.0015108787 -0.0241465664
-0.2418445497 0.7083707407 -0.2700431437 -0.0092109529 0.0015081379 -0.0241419495
0.3348405365 0.6314331358 0.1361629274 -0.0091013379 -0.0014901671 -0.0238869020
0.3289659491 0.6133332852 -0.2923777090 -0.0091118315 -0.0014541148 -0.0236681642
-0.3435574467 1.8804244047 0.2878806800 -0.0092857149 0.0000000000 -0.0255645366
-0.1000326459 0.6355099255 -0.4471646991 -0.0093553088 -0.0001622935 -0.0255497259
0.4315245682 0.9596637121 -0.3257385792 -0.0093195352 0.0009774842 -0.0252053753
-0.0585563789 0.5570453851 0.3015087333 -0.0092887464 -0.0000215232 -0.0225385621
0.0671012092 1.5384164223 0.3584664567 -0.0092853045 -0.0000326119 -0.0225365194
0.1861382556 1.4277456060 0.3520643047 -0.0092790023 -0.0001469589 -0.0225432986
0.2639312873 0.7089341865 -0.3277168305 -0.0094363200 0.0014783137 -0.0243410584
0.3629401484 0.9562826693 0.1228298124 -0.0095638937 -0.0003069250 -0.0254094614
0.3536577148 0.7365828052 -0.1720261581 -0.0093207859 0.0015069856 -0.0240070893
0.0982227965 0.6053451396 0.1166207047 -0.0090854188 0.0001628492 -0.0234660465
-0.2911829572 1.0456908909 0.2278028183 -0.0092593597 0.0003219870 -0.0255293065
-0.0722709779 0.2668534130 0.0034104552 -0.0095000584 -0.0000168185 -0.0228097710
-0.1933056773 0.2056059161 -0.2466016049 -0.0104937555 0.0002165467 -0.0233567465
-0.2120892141 1.3996953246 0.3495573576 -0.0092900713 -0.0001761320 -0.0225464740
0.2230667897 1.8476831036 0.3331363605 -0.0092213359 0.0002667298 -0.0225614815
-0.3511389841 0.5642366741 0.2998413637 -0.0095061244 -0.0008144988 -0.0227945030
-0.3392891601 1.0296441761 0.2235383688 -0.0092473352 0.0002914117 -0.0255355845
-0.0350292802 0.2222575726 0.1227271326 -0.0105841170 -0.0003909798 -0.0241544646
0.3143658098 0.0760674022 -0.4238792833 -0.0086325541 0.0008439036 -0.0239226378
-0.2056933007 1.0618232807 0.2327925438 -0.0092755877 0.0003635177 -0.0255199698
-0.1148446030 0.8818758787 0.2436826440 -0.0092895852 0.0000666760 -0.0225379019
-0.3155175393 0.7285221555 -0.0277548055 -0.0091573810 0.0015070764 -0.0241095526
0.1890643092 1.7791639091 0.3108002704 -0.0093243852 -0.0002717055 -0.0255393141
-0.2817148732 1.8078172394 0.3050695816 -0.0092328153 -0.0003017736 -0.0255327908
-0.4135863160 0.7133801511 -0.0926298161 -0.0107840633 0.0001597238 -0.0240356961
0.0032681995 1.0067474839 0.2204395796 -0.0092886646 0.0002556017 -0.0255425772
-0.1365517312 0.9174165258 0.2121692729 -0.0092837252 0.0000325347 -0.0255641580
-0.1970314508 1.7371681089 0.3503664128 -0.0092957890 0.0001605824 -0.0225447871
0.1774942660 1.4505756631 0.3543423004 -0.0092818763 -0.0001313638 -0.0225418737
-0.2165898227 0.6246287215 0.1256745353 -0.0092962130 -0.0015094038 -0.0239315263
-0.4515024161 0.9608000298 -0.3124351780 -0.0092934571 -0.0014445524 -0.0235982886
-0.2365112019 1.4581698170 0.3550742995 -0.0092897866 -0.0001102555 -0.0225401702
-0.3302722752 0.7196835058 -0.2720832027 -0.0090741469 0.0014970977 -0.0241180035
0.4428518897 0.0946282263 0.1083729615 -0.0081030224 -0.0003506710 -0.0239853329
0.1882964274 1.2278916127 0.3170700986 -0.0092713842 -0.0003699274 -0.0225821810
-0.4789656388 0.9627940169 -0.3611573916 -0.0092521444 0.0009852250 -0.0251995455
-0.3931416952 0.9562521712 -0.3696874248 -0.0094741984 0.0007652621 -0.0253380504
-0.1256356029 0.2611767670 -0.1535552594 -0.0104762177 0.0004227225 -0.0234560345
0.0769453744 0.6405185047 -0.0207172818 -0.0092234528 0.0014923294 -0.0239376105
-0.3865871633 0.9566138143 0.2235105963 -0.0105987082 0.0000954161 -0.0247860704
0.0689012903 1.7068977783 0.3210973504 -0.0092920277 -0.0001179387 -0.0255598849
0.0641241397 0.7139230791 -0.1384561274 -0.0092924744 0.0015111709 -0.0241454005
0.2216311894 0.6224279892 0.0456939178 -0.0091922446 -0.0015065858 -0.0239492564
0.3721685391 0.6533174484 -0.3454677924 -0.0078926780 -0.0001854415 -0.0246007909
0.2419708197 0.7124853771 -0.2685902145 -0.0094259036 0.0015056349 -0.0241085865
0.1105346690 0.6554080599 -0.4437001542 -0.0091687271 0.0002158214 -0.0255381542
-0.0763690122 0.5981200697 -0.2676164189 -0.0093025319 -0.0015117978 -0.0239699256
-0.1728240412 0.5327888994 -0.1352568299 -0.0107551930 -0.0002665587 -0.0239947847
-0.0153048232 0.6233628283 0.2896687064 -0.0092884874 0.0003363449 -0.0225739209
0.0355484272 0.6109108805 -0.3329528588 -0.0091522402 0.0006224916 -0.0247088432
-0.0104651941 0.6118353229 -0.4439204396 -0.0092950107 -0.0006595372 -0.0254122734
0.1756145699 1.7268084368 0.3186180138 -0.0093165794 -0.0001798903 -0.0255533737
-0.0492891133 0.4569498579 -0.2915528271 -0.0104678743 -0.0008470183 -0.0236552978
-0.4594241567 0.6859453490 -0.2374087501 -0.0094199255 0.0014112303 -0.0240426404
0.1495974153 0.6157697842 -0.0046771464 -0.0092619612 -0.0015095946 -0.0239357192
0.2294331045 0.7170165079 -0.1420259748 -0.0093778981 0.0015084801 -0.0241216558
0.1053044629 0.6945420416 -0.3778096961 -0.0092990870 0.0014726959 -0.0244021681
0.0580666548 0.7358499976 0.2012497134 -0.0092874487 0.0015110710 -0.0241480428
-0.4937332911 0.0636212070 0.1244381952 -0.0100910117 0.0008867956 -0.0249561318
0.0359783181 0.6405185047 -0.2143507365 -0.0092580015 0.0014922022 -0.0241662256
-0.1028362529 0.5285170089 -0.0127002660 -0.0094336398 -0.0013544665 -0.0235313219
-0.4555871086 0.8570510032 -0.3383358369 -0.0092668688 0.0005893331 -0.0226575744
-0.0030657078 0.5236075042 -0.0265288031 -0.0092569203 -0.0013661397 -0.0235131875
-0.0242779302 0.2009308381 0.3039011472 -0.0097430511 0.0008271683 -0.0236321876
-0.0082193061 0.5883535117 -0.3487414416 -0.0092872124 -0.0014750429 -0.0237114287
-0.2670063924 1.8822955637 0.2888374693 -0.0092532377 -0.0002447629 -0.0255422638
-0.1125989527 0.6754774989 -0.4395411101 -0.0093192081 0.0009621512 -0.0251761598
0.1602838306 0.8130987385 0.2497168219 -0.0092839235 0.0002380745 -0.0225553034
0.1740769015 0.7298381863 0.1095179314 -0.0092978862 0.0015110952 -0.0241450476
-0.2214229648 0.5979898022 -0.2812036683 -0.0093595168 -0.0015092918 -0.0239796788
0.3919092119 0.6502791027 -0.1904517010 -0.0095046844 -0.0011449261 -0.0248030312
0.0050045240 0.5643247977 0.0881583171 -0.0092204744 -0.0012681585 -0.0232536140
-0.2767233686 0.6912957484 -0.3981591931 -0.0092358635 0.0014475234 -0.0244881520
0.3861145440 0.8731466094 -0.3060138028 -0.0094123891 0.0004764882 -0.0226208528
-0.1105325082 0.5123853581 -0.2371320415 -0.0094250133 -0.0013586473 -0.0244734171
-0.0284149469 0.2271342215 -0.0351426852 -0.0093847408 -0.0011745080 -0.0243984083
0.0426839169 1.2013892011 0.3107702342 -0.0092840538 -0.0003954043 -0.0225887830
0.4141584944 0.9884877444 -0.1616195479 -0.0092877773 -0.0014927836 -0.0237984893
0.1211268599 0.5455879339 0.2963834254 -0.0092511360 -0.0011060634 -0.0230201518
-0.4113724600 1.0174174122 0.0386088549 -0.0091972915 0.0014729730 -0.0237148857
0.2541391510 1.0043842750 0.2511329675 -0.0092502622 -0.0002768690 -0.0225625944
-0.1728240412 0.6206452309 -0.2840116076 -0.0107161456 0.0003547276 -0.0240816620
0.1954814551 0.5840544030 -0.3994442398 -0.0090468000 -0.0012330693 -0.0248744650
0.4110029595 0.9988916849 -0.2392980465 -0.0092666189 0.0014681093 -0.0244165230
-0.1906287794 1.0074973887 0.2531427116 -0.0092930316 -0.0002777428 -0.0225620993
0.1549252407 1.7723260379 0.3463420032 -0.0092622731 0.0001849524 -0.0225480654
-0.3111733293 1.0935072841 0.2748412799 -0.0093221533 -0.0004878298 -0.0226176200
0.3585355646 1.0075609742 0.1015122042 -0.0100049293 0.0010598264 -0.0237043679
0.2517691719 1.5416275959 0.3575354987 -0.0092736374 -0.0000151574 -0.0225363407
-0.3248564429 0.6103801981 0.2584149451 -0.0093303149 -0.0002724096 -0.0255389143
0.1289980586 1.4076157250 0.3503476742 -0.0092845383 -0.0001704748 -0.0225459273
0.2090469859 0.6270830112 0.1387948391 -0.0092121022 -0.0015075322 -0.0239436068
-0.0983811090 0.7120502575 0.2409396076 -0.0093019822 0.0001100390 -0.0225506941
0.2401037279 1.5470030861 0.3228503026 -0.0093011479 0.0000008071 -0.0255644639
0.2179960803 0.6587116091 0.2829342070 -0.0093094731 0.0003035497 -0.0225672174
-0.1295380641 0.6117127733 -0.0675590164 -0.0092928893 -0.0015100549 -0.0239394124
-0.4373198828 0.1581396366 0.0878986830 -0.0099093891 0.0003930664 -0.0252161369
0.2919662493 1.2912197863 0.3134626923 -0.0081198925 -0.0000406888 -0.0239484781
-0.4413596118 0.9947492761 0.0187425239 -0.0092893551 -0.0014991510 -0.0242472232
-0.2171809259 0.7145547788 -0.1370368384 -0.0092438949 0.0015102064 -0.0241445177
0.2536852474 1.1510171784 0.2591944713 -0.0093275636 0.0004550150 -0.0254939084
0.2980910447 0.6794154718 -0.3982985869 -0.0087155202 0.0003652530 -0.0253922507
-0.1365216374 0.7046773611 -0.2786768970 -0.0092692810 0.0015109771 -0.0241467527
-0.4151947216 1.0263665521 -0.0972322505 -0.0091748855 0.0015057621 -0.0240996950
-0.0145895700 1.5350040486 0.3242221555 -0.0092883072 0.0000270562 -0.0255640520
-0.0764584471 1.8279524807 0.3016868293 -0.0092856452 -0.0003278062 -0.0255284904
0.0256189171 0.6320096585 0.2030977440 -0.0091330125 0.0003323731 -0.0231826724
-0.2643951030 1.8239273549 0.3018580385 -0.0092358195 -0.0003606543 -0.0255192415
-0.0824603811 1.1146438163 0.2834810402 -0.0092893051 -0.0005003449 -0.0226211678
0.0009621178 0.9894393126 0.2501330166 -0.0092855422 -0.0002453156 -0.0225561196
0.3075106779 0.9042942929 0.2261829304 -0.0079716117 0.0000442109 -0.0247758509
-0.1377364557 0.7554723016 0.2607854087 -0.0092858148 0.0003080394 -0.0225677867
0.2073885351 0.6099040914 -0.1407125893 -0.0092059862 -0.0015073460 -0.0239513763
0.2264358867 0.1096654824 -0.3800733673 -0.0095143179 -0.0009005387 -0.0238281530
0.1876676639 1.6772278164 0.3228370622 -0.0093032981 -0.0000822695 -0.0255620790
-0.4959966851 1.0099334244 -0.1912384016 -0.0105446154 0.0007655907 -0.0241602263
0.0025485565 0.5795602390 0.2637179099 -0.0092864402 -0.0003084225 -0.0255327529
0.0962578068 0.5299123368 -0.0087701550 -0.0090771602 -0.0013531052 -0.0234804877
-0.3262491603 1.6900874792 0.3533340319 -0.0093169943 0.0001076313 -0.0225406381
0.3953320292 1.0169052140 -0.1499160377 -0.0093028726 0.0014912512 -0.0242865023
-0.1230566604 0.1934822015 -0.1728072318 -0.0093161145 -0.0005898343 -0.0237989254
-0.2871185523 0.7297991389 0.0599726334 -0.0091691026 0.0015074217 -0.0241166619
-0.2726058900 0.6891002372 0.2761510040 -0.0092729863 0.0003396807 -0.0225750656
-0.1029156196 0.7048000953 -0.2781144218 -0.0092745141 0.0015110483 -0.0241464347
0.2645194317 0.8401337738 0.2455497600 -0.0092934147 0.0001494573 -0.0225440088
-0.0747363578 0.6201462034 0.0570304578 -0.0092874335 -0.0015095416 -0.0239318155
-0.1443935508 1.3062349891 0.3344101323 -0.0092899517 -0.0002959407 -0.0225653564
-0.0835601695 0.4790655930 -0.1519884088 -0.0094307492 -0.0014787225 -0.0239618836
-0.0618207852 1.3464878204 0.3067458004 -0.0092867673 0.0002329019 -0.0255464188
0.0032046337 0.7208749990 -0.0315439282 -0.0092877046 0.0015111482 -0.0241468405
-0.0498738931 0.7041160867 -0.3102871484 -0.0092817203 0.0015130849 -0.0240880324
0.1456655766 1.1091073273 0.2816723810 -0.0092790947 -0.0005028933 -0.0226220627
-0.4323575133 1.0180685198 -0.1800008678 -0.0092585587 0.0014944039 -0.0242642916
-0.2231697239 0.9312864453 0.2128822320 -0.0092798594 0.0000658068 -0.0255625772
-0.2369932943 1.5170833099 0.3239411495 -0.0092793112 0.0000608462 -0.0255631056
-0.0458231148 1.2526663036 0.3235093341 -0.0092873215 -0.0003300503 -0.0225726428
0.3943494996 0.6818672661 0.0544572452 -0.0092735359 0.0001512487 -0.0225735680
0.3404130702 0.7366375643 0.2085950009 -0.0093107981 0.0014735817 -0.0237511878
-0.0504796268 0.8520209826 0.2131771492 -0.0092874017 -0.0001076889 -0.0255602286
0.0888078892 1.6827296478 0.3227807314 -0.0092900925 -0.0001010717 -0.0255611311
-0.2049819572 0.7518814641 0.2290749956 -0.0092860586 -0.0003247368 -0.0255292445
0.0897916196 0.4960398467 -0.2067444869 -0.0091075326 -0.0013367288 -0.0242028942
-0.1200112917 1.7985675450 0.3082625012 -0.0092833618 -0.0002982409 -0.0255347926
-0.1508659312 0.5322002689 -0.0257785924 -0.0098411807 -0.0010628443 -0.0235913398
0.0659254458 0.7211998130 -0.0264946058 -0.0092867536 0.0015111376 -0.0241469919
0.0534814796 0.0444853215 0.4412306147 -0.0078162079 0.0000000560 -0.0240133628
0.0670777356 0.6164759733 0.0056586236 -0.0092763933 -0.0015096340 -0.0239343973
0.1831643963 0.7108473971 -0.1813856598 -0.0093244761 0.0015111982 -0.0241379550
-0.1385576973 0.6405185047 -0.0034480595 -0.0093676149 0.0014988209 -0.0239810779
-0.2120552954 0.7210235660 -0.0299907557 -0.0092493416 0.0015106576 -0.0241441906
0.2376887627 0.9085956654 0.2424857678 -0.0092827212 -0.0000093897 -0.0225362529
-0.0505017451 0.5782612144 -0.3821487986 -0.0092896458 -0.0014451263 -0.0235983235
0.4305148673 0.8108397811 0.1095967213 -0.0084695186 -0.0004000318 -0.0228859457
0.0918849007 0.7803542015 0.2556283550 -0.0092860147 0.0002971733 -0.0225655441
0.1088098935 1.4237617913 0.3519457739 -0.0092845005 -0.0001493619 -0.0225434879
-0.4364955778 0.6914427436 -0.0859849076 -0.0091649809 0.0014928654 -0.0242339692
0.2944611127 1.2315349471 0.3141623445 -0.0079946264 -0.0001364214 -0.0233344177
-0.0350292802 0.2764872323 0.0931853577 -0.0106307023 0.0003176957 -0.0239188371
0.3075775916 0.6570421589 -0.3954304117 -0.0086053919 -0.0001196392 -0.0253862801
-0.3665861872 1.3113357121 0.2994697842 -0.0101364703 0.0002749157 -0.0252030600
-0.3376991706 0.6161764363 -0.2348336900 -0.0095510955 -0.0014854048 -0.0239345078
-0.4892535456 0.0318560515 0.1481097240 -0.0105568534 0.0001669209 -0.0232420498
0.0039853500 0.6164659461 0.1782277900 -0.0092295491 -0.0003868989 -0.0231301105
-0.3254872855 0.6448033796 0.2864834109 -0.0092448141 0.0003050095 -0.0225681850
-0.0357360855 0.6070408374 -0.1389252792 -0.0092875138 -0.0015102730 -0.0239414036
0.1685492964 0.6067725843 -0.1379109690 -0.0092596913 -0.0015100686 -0.0239426786
0.4041566783 0.6878382735 0.0276228102 -0.0092265888 0.0007008575 -0.0253772356
-0.4715315585 0.9653686847 -0.2715960740 -0.0095391194 -0.0014310168 -0.0236912653
-0.0667811210 0.5858401186 0.2621803687 -0.0092885798 -0.0003100624 -0.0255324531
-0.1647385308 0.7098427779 -0.1972509170 -0.0092650941 0.0015108923 -0.0241474038
0.1853449575 1.0653803858 0.2328900949 -0.0093115325 0.0003824471 -0.0255148214
-0.1893085784 0.7181708480 -0.0692045826 -0.0092583361 0.0015108968 -0.0241457275
-0.1537670651 0.9911477163 0.2184870445 -0.0092840644 0.0001973357 -0.0255512901
0.2512634667 1.4587889455 0.3544611310 -0.0092804696 -0.0001167818 -0.0225407835
-0.0954356703 0.7206333645 -0.0322779609 -0.0092762979 0.0015109907 -0.0241475128
-0.0985529315 1.6994922563 0.3538587074 -0.0092879862 0.0001215092 -0.0225409849
0.0924414840 1.0387064394 0.2596030660 -0.0092838933 -0.0003451198 -0.0225761846
0.1299758048 1.2126005326 0.2783661304 -0.0092958632 0.0003874077 -0.0255139462
0.0538940765 0.7233303971 0.0066263911 -0.0092870217 0.0015111300 -0.0241471221
-0.2366547326 0.0474775998 -0.4012038002 -0.0084815189 0.0000308933 -0.0227707932
-0.1285189931 1.8266530398 0.3018493983 -0.0092816507 -0.0003445641 -0.0255246700
0.3771943789 0.9710921431 0.1448811989 -0.0092706998 0.0005708701 -0.0226502334
-0.1737165984 0.6222846903 0.0897663077 -0.0092893278 -0.0015094916 -0.0239315490
-0.0589022649 0.5904069247 -0.2510421183 -0.0107418300 0.0003004304 -0.0242846019
-0.3235930224 1.2052975980 0.2745605511 -0.0092589645 0.0003914658 -0.0255127197
-0.0573203901 0.3446884964 -0.0330634289 -0.0107870145 0.0000150030 -0.0241074251
0.2202975511 0.7800457926 0.2233243675 -0.0092746822 -0.0002834696 -0.0255375273
-0.4294326621 0.9994214437 -0.1174074750 -0.0091358820 0.0014957379 -0.0241699673
-0.3118834932 1.5917872345 0.3231728983 -0.0092769672 0.0000326922 -0.0255641096
0.3091247679 0.0476933516 -0.4011970073 -0.0081417685 0.0005578159 -0.0233656063
0.1218230687 0.9238166897 0.2434971313 -0.0092832467 -0.0000468366 -0.0225372614
0.2060353512 1.1759754165 0.2673776721 -0.0093133405 0.0004278330 -0.0255023533
0.0152055959 0.6037448685 0.1578742030 -0.0092251745 -0.0007147884 -0.0231418730
-0.0151389759 0.2250399350 -0.0679629367 -0.0091858954 -0.0001684791 -0.0255269731
-0.3000257664 0.6688516408 0.2811118243 -0.0092662752 0.0003303122 -0.0225728745
0.1716878144 1.4083756117 0.3501853823 -0.0092804817 -0.0001605854 -0.0225447281
-0.0936099018 0.4859127055 -0.1327023558 -0.0094445468 -0.0014616617 -0.0239091718
-0.0408464692 0.4127956996 -0.0252049619 -0.0106408431 0.0000431192 -0.0233808742
-0.0872737095 0.2525192161 -0.1008076490 -0.0103772644 -0.0000740654 -0.0232752720
-0.0371974277 0.5877454734 -0.3509069619 -0.0092892551 -0.0014701792 -0.0236882883
0.2381843256 1.5111659532 0.3228926314 -0.0092967597 0.0000398893 -0.0255639566
-0.3908728939 1.0039587678 0.0355787814 -0.0079659575 0.0001278175 -0.0240333627
0.1580308106 0.7125692017 -0.1554076223 -0.0093121033 0.0015111588 -0.0241417527
-0.3942482765 0.6304341556 0.0431225313 -0.0095715300 -0.0014678625 -0.0238818733
0.2079453728 1.2503293423 0.3223899288 -0.0092713055 -0.0003351411 -0.0225739087
