-0.3780487924 0.0392687767 0.2952622151 -0.5157488765 -0.0065817311 0.3998154488
0.2560974872 0.1999714683 0.2220658564 -0.5182700958 -0.0082294138 0.4207910565
-0.5000000000 0.4914286594 -0.3389900645 -0.5176165105 -0.0074680481 0.4214223735
0.3601213063 0.2434957323 -0.4390242986 -0.4922190495 0.0003696341 0.3917951325
0.1852129331 0.5442814103 -0.1208075980 -0.4993616830 0.0035354387 0.4387569572
0.4756096609 0.7419949276 -0.2260799536 -0.4756097585 0.0000000000 0.4146341547
-0.4087628138 0.6585365211 -0.0428870934 -0.5019987559 0.0240627294 0.4148340327
0.0337364845 0.4146341059 -0.2628961207 -0.5000876341 0.0238383147 0.4194431054
0.3470348442 0.6519129120 0.1620537159 -0.5128294866 0.0204030956 0.4158648131
-0.4806763190 0.6046894776 -0.1651741058 -0.5177262666 0.0154276570 0.4197735444
-0.1242044513 0.6715851052 -0.3302623580 -0.5009365853 -0.0016773657 0.3903930595
-0.2804878263 0.5405125326 -0.0737213343 -0.4777561485 0.0016852193 0.4235979831
0.3191102372 0.0731707246 -0.0068929262 -0.4980660734 -0.0092163893 0.4201346175
-0.4012758389 0.3287362362 -0.1463414004 -0.5228811197 -0.0027249510 0.4218712271
0.3101022380 0.7028900534 -0.3285303826 -0.5000418780 -0.0036962923 0.3905297912
-0.4373600549 0.4251649097 0.0179543397 -0.5131411207 -0.0193816566 0.4200797395
0.3962849857 0.5986138684 0.1463414979 -0.4936302201 0.0113087306 0.4208887638
-0.1824297871 0.7073170042 -0.3516900632 -0.5003953902 0.0198656566 0.4218566662
-0.1353608161 0.7704186565 -0.1405981326 -0.5002844146 0.0034199997 0.4387744450
0.2789705094 0.0731707246 0.0511883121 -0.5120191452 -0.0101272673 0.4222759344
0.2866200940 0.2313260018 0.1463414979 -0.5105739502 -0.0052203653 0.4209989589
0.4526303949 0.6083450626 0.0680240665 -0.4791761484 0.0105127795 0.4213810808
0.4998510244 0.5120461939 0.0656418229 -0.4790135386 -0.0104649990 0.4212870077
0.2027070290 0.4146341059 0.3174069690 -0.4999599512 0.0242427050 0.4167819593
0.0703011395 0.2695645835 -0.4390242986 -0.4992744147 -0.0110399014 0.3984685953
-0.2804878263 0.5339767528 0.1646932522 -0.4773866364 0.0004420975 0.4227756173
0.1637320816 0.1786062996 -0.4390242986 -0.4990392440 -0.0149442912 0.4005911804
0.3780486948 0.4004282780 -0.2929176787 -0.4763013194 -0.0015081950 0.4130288621
0.3780486948 0.0938037469 -0.3435240640 -0.4861783184 -0.0027495851 0.4008319853
-0.1097120381 0.4146341059 0.2587752674 -0.4916580740 0.0220290222 0.4164265447
0.1841035918 0.5843841625 -0.3414633325 -0.5054659995 0.0027089997 0.4375529329
-0.1936613470 0.3740141830 -0.4390242986 -0.5010404389 -0.0067058286 0.3948218639
0.2804877287 0.0323172164 -0.3062852140 -0.5121925110 -0.0148466083 0.4221457637
-0.2804878263 0.2065631750 0.1030707704 -0.4860477331 -0.0009372682 0.4183965689
0.1631139597 0.3170731398 0.1090760137 -0.5071778042 0.0207479492 0.4187832762
-0.3001824097 0.5179697787 -0.4390242986 -0.5015382925 -0.0018277071 0.3926289617
0.3883430841 0.4146341059 0.0331020699 -0.4836649528 -0.0097646576 0.4230365685
0.2183780519 0.3170731398 0.0034811948 -0.5117051696 0.0201132907 0.4160078131
0.4049383995 0.6572867895 0.3031018729 -0.4929252202 0.0232211197 0.4152871546
0.3780486948 0.5530467509 -0.3619188183 -0.4822580261 0.0006308536 0.4001893268
0.0849232356 0.4146341059 0.0120041208 -0.4999564390 0.0239962903 0.4183339348
-0.0740695050 0.3451294541 -0.4390242986 -0.5009405365 -0.0100067063 0.3975467905
-0.0090810723 0.1104426234 0.4146341547 -0.5015591462 -0.0154095351 0.4247731537
-0.4024390339 0.0934513323 0.2604713892 -0.5233099733 -0.0041861459 0.4178119105
-0.0470010686 0.5963304540 -0.3414633325 -0.4996566830 0.0035154387 0.4375628597
0.2560974872 0.2122467110 0.3601859405 -0.5088690967 -0.0016955608 0.4238979343
-0.1767769584 0.6787249094 -0.1310395238 -0.4991525123 0.0019225608 0.4389038596
-0.5000000000 0.4883533914 0.0058387311 -0.5205982907 -0.0099339503 0.4209979345
0.1342681576 0.7073170042 -0.3911051814 -0.4987762196 0.0125377305 0.4077877407
-0.1963510052 0.4146341059 -0.2577912675 -0.4995190976 0.0235723636 0.4206351541
-0.2008209072 0.4979900734 -0.3125995793 -0.4994376586 -0.0036423167 0.3905261082
0.3795014508 0.4146341059 0.3113830672 -0.4769964413 -0.0028823412 0.4173702276
0.3055234092 0.6104014283 -0.3400472351 -0.5089249503 0.0089249503 0.4354222014
0.4756096609 0.7135709792 -0.3301545775 -0.4756097585 0.0000000000 0.4146341547
0.2647352669 0.5936982104 -0.1484788392 -0.4796761971 -0.0127298524 0.4164527155
0.1010155999 0.0731707246 0.2712352662 -0.5025835119 -0.0219147296 0.4209625199
-0.4459816882 0.5542232630 -0.2659244375 -0.5080604870 -0.0123261695 0.4163787886
0.4512194194 0.4622578086 0.2813067287 -0.4785803436 -0.0108702428 0.4175728861
0.2353407819 0.0731707246 0.0117507062 -0.5028390241 -0.0219866076 0.4149209595
0.0997788927 0.0731707246 -0.3239680172 -0.4972204149 -0.0222967539 0.4080562041
0.3019430681 0.7785425094 -0.1419521813 -0.4992694391 0.0037214631 0.4387183231
-0.2583874138 0.2648907546 0.4146341547 -0.4898847083 0.0050919507 0.4296961532
0.0837588211 0.6799840556 -0.1341667430 -0.4996919025 0.0033672436 0.4387855182
0.3751550122 0.5554930921 -0.1463414004 -0.5023054876 0.0088937308 0.4248307390
0.2608446331 0.8060711409 -0.3331116016 -0.5000000000 0.0241450952 0.4111848623
0.3780486948 0.1925895666 -0.2665036081 -0.4826257090 -0.0027280973 0.4090324723
-0.2361121965 0.7278576607 -0.3326916749 -0.4999391707 -0.0035791948 0.3905131082
0.1439578640 0.4146341059 0.0569925554 -0.5000590976 0.0240810952 0.4178865446
0.3448281859 0.0019471218 -0.2926828983 -0.4861671233 -0.0138574621 0.4236201050
0.2560974872 0.4858425867 -0.2009049560 -0.5186271201 0.0011898048 0.4277106412
-0.3882772792 0.0731707246 -0.0756402365 -0.5189055347 -0.0084184138 0.4205908126
-0.2332524650 0.5551534093 -0.3193576274 -0.5015243901 -0.0009183170 0.3903886936
0.2560974872 0.0843609430 -0.0662028960 -0.5185468275 -0.0092869259 0.4252713000
-0.2149145888 0.8269879437 -0.1866933964 -0.5000000000 0.0241450952 0.4111848623
-0.4024390339 0.2485400245 -0.3055161897 -0.5235081197 -0.0018610486 0.4120861793
-0.1599195454 0.3023602144 0.4146341547 -0.4913333179 0.0119416818 0.4298899093
-0.1336614992 0.0731707246 -0.0301074361 -0.4921760495 -0.0219395101 0.4130813987
-0.4154000326 0.6585365699 -0.2934778982 -0.5074611212 0.0129391695 0.4262713730
0.3531991119 0.6580771309 -0.2757028024 -0.5072777066 0.0161708033 0.4279332509
-0.3641897450 0.6516069852 0.1030102339 -0.4905334643 0.0221914856 0.4166955203
-0.2804878263 0.2543195118 0.2776549973 -0.4864465379 0.0044899996 0.4246071537
-0.4268260803 0.6387633767 -0.3178425787 -0.5000000000 -0.0040097313 0.3905757668
0.3552021849 0.0046314142 -0.3400690156 -0.4885003914 -0.0165079008 0.4088937406
-0.2170985398 0.4146341059 -0.3300958702 -0.4995357561 0.0235223392 0.4209651297
-0.1934828104 0.5610794818 -0.3206689931 -0.4994345366 -0.0035089509 0.3905070351
0.3276185046 0.0203968517 0.2926829471 -0.4986912928 -0.0177903641 0.4007552048
-0.4613693208 0.5505760438 0.2076188822 -0.5096359991 -0.0221049003 0.4147713742
-0.0649771644 0.0731707246 -0.2293912703 -0.4944861957 -0.0224110954 0.4116059842
-0.5000000000 0.5851998453 -0.0143726084 -0.5206015346 0.0097501210 0.4227268124
-0.2804878263 0.2839384845 -0.0360326062 -0.4918994886 0.0163363643 0.4155926424
0.3780486948 0.0886800645 -0.3682213787 -0.4873118793 -0.0022519998 0.3985924001
0.2695380957 0.8257964560 -0.1950335419 -0.5000000000 0.0241450952 0.4111848623
-0.2080909553 0.4146341059 -0.0218747296 -0.4879497573 0.0202101688 0.4167962764
0.3201092127 0.6249871829 0.3583240870 -0.5171912422 0.0171912422 0.4155252765
0.0621080183 0.4146341059 -0.2756096560 -0.5001690244 0.0238667782 0.4193330810
0.2102021258 0.8265270169 -0.1899199327 -0.5000000000 0.0241450952 0.4111848623
-0.4447060786 0.4325109334 0.1295145483 -0.5145521937 -0.0182713397 0.4199851785
0.2228350027 0.5563442384 -0.1228384026 -0.5002643414 0.0024513412 0.4388337621
-0.3932156202 0.0731707246 -0.4386633962 -0.5208068516 -0.0028379753 0.4047078386
-0.2354302941 0.2421113422 0.4146341547 -0.4916215130 0.0022774632 0.4288867386
-0.0149297546 0.7073170042 -0.3703612322 -0.4997527805 0.0163890960 0.4151701302
0.2560974872 0.1671247642 -0.1191634518 -0.5174459495 -0.0014097560 0.4231816173
0.2708926565 0.2891755572 0.4146341547 -0.5037409752 0.0108236087 0.4278062509
-0.2164968081 0.0731707246 -0.0120340720 -0.4910171472 -0.0220927539 0.4148669595
-0.3879180109 0.1765704950 -0.4390242986 -0.5165683155 -0.0021205364 0.4016238633
-0.3780487924 0.0045627557 0.2996265561 -0.5141948279 -0.0133578767 0.4029434485
-0.3617573550 0.2065643457 -0.4390242986 -0.5107598526 -0.0034250972 0.3980203270
-0.0702015053 0.0731707246 -0.0208443394 -0.4953521468 -0.0220332905 0.4136716913
-0.1540565216 0.8143807498 -0.2749436805 -0.5000000000 0.0241450952 0.4111848623
-0.4052916678 0.5240335586 -0.2405579521 -0.5107484380 0.0206888760 0.4183815445
0.4756096609 0.6864740062 -0.1643028620 -0.4756097585 0.0000000000 0.4146341547
-0.2246403927 0.4146341059 0.4074603749 -0.4916320496 0.0227070953 0.4148570815
0.0519300193 0.0731707246 -0.1336204016 -0.4984993904 -0.0221812417 0.4116855940
-0.3971694491 0.6585365699 0.2125045890 -0.4987219513 0.0242329001 0.4146341547
0.0236571196 0.3170731398 0.1190813542 -0.5015736340 0.0217649979 0.4190462518
0.2560974872 0.5697257249 -0.2087482967 -0.4773471486 -0.0075620480 0.4157144472
-0.2856035575 0.0731707246 0.0202459005 -0.4913854155 -0.0215749003 0.4164082764
-0.4373455427 0.6781101046 -0.1252134268 -0.5009699999 0.0039400728 0.4386816645
0.3120685793 0.5008781219 -0.4390242986 -0.4948838785 0.0021999022 0.3912388399
0.2066306384 0.1296000361 0.4146341547 -0.5047209020 -0.0119111696 0.4247257147
0.1477926685 0.8150070180 -0.2705602663 -0.5000000000 0.0241450952 0.4111848623
-0.2841016064 0.3050158727 0.4146341547 -0.4874902207 0.0108033404 0.4314235677
0.2560974872 0.2933111665 0.3563946969 -0.5084392431 0.0121312183 0.4247083000
-0.4417232008 0.4295280313 -0.1653532522 -0.5146876815 -0.0181572909 0.4208496663
-0.3275735290 0.5896750644 -0.4390242986 -0.5017862681 -0.0000047073 0.3921337910
-0.3774141583 0.2816498262 -0.4390242986 -0.5112449257 -0.0017792193 0.3979676685
-0.4092696186 0.4146341059 -0.1152168180 -0.5194933883 -0.0072387310 0.4212898369
-0.4024390339 0.4136995938 -0.2607044868 -0.5243664610 -0.0008549755 0.4147223498
0.3154197497 0.0456161907 0.3810590848 -0.5054791702 -0.0110152428 0.4309594458
-0.1620706183 0.8219200905 -0.2221685393 -0.5000000000 0.0241450952 0.4111848623
0.1685274470 0.8192586274 -0.2407986838 -0.5000000000 0.0241450952 0.4111848623
-0.1857942258 0.4146341059 0.3900493766 -0.4920720252 0.0227112173 0.4151151546
-0.2824543871 0.6009974048 -0.1219511588 -0.5056323165 -0.0006555121 0.4376676402
-0.3423472593 0.2941871908 -0.1463414004 -0.5116622184 -0.0017619510 0.4302225678
0.2227423441 0.4013008145 -0.2152845156 -0.5000000000 -0.0241450952 0.4180834470
0.2836810943 0.4993680245 -0.1463414004 -0.5161280228 -0.0017360974 0.4257677877
-0.4840586845 0.4718634905 -0.1273122559 -0.5180337299 -0.0146961205 0.4211595931
0.3780486948 0.3766862072 0.3352506990 -0.4759380511 -0.0021572681 0.4162529106
0.3780486948 0.2187598323 0.1324911578 -0.4765846120 -0.0040457069 0.4194519347
0.2560974872 0.1334218894 -0.1199889151 -0.5171974130 -0.0031840485 0.4238970074
0.2560974872 0.2923730690 0.2535706094 -0.5162179252 0.0040032923 0.4214599345
-0.3703278663 0.5284040948 -0.3033257997 -0.5127035110 0.0195372176 0.4192420323
-0.2560975848 0.4849761478 -0.1908800302 -0.5243902415 0.0000000000 0.4146341547
-0.2777228997 0.4006627414 0.4390243962 -0.5009983414 0.0088645113 0.4367846403
0.3148353595 0.6197133786 0.4091048625 -0.5172410715 0.0172410715 0.4147216669
0.3017349462 0.4428933714 0.1463415223 -0.5136160475 -0.0057993165 0.4224771295
0.3800669385 0.6585365211 0.3837988406 -0.4995105122 0.0243299732 0.4146341547
0.2868765086 0.2054805653 0.1463414735 -0.5100861941 -0.0063594140 0.4214528369
0.4512194194 0.6335004748 0.0021006096 -0.4826917822 0.0165711203 0.4189777884
-0.0330459724 0.8094542137 -0.3094295064 -0.5000000000 0.0241450952 0.4111848623
0.3180986031 0.6561358140 -0.4390242986 -0.4962234394 0.0033026338 0.3909119619
-0.2804878263 0.1111777940 0.1990196879 -0.4890723913 -0.0164931203 0.4189300079
0.4589079796 0.4711030760 0.1658389350 -0.4801730751 -0.0125805354 0.4199847395
-0.0709642858 0.2948338249 0.4146341547 -0.4944788298 0.0123379256 0.4289429094
-0.3797018410 0.4907896838 -0.1463414004 -0.4987060977 -0.0090012674 0.4224876661
0.0218941686 0.0731707246 -0.1534373021 -0.4961953174 -0.0220805588 0.4106782282
0.0219419491 0.0731707246 -0.4198924712 -0.4994252440 -0.0175914861 0.4008133511
-0.3454699907 0.0487174343 -0.2926828495 -0.5035906582 -0.0171101447 0.4267887145
0.2560974872 0.5319550701 0.4094962283 -0.5234493148 0.0063879750 0.4148446668
-0.2487733660 0.0731707246 -0.3438714299 -0.4971414637 -0.0145959498 0.4007608390
0.2560974872 0.0986482343 0.2515080974 -0.5151714132 -0.0138610718 0.4226923978
-0.2804878263 0.2194645883 0.2033295411 -0.4862370501 0.0002690975 0.4209648858
-0.0347692405 0.5627762866 -0.3134885792 -0.4998806342 -0.0034937070 0.3904994009
-0.2997913122 0.2934393128 -0.4390242986 -0.5007617804 -0.0055175360 0.3921933276
-0.1756566902 0.0731707246 -0.4036491314 -0.4989372684 -0.0136473645 0.3975509368
0.2747451195 0.3739804025 -0.4390242986 -0.4940368786 0.0012998535 0.3914979862
0.0839189186 0.4146341059 0.3998567659 -0.4968427076 0.0236682172 0.4158231302
0.0192482664 0.4146341059 0.2478909758 -0.4936204396 0.0222064369 0.4159424716
-0.1746741781 0.4146341059 -0.0868663330 -0.4915345862 0.0222598027 0.4164316667
-0.3315044311 0.8238361879 -0.2087558333 -0.5000000000 0.0241450952 0.4111848623
-0.1623669354 0.2707883638 0.4146341547 -0.4926575617 0.0074824139 0.4290542020
0.2560974872 0.1635709353 0.3426094300 -0.5106274624 -0.0115357306 0.4227862270
-0.0977501612 0.3170731398 0.2933276055 -0.4908813911 0.0170578276 0.4247433488
-0.4600283698 0.5946074542 -0.3414633325 -0.5040574630 -0.0077129749 0.4348934210
-0.3524357949 0.0731707246 -0.4174885690 -0.5093348040 -0.0098014381 0.4027284485
-0.3434870153 0.1258526706 0.1463414979 -0.5049594629 -0.0063674872 0.4190934469
-0.2804878263 0.3755674999 0.3450727712 -0.4791673435 0.0059914384 0.4197476908
0.3970672783 0.4547803459 0.4146341547 -0.5000000000 0.0000000000 0.4390243962
-0.3735141587 0.1094332820 -0.4390242986 -0.5160597058 -0.0036166826 0.4016262291
-0.2885383133 0.6775297632 -0.3243036513 -0.4999647561 -0.0037602923 0.3905394741
-0.2784321436 0.3627363549 0.4390243962 -0.5010424389 0.0034632680 0.4377066890
-0.1971325661 0.5476677027 -0.3414633325 -0.4930524885 0.0020774388 0.4370829817
-0.2009249072 0.8096880186 -0.3077924334 -0.5000000000 0.0241450952 0.4111848623
-0.0844955040 0.7920747276 -0.1442075469 -0.5001780975 0.0033323411 0.4387896401
0.4369995427 0.6412562301 -0.2319953920 -0.4845772210 0.0177398519 0.4165933740
0.3004378487 0.6446706444 -0.1226994027 -0.5011180731 0.0014190730 0.4389527377
0.2381072451 0.0731707246 0.3611559892 -0.5053307800 -0.0217524613 0.4228286661
0.0619303110 0.7860253623 -0.1431993031 -0.4998483415 0.0033292680 0.4387912011
-0.4024390339 0.3682888421 -0.3116481647 -0.5241135830 -0.0012923657 0.4137052035
0.3643613791 0.1217245491 0.4146341547 -0.5006715609 -0.0086737065 0.4362514452
0.2560974872 0.1339792064 0.2845441918 -0.5139136328 -0.0136843401 0.4222648612
-0.2951759956 0.3121559939 -0.1463414004 -0.5027701217 -0.0004118048 0.4369347623
-0.4024390339 0.1953109322 0.0616532623 -0.5227230466 -0.0056931702 0.4206228126
0.3448786981 0.6497567171 0.2706438029 -0.5143792669 0.0194068762 0.4158171546
0.4181387397 0.8276667729 -0.1819420066 -0.5000000000 0.0241450952 0.4111848623
-0.1825696163 0.4146341059 0.2152055888 -0.4898321473 0.0214798516 0.4165746667
0.4999999024 0.5358074843 -0.0207568760 -0.4768040998 -0.0003135366 0.4219402759
-0.2804878263 0.5186203640 0.2048697361 -0.4783887094 0.0030447314 0.4206044468
-0.2438312201 0.4052654970 0.4390243962 -0.5008959267 0.0090239259 0.4368238354
0.3780486948 0.3575591358 -0.1731562514 -0.4783104168 -0.0018424145 0.4196357395
-0.1283651582 0.0731707246 0.1717208369 -0.4983212441 -0.0221506320 0.4189854957
-0.4522846876 0.5827897480 0.1463414979 -0.5093884381 0.0070382676 0.4212194467
-0.1227309392 0.4453342248 -0.0984022343 -0.5001465122 0.0033787070 0.4387793962
0.4512194194 0.4402870058 -0.3401717229 -0.4857921721 -0.0180026324 0.4067818628
0.3780486948 0.2996229952 -0.0704697736 -0.4769725144 -0.0036584387 0.4207446419
0.2084943943 0.0731707246 0.1140036230 -0.5031411704 -0.0219387783 0.4172693983
0.3780486948 0.1765910803 0.2500979268 -0.4761864170 -0.0039750484 0.4167517886
0.0849215771 0.4146341059 -0.0991342830 -0.5000601951 0.0239565099 0.4186737640
-0.2804878263 0.4547483947 0.1206237687 -0.4835700992 0.0135969499 0.4187590567
0.4955177321 0.5077129017 -0.2116608818 -0.4797928068 -0.0105964624 0.4165768618
0.2720888271 0.6832676650 -0.3252599439 -0.5000414390 -0.0036996582 0.3905302790
-0.0963720882 0.4146341059 0.3992184976 -0.4937314152 0.0230705343 0.4153008131
-0.0941853811 0.4146341059 -0.2800485824 -0.4997902195 0.0236832904 0.4201669834
0.0596847015 0.4449145663 -0.3414633325 -0.5023238778 0.0180708519 0.4241921293
-0.1563358140 0.4070080579 -0.1753333731 -0.5000000000 -0.0241450952 0.4180834470
0.1613340330 0.5904466009 -0.4390242986 -0.4968365857 0.0028419509 0.3910120594
-0.3271405291 0.3442979420 -0.4390243962 -0.5009376584 -0.0040372679 0.3916578154
-0.1494268635 0.0731707246 -0.3577698188 -0.4975590002 -0.0163222423 0.4019302047
0.1223213783 0.0731707246 0.3386995035 -0.5033853899 -0.0218539979 0.4224636417
-0.2804878263 0.5081835114 0.3825481334 -0.4787181240 0.0050295361 0.4149002522
-0.5000000000 0.5643817986 0.0558655067 -0.5096224869 -0.0184031445 0.4179067397
-0.3495558927 0.0000000000 -0.3317357725 -0.5063228287 -0.0156680716 0.4141812035
-0.2804878263 0.3683290372 0.1846340795 -0.4857171477 0.0189884128 0.4181173495
-0.1173144032 0.3170731398 0.1616793989 -0.4929408543 0.0202156810 0.4203142761
0.2489888050 0.5284258997 -0.3160223838 -0.4865045379 -0.0108736087 0.3984275465
0.3015675559 0.8290375533 -0.1723459100 -0.5000000000 0.0241450952 0.4111848623
-0.2425910007 0.3170731398 0.3589556723 -0.4872579037 0.0135917060 0.4286722509
0.2560974872 0.4778379534 0.3648928668 -0.5235349733 0.0029097558 0.4166722033
-0.4024390339 0.4136507401 -0.2200953200 -0.5241069001 -0.0009446341 0.4163716911
0.1391992547 0.3170731398 0.3577855261 -0.4993071708 0.0198338029 0.4254353487
-0.2398777815 0.0731707246 -0.2330692212 -0.4938128055 -0.0197686566 0.4100703502
0.3731577929 0.0731707246 0.1203476224 -0.4783373680 -0.0060258043 0.4182417885
0.1500123512 0.0731707246 0.2884645816 -0.5034609021 -0.0218666320 0.4212919345
-0.3920398154 0.4554711751 0.4146341547 -0.5000000000 0.0000000000 0.4390243962
-0.4038104240 0.6012779657 0.1463414979 -0.5004555365 0.0116964135 0.4210148370
0.3780486948 0.2180126860 -0.0071298042 -0.4768810510 -0.0051363897 0.4193121542
0.4230988612 0.4249640317 -0.0071924139 -0.4891054889 -0.0195066566 0.4229419100
0.2253380512 0.0731707246 0.0772822608 -0.5031438777 -0.0219505832 0.4164171057
-0.2225418319 0.8114527501 -0.2954399468 -0.5000000000 0.0241450952 0.4111848623
0.0741955293 0.5048594142 -0.3414633325 -0.5050716337 0.0066496091 0.4330453480
0.3780486948 0.1636150084 -0.1520686681 -0.4773846364 -0.0060353165 0.4186353982
0.3480858441 0.0471001174 -0.2926828495 -0.4970808296 -0.0145976571 0.4299432507
0.2983780928 0.6032562094 0.2228422953 -0.5178703885 0.0160676570 0.4176693007
0.3491574781 0.0731707246 0.3676531349 -0.5000000000 -0.0186173396 0.4228480075
0.3583864528 0.0731707246 0.0318846310 -0.4838489040 -0.0073179749 0.4186992762
0.2260844170 0.3945006932 -0.2628848524 -0.5000000000 -0.0241450952 0.4180834470
0.3743400610 0.0731707246 -0.4148073010 -0.4929045129 -0.0066865115 0.3977384978
0.2404804887 0.8145959693 -0.2734371441 -0.5000000000 0.0241450952 0.4111848623
-0.0139634621 0.5884432353 -0.3159399448 -0.4999295122 -0.0034381460 0.3904908400
0.4249044220 0.5460347760 0.1463414979 -0.4915054886 0.0050529751 0.4233197148
0.2611606087 0.7073169554 -0.3626041110 -0.4982154392 0.0178052909 0.4179479592
0.2781737046 0.2103655892 -0.1463414004 -0.5050827800 -0.0057105604 0.4299506898
-0.0516837023 0.6449166688 -0.3252299927 -0.4998020488 -0.0033220241 0.3904757424
-0.4274561534 0.6579096431 0.3889903523 -0.5134468280 0.0203136566 0.4147547156
0.3780486948 0.0735110172 0.2200787590 -0.4762694901 -0.0040796825 0.4171381544
-0.3687763787 0.1569667652 -0.4390242986 -0.5136541694 -0.0034614387 0.3999738390
-0.2346522210 0.6447012786 -0.3220652369 -0.5006567804 -0.0022647559 0.3903651814
-0.0800050898 0.5506901170 -0.3414633325 -0.4962732687 0.0025544876 0.4372535427
-0.3423892349 0.4551527117 -0.1463414004 -0.5025413900 0.0025024144 0.4223077881
-0.3835441333 0.8090843601 -0.3120187013 -0.5000000000 0.0241450952 0.4111848623
-0.1932354933 0.3170731642 0.2132332231 -0.4866991964 0.0168508032 0.4222220808
-0.1016174291 0.2607143404 -0.4390242986 -0.5006486097 -0.0107391941 0.3967387174
0.1770027144 0.0731707246 0.0969879174 -0.5025355851 -0.0219736320 0.4169231301
-0.3095991649 0.4793961240 0.1463414979 -0.4906413668 0.0044861947 0.4212904223
0.0963959906 0.2711417784 -0.4390242986 -0.4971335369 -0.0061020970 0.3955844004
-0.2804878263 0.2414460740 -0.1414634252 -0.4897053181 -0.0013285121 0.4178193007
-0.1466175467 0.3170731398 0.3611223306 -0.4903225863 0.0151193644 0.4279605192
-0.1448851566 0.6860010794 -0.4390242986 -0.5000323171 0.0035324387 0.3907340838
-0.2804878263 0.2690496323 0.1845615918 -0.4847249771 0.0083710967 0.4209875931
-0.2892510206 0.7074336871 -0.3292876508 -0.4999590488 -0.0037198045 0.3905335717
0.2804877287 0.5626349451 -0.0615150184 -0.5203420224 0.0105101941 0.4230143734
-0.2804878263 0.3669128910 -0.0193031445 -0.4892924157 0.0213333638 0.4149703010
-0.4024390339 0.2130528573 0.3223352368 -0.5241106806 -0.0006190975 0.4166830569
-0.1074176724 0.8103372624 -0.3032484826 -0.5000000000 0.0241450952 0.4111848623
-0.3093265796 0.5360292404 0.0871156744 -0.5143762669 -0.0111090965 0.4144879840
-0.0735409928 0.0731707246 -0.2688728518 -0.4948883907 -0.0220976564 0.4109985940
0.4223740807 0.6341462796 -0.2673217788 -0.5000000000 -0.0243902415 0.4146341547
0.2560974872 0.3284562850 0.0108861697 -0.5185013153 0.0113919501 0.4157755936
-0.2804878263 0.1376247671 0.2600460966 -0.4898619278 -0.0128736573 0.4215668369
-0.0499559220 0.6154677448 -0.3212228223 -0.4998180244 -0.0033839021 0.3904844253
-0.1049256239 0.5368904842 -0.3133110914 -0.4996929025 -0.0035533655 0.3905102302
-0.4020626437 0.6341462796 -0.1856404941 -0.5000000000 -0.0243902415 0.4146341547
-0.3043376776 0.3665248179 0.4146341547 -0.4929629763 0.0064505847 0.4348823478
-0.4024390339 0.2155708570 -0.3040212874 -0.5233361441 -0.0022701217 0.4123246183
0.2560974872 0.4916935374 -0.0820222603 -0.5222411686 0.0019872925 0.4228376173
0.4675370276 0.6734859343 -0.1244427196 -0.4990337806 0.0039932435 0.4386752255
0.2560974872 0.2723077051 -0.1276069632 -0.5196431200 -0.0000852927 0.4225024222
-0.2560975848 0.4250057634 -0.2754204122 -0.5243902415 0.0000000000 0.4146341547
0.3780486948 0.3722016466 -0.0392332645 -0.4769074413 -0.0023079510 0.4216499589
0.2017876388 0.8004726536 -0.1456071565 -0.4994801952 0.0035575850 0.4387473962
0.3780485973 0.0962562833 -0.3073327749 -0.4845183186 -0.0035748533 0.4040396191
-0.0480532392 0.3170731398 0.1040607459 -0.4991495611 0.0222420222 0.4186514470
0.4950442444 0.5072393651 0.1292943532 -0.4798620995 -0.0118955842 0.4208590077
0.2299039288 0.3170731398 0.2325830749 -0.5069499505 0.0205532175 0.4220295686
0.3421138691 0.7411124155 -0.1357138404 -0.4992318537 0.0037875362 0.4387087377
-0.2716871442 0.0731707246 -0.4146448620 -0.4992676098 -0.0108845843 0.3944136444
0.3717689637 0.6585365211 0.1028008924 -0.5028208290 0.0237179489 0.4148185205
-0.3871322549 0.5935674055 -0.4390242986 -0.5030159509 0.0017094632 0.3916346691
0.3476451856 0.6525232534 -0.2291640996 -0.5088617065 0.0165777545 0.4241221537
0.3450656980 0.0731707246 -0.3634315255 -0.4978747319 -0.0190875835 0.4095735210
-0.2419790252 0.3161838960 -0.4390242986 -0.5008404389 -0.0065114872 0.3935832787
0.0549362385 0.4146341059 -0.3313191140 -0.5002034634 0.0238384855 0.4195410566
0.2758826804 0.0731707246 -0.0360706062 -0.5123522671 -0.0102189746 0.4238267391
0.3780486948 0.2948822639 0.0709337736 -0.4767340998 -0.0036416582 0.4201138615
0.3363320891 0.5681719446 0.4146341547 -0.5000000000 0.0000000000 0.4390243962
0.2560974872 0.1992850049 -0.0188712177 -0.5167846325 0.0050497800 0.4194329835
0.0419383618 0.7073170042 -0.3766060852 -0.4995338049 0.0152262424 0.4129336914
-0.1814580067 0.3170731398 0.3587946723 -0.4891876352 0.0145907547 0.4281550314
0.2180982714 0.3903386692 0.4390243962 -0.4993125854 0.0001198049 0.4383915914
0.2560974872 0.4812046116 0.1550733019 -0.5225590466 0.0020002193 0.4228100807
-0.4024390339 0.0826443090 0.3049687995 -0.5236037538 -0.0030772680 0.4168877886
0.3285161631 0.0731707246 0.2432148543 -0.4948035859 -0.0171259739 0.4130606426
-0.4024390339 0.1837105918 -0.2413064155 -0.5231750221 -0.0034597558 0.4158773253
-0.2765094364 0.8228467734 -0.2156812960 -0.5000000000 0.0241450952 0.4111848623
-0.4024390339 0.2332370992 -0.1140497694 -0.5228914124 -0.0041853654 0.4214905442
0.3550565019 0.0474946295 0.2926829471 -0.4915838301 -0.0181192665 0.4036487655
0.4429269080 0.8076017505 -0.1463414004 -0.5000000000 0.0017054389 0.4382495182
-0.1539770094 0.3170731398 0.0398789229 -0.4965220735 0.0228509246 0.4169644959
-0.1039154533 0.3396619669 0.4146341547 -0.5000000000 0.0000000000 0.4390243962
0.2841655576 0.0731707246 -0.0781914314 -0.5092298284 -0.0100381210 0.4238402513
-0.2360573916 0.6311430848 -0.1254152317 -0.4988266343 0.0014254633 0.4389376401
0.3403113814 0.5329833139 -0.1463414004 -0.5061419750 0.0006071463 0.4249687634
0.4065414969 0.8219633344 -0.2218653198 -0.5000000000 0.0241450952 0.4111848623
-0.0760534804 0.4146341059 -0.3112247013 -0.4998637561 0.0236932416 0.4201671297
-0.1697160566 0.4146341059 0.1457106199 -0.4890086108 0.0208319004 0.4160852765
0.1808782263 0.0731707246 -0.1033848436 -0.5011909999 -0.0221038515 0.4123815451
0.3780486948 0.3322389676 -0.3021232388 -0.4792674410 -0.0014689999 0.4090285455
-0.2804878263 0.2984052392 0.1598786673 -0.4836324894 0.0133963158 0.4204386907
-0.2484936587 0.4078927895 0.4146341547 -0.5010324145 0.0023573900 0.3905101082
-0.2504889512 0.4146341059 -0.1847273478 -0.4901728790 0.0220228271 0.4159461302
0.4483878099 0.4376085427 0.2722762661 -0.4821791969 -0.0156972668 0.4177462275
0.2560974872 0.4970778052 -0.3400369180 -0.5067678774 0.0080085114 0.4311062262
0.1636521792 0.7073170042 -0.4074582285 -0.4983160977 0.0095114869 0.4019834486
0.3780486948 0.2058869067 0.3238414806 -0.4759416853 -0.0025784388 0.4158026911
0.1255344999 0.4822262944 -0.3081225065 -0.5004126585 -0.0036735606 0.3905287180
-0.0354311917 0.7073170042 -0.3886122304 -0.5000065122 0.0130072426 0.4086422772
0.1192150371 0.4073145944 -0.1731877880 -0.5000000000 -0.0241450952 0.4180834470
0.4063527165 0.6082552821 0.4146341547 -0.5000000000 0.0000000000 0.4390243962
-0.2804878263 0.4478966392 -0.2617603159 -0.4892702206 0.0161478521 0.4200873737
-0.0227318271 0.1832279090 -0.4390242986 -0.5003806097 -0.0138743889 0.3984203758
-0.2790570459 0.3232763831 0.4390243962 -0.5010879755 -0.0021580242 0.4386665426
-0.0245014366 0.5065195847 -0.4390242986 -0.4975093661 0.0022528290 0.3911435228
-0.2804878263 0.4158722521 -0.0377816305 -0.4842893918 0.0185046567 0.4148272766
0.3812589872 0.6585365211 0.2705992907 -0.4992213903 0.0242943879 0.4146341547
-0.2934468738 0.0731707246 -0.2919858740 -0.4931543421 -0.0179272422 0.4265484706
0.1077569895 0.3967101564 -0.2474190978 -0.5000000000 -0.0241450952 0.4180834470
0.1614489111 0.3170731398 0.2075414676 -0.5048788532 0.0209842175 0.4213713735
-0.3751215975 0.6620154720 -0.3414632838 -0.5033459753 0.0044478044 0.4376187378
0.3780486948 0.1375199134 -0.2285866362 -0.4808987824 -0.0046878288 0.4115465208
0.0149784132 0.0731707246 0.1743097635 -0.5005755609 -0.0220434857 0.4188745201
0.0163496569 0.6283754753 -0.1241398172 -0.4997387073 0.0032451704 0.4388042499
0.1053229409 0.0731707246 -0.2984756050 -0.4971024881 -0.0221997539 0.4079359602
0.2560974872 0.1487201074 -0.0825968944 -0.5172137544 -0.0012682682 0.4226500319
-0.3419162349 0.6404702546 0.1048926239 -0.4879256109 0.0208364126 0.4174812763
-0.3187266274 0.0731707246 0.3567383067 -0.4967370003 -0.0172126812 0.4276726168
0.2560974872 0.4911992692 0.2198887834 -0.5224976563 0.0023005364 0.4220416174
0.0516651901 0.8281737729 -0.1783926655 -0.5000000000 0.0241451196 0.4111848623
0.0717853345 0.7154732961 -0.1379433524 -0.5000368537 0.0030065119 0.4388148840
0.0481972392 0.4163756911 -0.0975609173 -0.4999681951 0.0002271707 0.4390092255
0.2259823682 0.4417314691 -0.0982376977 -0.4999694878 0.0047133410 0.4385622499
-0.3426160154 0.5413025569 -0.0371010939 -0.5131930475 -0.0040798289 0.4161373496
-0.3474140637 0.5419023130 0.0376717036 -0.5124903646 -0.0148159742 0.4150654229
-0.2520114632 0.4809988555 -0.3414633325 -0.4950690980 0.0107304136 0.4297061288
-0.3011486048 0.5816363335 -0.1255472073 -0.4793137093 0.0099245600 0.4228565929
-0.3017589462 0.1210704272 0.4146341547 -0.4960730004 -0.0127221451 0.4286574948
-0.1773104461 0.4146341059 0.1055169409 -0.4882642207 0.0203936809 0.4156794960
0.1461476931 0.0731707246 -0.0051946336 -0.5013429267 -0.0220646076 0.4146477644
0.3780486948 0.6107646965 -0.3936636445 -0.4879551719 0.0018384145 0.3963435711
-0.3333872358 0.5330216309 -0.1360826453 -0.5145057303 0.0189877542 0.4174521300
0.1311696945 0.0731707246 0.0296745337 -0.5013560243 -0.0220526320 0.4154558131
0.1715036174 0.0731707246 0.4060025701 -0.5046166093 -0.0217724857 0.4239265684
-0.3129551646 0.1922197617 -0.1463414004 -0.5038583655 -0.0071715847 0.4287784948
-0.0124432671 0.6757133975 -0.3275049924 -0.4999009024 -0.0032542924 0.3904648400
-0.2938703128 0.7646649742 -0.1396392547 -0.5007082926 0.0036924874 0.4387227377
0.1776072022 0.4146341059 0.1790897630 -0.5000275610 0.0241639733 0.4173365934
0.2560974872 0.5235686318 0.3060028482 -0.5227462905 0.0047559508 0.4190851055
-0.2589854138 0.4146341059 0.2427686836 -0.4888788547 0.0214242418 0.4161224472
-0.1176304275 0.4146341059 0.1256769146 -0.4895331230 0.0206992663 0.4154962765
0.3780486948 0.1808631531 -0.3853484502 -0.4858675867 -0.0010868779 0.3991190342
-0.2751617536 0.5589926528 -0.2916881911 -0.5184688519 -0.0154119253 0.4169054959
-0.3621906964 0.7500343415 -0.1372008403 -0.5008727804 0.0038100728 0.4387013231
0.1888048840 0.4073344481 0.4146341547 -0.5000000000 0.0000000000 0.3902439131
0.3246686269 0.3802560361 0.1463414979 -0.4973720978 -0.0009396828 0.4201485688
-0.4024390339 0.3181551641 0.2298356117 -0.5238556806 -0.0008851219 0.4187364226
0.2560974872 0.4013103023 0.2487857562 -0.5240851440 0.0000000000 0.4176288617
-0.4024390339 0.4836927821 -0.4080160334 -0.5134269011 0.0007898292 0.4015721559
-0.3256853585 0.6305633531 0.3051152141 -0.4857585380 0.0191274859 0.4159778862
0.3780486948 0.3419411130 -0.1276594266 -0.4770544900 -0.0028021705 0.4216602028
-0.4024390339 0.2964367760 -0.2021410291 -0.5236749489 -0.0026105607 0.4176129593
-0.2630336573 0.3208575541 0.4146341547 -0.5000000000 0.0000000000 0.3902439131
0.2531350973 0.6875953963 -0.3414633325 -0.4991678050 0.0193092176 0.4239491050
-0.1201475493 0.0731707246 -0.0544259459 -0.4925215617 -0.0219839247 0.4127906914
-0.4246482025 0.7873870207 -0.1434262299 -0.5010992438 0.0039169752 0.4386781523
0.2560974384 0.4429578592 0.3657279887 -0.5238095587 0.0010027560 0.4166379837
-0.2804878263 0.1409359619 0.0723374076 -0.4879128792 -0.0113419013 0.4173381544
0.0892470157 0.4146341059 0.3396806498 -0.4961444150 0.0232582904 0.4163377886
0.3780486948 0.2193901981 -0.1263011340 -0.4770783193 -0.0051318775 0.4198533981
-0.4024390339 0.6392081084 -0.3911080838 -0.5083971943 0.0022822925 0.4111238379
-0.4985428294 0.7985799953 -0.1463414004 -0.5000000000 0.0000000000 0.4390243962
0.0084500236 0.6126213061 -0.3200446029 -0.5001252439 -0.0034157314 0.3904878887
0.2090321259 0.6558876677 -0.4390242986 -0.4970557076 0.0033050241 0.3908854497
0.3780486948 0.3134606280 -0.2486054148 -0.4808440750 -0.0012903413 0.4124334963
0.2560974872 0.2211323931 0.2053381263 -0.5194884859 -0.0066166823 0.4203364468
0.4534918582 0.4656870765 0.3155835546 -0.4788507094 -0.0113780965 0.4168173740
-0.0741613830 0.0731707246 -0.1453256200 -0.4937569518 -0.0221615344 0.4118016671
-0.4651082473 0.5165565350 -0.0637507011 -0.5078923651 0.0226206075 0.4159985448
0.4703226858 0.5906528692 0.0408255814 -0.4825215627 0.0151876327 0.4215408125
-0.3632196231 0.5301048507 0.2265611486 -0.5125182183 -0.0085747553 0.4132257646
0.3780486948 0.3445890396 -0.2032448094 -0.4796928556 -0.0013639999 0.4168084471
0.2560975360 0.2183493446 -0.0347576551 -0.5163007301 0.0074224383 0.4188231787
-0.2472116100 0.4146341059 0.3875109378 -0.4909816838 0.0224911198 0.4149564717
0.2795175825 0.6948164200 -0.1279978168 -0.4998694390 0.0038105362 0.4387197377
-0.2804878263 0.3039119216 0.3175392373 -0.4857869770 0.0116051452 0.4270602022
-0.2804878263 0.4471727369 0.0474079222 -0.4830542212 0.0141038767 0.4175099837
0.0264411438 0.3170731398 0.3267366511 -0.4952920980 0.0185190958 0.4250905195
0.1735463733 0.4536712972 -0.1012226487 -0.4997851951 0.0042261215 0.4386420304
0.0219085832 0.4370577378 -0.0975609173 -0.4996169025 0.0030196095 0.4388136157
0.3185818470 0.3062594091 0.1463414979 -0.4988600733 -0.0035065850 0.4209243004
-0.2804878263 0.2008102243 0.3918322545 -0.4912973179 -0.0042072923 0.4274257876
0.3136983840 0.7541361215 -0.3370714061 -0.5000409756 -0.0037031216 0.3905307912
-0.0620532622 0.6050285995 -0.1196948176 -0.5000202195 0.0032822192 0.4387975182
-0.4507866633 0.5548238971 0.0984352343 -0.5093996576 -0.0221531442 0.4161239106
-0.4079428870 0.4146341059 0.2260440511 -0.5201478517 -0.0066689993 0.4186591299
0.3584195748 0.2084131748 0.4146341547 -0.5009630731 -0.0073711212 0.4359321282
-0.1510379853 0.4146341059 0.0845070405 -0.4883598548 0.0202110468 0.4152580570
-0.1384341084 0.0731707246 -0.3838881577 -0.4983436343 -0.0154123887 0.4000402780
-0.3482966489 0.7093748576 -0.3296111630 -0.4999762195 -0.0038414386 0.3905512790
0.4512193218 0.4559424433 -0.0375677280 -0.4802037336 -0.0124061939 0.4207502516
0.2013275169 0.3170731398 0.2263058072 -0.5059906092 0.0207426565 0.4218645686
0.3780486948 0.2979028734 0.3979494246 -0.4757071243 -0.0014933901 0.4148488864
0.4852791722 0.4974742929 0.1550395458 -0.4815459774 -0.0144691937 0.4201975200
0.2560974872 0.4673758812 -0.0761186999 -0.5229323148 0.0013601462 0.4201275688
-0.0565330189 0.8251264805 -0.1997236634 -0.5000000000 0.0241450952 0.4111848623
0.1553427897 0.7482654392 -0.1369059866 -0.4997949268 0.0035174387 0.4387621035
-0.3400957961 0.5321831188 -0.0703786029 -0.5139712913 0.0161868521 0.4170220081
-0.2804878263 0.2288983923 0.0401698497 -0.4859672209 0.0023796339 0.4187485445
0.2041892728 0.0731707246 -0.4142077401 -0.4992544635 -0.0221547539 0.4055200824
-0.2937896299 0.8090704089 -0.1463414004 -0.5000000000 0.0018749510 0.4385817865
-0.1709670321 0.3170731398 0.3221219442 -0.4889860255 0.0153794863 0.4265479096
0.3780486948 0.3561051848 0.3491251855 -0.4758848316 -0.0023989266 0.4157124229
0.4538837606 0.8292682118 -0.1640361059 -0.5000000000 0.0236833635 0.4176284958
-0.2379069768 0.4146341059 -0.0211965589 -0.4858852941 0.0192695591 0.4152619839
-0.1552700580 0.0731707246 0.1315867189 -0.4955371468 -0.0220301686 0.4173790568
-0.4937605372 0.5807927238 0.4146341547 -0.5000000000 0.0000000000 0.4390243962
-0.0085423650 0.4146341059 -0.1997032000 -0.4999250488 0.0238117294 0.4194718127
-0.2804878263 0.3780446948 -0.0743972366 -0.4856501721 0.0145299010 0.4156375448
-0.4134861060 0.5230092660 0.1236920367 -0.5096843649 0.0073402432 0.4149695693
-0.4024390339 0.1301790117 0.0886127231 -0.5225364856 -0.0068759749 0.4204330322
0.2560974872 0.4846003917 0.1923684446 -0.5225696319 0.0021022681 0.4222552515
0.4092010089 0.6000733561 -0.3414633325 -0.4917224886 0.0125248524 0.4047184727
-0.2804878263 0.4190676664 -0.1662477887 -0.4884698792 0.0204003639 0.4190422274
-0.4024390339 0.2343619527 -0.3593066723 -0.5234239002 -0.0016094389 0.4099949112
0.0906585521 0.0731707246 -0.1061809165 -0.4997782195 -0.0221731930 0.4124299842
0.3281349680 0.6330130358 -0.2328241236 -0.5125388280 0.0125388280 0.4264474218
0.2560974872 0.1746680073 0.0236904367 -0.5175874129 0.0019912681 0.4198872029
-0.4024390339 0.1943374932 -0.1325965724 -0.5228302173 -0.0045527800 0.4215586418
0.2400042205 0.2064783945 0.4146341547 -0.5045569020 0.0015050730 0.4255661048
0.1374118403 0.0731707246 -0.1309851092 -0.5003263414 -0.0221546808 0.4118104720
0.2477964392 0.6686800323 -0.3228733831 -0.4993173659 -0.0021578534 0.3903588887
0.3780486948 0.2046802971 0.2964334101 -0.4760344170 -0.0031467802 0.4161554472
-0.2511813657 0.3170731398 0.1597519112 -0.4841764650 0.0168309496 0.4205061785
0.3780486948 0.3253846512 0.0651855546 -0.4767513193 -0.0032928289 0.4204254712
0.2560974872 0.4456799809 -0.2431026348 -0.4756097585 0.0000000000 0.4146341547
-0.1213699394 0.4285385923 -0.3414632838 -0.5007449268 0.0209803638 0.4226303490
-0.1246777927 0.4146341059 0.2191616859 -0.4908684155 0.0216805589 0.4166111301
-0.3374948207 0.0731707246 -0.1183645982 -0.5058634141 -0.0150792180 0.4185922518
-0.3861930599 0.0731707246 -0.1678651787 -0.5168088032 -0.0102586331 0.4207729589
-0.1083863797 0.0731707246 0.4060260336 -0.5002946829 -0.0219818515 0.4242737635
0.3701818663 0.0495701171 0.3719590125 -0.4866454647 -0.0127323158 0.4271553242
-0.4669668325 0.5163241935 -0.2248827098 -0.5083811699 0.0223802905 0.4163834960
-0.2804878263 0.1088046235 0.4099497161 -0.4959647565 -0.0171105837 0.4255007634
0.2560974872 0.4411030789 0.0244375586 -0.5234126075 0.0006826097 0.4196900566
-0.3788334265 0.6585364723 0.3859791575 -0.4941468786 0.0236444611 0.4147513986
0.3177631885 0.2984013367 -0.1463414004 -0.4934537080 -0.0036934631 0.4274745681
0.0846567722 0.6139220133 -0.4390242986 -0.4976327563 0.0030116339 0.3909434009
-0.5000000000 0.5761506023 0.1890032742 -0.5187168762 0.0016040486 0.4194451054
-0.1732997636 0.3404043083 -0.4390242986 -0.5009241950 -0.0077381700 0.3952289858
-0.3952400834 0.0731707246 -0.1942709323 -0.5169934374 -0.0111878282 0.4205716419
-0.0453026541 0.3672844276 0.4146341547 -0.5006121951 -0.0015499755 0.3907946448
0.2901349229 0.0731707246 -0.1631465451 -0.5061503409 -0.0114150477 0.4238283489
-0.4024390339 0.0736592855 0.3307252604 -0.5237638757 -0.0024901705 0.4163491057
0.0204939980 0.8280429436 -0.1793085679 -0.5000000000 0.0241450952 0.4111848623
-0.4050533019 0.5962265272 -0.3414633325 -0.5068902432 0.0016459511 0.4323240554
0.4516782974 0.4638734669 0.3655048424 -0.4783898558 -0.0109673160 0.4157170326
-0.3948303029 0.7261426365 -0.3324057968 -0.4999867317 -0.0039159021 0.3905621082
-0.4024390339 0.3138171645 -0.3338029674 -0.5238315343 -0.0014476096 0.4122153256
0.2804877287 0.0596968478 -0.3418839666 -0.5128485597 -0.0123735110 0.4105514478
-0.3962312540 0.6786831045 -0.1253089390 -0.5007342926 0.0038967557 0.4386935426
-0.1352071575 0.0731707246 -0.0029324387 -0.4923218788 -0.0218975832 0.4134040572
0.1918177130 0.3872179622 0.4390243962 -0.4994175854 0.0000597561 0.4384323475
0.4568312969 0.8217434076 -0.2234054416 -0.5000000000 0.0241450952 0.4111848623
0.2540060972 0.1654960814 -0.4390242986 -0.4930609031 -0.0020103413 0.3930060592
-0.2861473623 0.6668475447 -0.1251870366 -0.4991955123 0.0021011461 0.4389121035
-0.4251662512 0.5215492662 0.2711193882 -0.5103061697 0.0065770969 0.4134047889
-0.2556048775 0.4158638863 -0.0975609173 -0.5000399268 0.0001814390 0.4390102011
-0.0792251142 0.0731707246 0.3148256278 -0.5001057561 -0.0220206320 0.4221727149
0.0893041864 0.0731707246 -0.2148348815 -0.4979597563 -0.0221633637 0.4096086917
0.2560974872 0.4979219270 -0.2287087094 -0.4756097585 0.0000000000 0.4146341547
-0.2804878263 0.3150767741 -0.0378277524 -0.4929926592 0.0227510466 0.4149813254
0.2098423698 0.2071720773 0.4146341547 -0.5040850240 0.0016033413 0.4256114219
-0.4212089345 0.5511266535 -0.3383304548 -0.5085320236 -0.0021234144 0.4279238119
-0.2804878263 0.1318104749 -0.0716197247 -0.4891948303 -0.0132424133 0.4171948617
-0.4551541507 0.5178008275 -0.0150948034 -0.5083047797 0.0223700710 0.4160703740
-0.0042700484 0.4146341059 0.4383763475 -0.5001597805 0.0070537554 0.4364455184
-0.3282744802 0.1067565262 0.4146341547 -0.4973342442 -0.0113877306 0.4316060555
0.1430647665 0.3437021372 0.4390243962 -0.4990606342 -0.0054252922 0.4375596890
-0.1691247640 0.0731707246 -0.1168562081 -0.4923716349 -0.0223120222 0.4138484474
-0.5000000000 0.5628221402 0.2690277299 -0.5167146081 -0.0098199503 0.4161993252
-0.4227795441 0.8248157976 -0.2018980291 -0.5000000000 0.0241450952 0.4111848623
-0.2094220283 0.0731707246 -0.0447280200 -0.4913441960 -0.0221808515 0.4147153254
-0.2804878263 0.4834515138 -0.2760491926 -0.4882955621 0.0096742430 0.4256115926
0.3780486948 0.1234869148 -0.3033346533 -0.4843291967 -0.0031537802 0.4047899117
-0.0944387225 0.5457602150 -0.1117923793 -0.5001192439 0.0033356094 0.4387878840
-0.2804878263 0.2604954136 -0.0945571615 -0.4874522451 -0.0000001707 0.4154588619
0.3780486948 0.4294422996 -0.3623255012 -0.4810900506 -0.0002642683 0.4010731072
-0.2015851511 0.0731707246 -0.4248857390 -0.4995752439 -0.0120832671 0.3952031322
-0.0791793337 0.3170731398 0.0798595532 -0.4984986831 0.0224087783 0.4180153495
-0.0846847478 0.4146341059 0.2261204414 -0.4916172691 0.0218158271 0.4164136423
0.2560974872 0.3452645761 0.1604962039 -0.5240555586 0.0000000000 0.4185070323
-0.2064946872 0.6138884279 -0.3414633325 -0.4958869028 0.0062900482 0.4369364452
0.3780486948 0.2915412886 -0.1919699325 -0.4791870996 -0.0026435119 0.4170174471
-0.1698769834 0.3170731154 0.2028859558 -0.4872870012 0.0174058032 0.4215982759
-0.0556719214 0.5046323410 -0.1063086726 -0.4998642683 0.0032635363 0.4387992255
0.2560974872 0.1401441814 -0.0252828268 -0.5178363153 -0.0023237559 0.4221662515
-0.3626719646 0.0731707246 -0.1223084271 -0.5123487305 -0.0116055355 0.4197066176
-0.0054299995 0.3575395993 -0.4390242986 -0.4983691953 -0.0046918044 0.3949119859
0.3780486948 0.5821986749 -0.4069840091 -0.4898746351 0.0019701461 0.3948415225
-0.2804878263 0.5286150216 0.3082398968 -0.4769260754 0.0013508291 0.4177247397
0.2230622221 0.7073170042 -0.3561174043 -0.4984921221 0.0190086323 0.4202548127
0.0256126560 0.5622537500 -0.4390242986 -0.4976233661 0.0026468534 0.3910380594
-0.2804878263 0.1908757131 0.3589929162 -0.4906816838 -0.0055534873 0.4261233731
-0.3780487924 0.0111829745 0.3301291385 -0.5141111450 -0.0127614378 0.4140275206
0.3177711885 0.2234939050 0.1463415223 -0.4982805124 -0.0063589750 0.4217199101
-0.1351447185 0.4049470093 -0.1897609815 -0.5000000000 -0.0241450952 0.4180834470
0.1527095217 0.4146341059 -0.1982054685 -0.5003187805 0.0239999245 0.4186208860
0.3154387253 0.1327211822 -0.4390242986 -0.4915722447 -0.0004156097 0.3920183520
-0.4854166112 0.5140180230 -0.1639112523 -0.5070234139 0.0230882173 0.4160854472
-0.1806928116 0.1111943550 0.4146341547 -0.4989024635 -0.0154069741 0.4249943244
-0.3426894544 0.2327266602 0.4146341547 -0.4952411224 0.0000100732 0.4353081283
-0.2708413394 0.0731707246 0.2157594911 -0.4918334886 -0.0218596564 0.4185492762
0.3304015531 0.6783512265 -0.4390242986 -0.4963275857 0.0034599753 0.3908680106
-0.2551921458 0.2269555876 0.4146341547 -0.4916697813 -0.0001660732 0.4286407874
-0.4024390339 0.1956394931 -0.1579230090 -0.5229753392 -0.0043279020 0.4207814224
-0.0169272666 0.6410412058 -0.3230912856 -0.4999013415 -0.0033276094 0.3904753278
0.0533702631 0.4982684148 -0.1085198431 -0.4995200976 0.0033006826 0.4387937133
0.1174739154 0.4146341059 0.1293716215 -0.4999266342 0.0240761928 0.4178042275
0.3237790416 0.7280763436 -0.3327281383 -0.5000384146 -0.0037221948 0.3905335960
0.4546507849 0.4668460032 0.1964824442 -0.4793567581 -0.0115348038 0.4194425444
0.3780486948 0.2019633949 0.2659249253 -0.4761373438 -0.0037724143 0.4165481057
0.3165779203 0.7073170042 -0.3530503314 -0.4979288783 0.0195705103 0.4213569345
-0.3503862341 0.8263117243 -0.1914274935 -0.5000000000 0.0241450952 0.4111848623
-0.2804878263 0.1565669603 0.0952177468 -0.4873547329 -0.0088131943 0.4175898129
-0.2804878019 0.2594085357 0.3715185491 -0.4880422938 0.0040226581 0.4283758119
0.0574512383 0.5639542864 -0.3414633813 -0.5010257072 0.0041405850 0.4377158597
0.3780486948 0.1259098414 0.3548144288 -0.4758221487 -0.0015222438 0.4154040570
-0.0961046492 0.4146341059 -0.0417810203 -0.4957246102 0.0232451685 0.4168330325
0.0830244553 0.5298900459 -0.3414633325 -0.5033716338 0.0018512925 0.4362015916
-0.2804878263 0.3705384517 0.1212309882 -0.4866865623 0.0197098030 0.4176461544
-0.4024390339 0.2555697556 -0.0117803891 -0.5228563880 -0.0045992678 0.4210010077
-0.2804878263 0.4942168786 -0.0357129965 -0.4798164654 0.0064612677 0.4207286907
-0.0819274554 0.0731707246 -0.2979118734 -0.4957607809 -0.0205988516 0.4084178870
-0.2296953191 0.0731707246 0.2585827797 -0.4954942443 -0.0220188027 0.4204223736
-0.4024390339 0.1784449094 0.3268131876 -0.5241159001 -0.0005040487 0.4165746179
0.1618736427 0.4480991758 -0.3010490926 -0.5002480975 -0.0045223166 0.3906954985
-0.2043057606 0.0731707246 0.0434012641 -0.4907623911 -0.0218814857 0.4146025449
0.3780486948 0.1730419099 -0.1768868852 -0.4785206362 -0.0052583410 0.4165989106
0.4327415919 0.5201760712 -0.3414633325 -0.4797030752 -0.0051537800 0.4040319850
-0.3090388967 0.4696827834 -0.1463414004 -0.4917501959 0.0061811213 0.4223327637
-0.2804878263 0.4798299288 0.1813080555 -0.4817024164 0.0096190235 0.4192646420
-0.1908827375 0.8285624070 -0.1756720560 -0.5000000000 0.0241450952 0.4111848623
-0.2240459538 0.2620135842 -0.4390242986 -0.5006530975 -0.0078234383 0.3938931811
-0.3938695225 0.5254613878 -0.2798873385 -0.5116004379 0.0202453395 0.4185689836
-0.0255667048 0.5778604802 -0.3414633813 -0.4994912196 0.0030260485 0.4377389573
0.3708902809 0.6341462796 -0.2542655118 -0.5000000000 -0.0243902415 0.4146341547
0.2560974872 0.4825560749 0.0718621393 -0.5224268027 0.0019087071 0.4232464953
-0.2804878263 0.5273411437 0.2829664602 -0.4771881973 0.0015667316 0.4184927640
0.0825879919 0.5037022435 -0.1106078673 -0.4994791952 0.0033523411 0.4387855426
-0.1403971326 0.2143247108 -0.4390242986 -0.5004881707 -0.0105828038 0.3957446687
0.4512194194 0.6152920863 0.2536779265 -0.4795538069 0.0121966086 0.4177758129
0.3390305767 0.2424037568 0.4146341547 -0.5019143901 -0.0087407065 0.4339093235
-0.2066476384 0.4146341059 -0.0750085293 -0.4902507327 0.0214454857 0.4191358615
-0.2390730255 0.0731707246 0.1116933550 -0.4902475375 -0.0217970710 0.4156818619
0.3780486948 0.2951358493 0.2753576317 -0.4761259779 -0.0030863412 0.4169733740
0.2803627775 0.1685393250 0.4146341547 -0.5045933898 -0.0134530962 0.4272621778
-0.4161570570 0.5504951902 -0.2132888085 -0.5097895356 -0.0057976336 0.4161811789
-0.2002443219 0.3170731398 -0.0432887031 -0.4966256833 0.0229912660 0.4147784961
-0.0071208774 0.8275864802 -0.1825038359 -0.5000000000 0.0241451196 0.4111848623
0.3240267245 0.0000000000 -0.3382383816 -0.5022978534 -0.0164768764 0.4114212525
-0.2772520705 0.4146341059 -0.3168771398 -0.4974479515 0.0231952660 0.4199266420
-0.2781578265 0.1671192764 0.4146341547 -0.4936003177 -0.0089161699 0.4272099827
-0.0770043583 0.6654630814 -0.3291511630 -0.4997230488 -0.0032806094 0.3904707912
-0.1989315660 0.3170731398 0.0651489449 -0.4928200983 0.0215706077 0.4177214958
-0.2073453212 0.1419192057 -0.4390242986 -0.5002377561 -0.0101869258 0.3940438152
0.3494422830 0.0731707246 -0.0736521148 -0.4872965622 -0.0085031699 0.4189268860
0.3780486948 0.3159298960 0.3205285785 -0.4759742462 -0.0028568534 0.4160447155
