-0.2444172704 0.8077136260 0.3831493916 -0.4950332395 0.0099707570 -0.4724853746
0.4999998988 1.0264718969 0.2405360472 -0.4934763657 0.0116075464 -0.4727061392
0.4211462142 0.8077136260 0.0223337304 -0.4959911713 0.0106612294 -0.4723975677
0.0834566099 0.9615692013 -0.2907157372 -0.4948993216 0.0118658140 -0.4710836979
-0.1157476008 0.9254705422 0.0388340908 -0.4952429648 0.0132557001 -0.4727752311
-0.2532336288 0.9254706433 0.1693696037 -0.4952128787 0.0131917133 -0.4730141401
-0.4331062140 0.3739665294 0.3776637456 -0.4948883288 0.0111931976 -0.4739337163
0.1043333882 0.9254706433 0.2338264315 -0.4951950277 0.0132508655 -0.4728547320
0.3921941787 1.2671668738 0.3986207514 -0.4967548986 0.0116032756 -0.4727972599
-0.1442511131 1.4908604027 -0.2982454261 -0.4949710871 0.0110350516 -0.4742141422
-0.3102148630 0.9765451424 -0.0334860182 -0.4956016742 0.0131717294 -0.4728950181
0.4262679379 1.0200604038 0.4726865683 -0.4947249600 0.0127306315 -0.4730725327
0.4999998988 1.5509709798 -0.3465412177 -0.4944971847 0.0111276616 -0.4734987766
0.4703131375 0.3489841460 0.3926643875 -0.4939251311 0.0112169961 -0.4731088251
-0.2372762145 1.1778397491 -0.2198129849 -0.4961773004 0.0120695470 -0.4734021379
0.1636187408 0.9785377503 -0.0642505730 -0.4956396218 0.0129512584 -0.4733056651
0.4999998988 0.9805277261 0.2140840844 -0.4934916841 0.0114016341 -0.4726868088
0.1350491005 0.8077136774 0.3813827278 -0.4951342253 0.0099603363 -0.4725677250
-0.0911696564 1.4708050525 -0.2906455093 -0.4950285575 0.0110307111 -0.4742227567
-0.4940603145 1.1046268926 -0.1337471291 -0.4934765465 0.0115398394 -0.4726835663
0.1781152565 0.9747677478 -0.0060426624 -0.4956252721 0.0129881064 -0.4732121113
-0.4971482816 1.1043407165 0.0794147014 -0.4934723753 0.0116184364 -0.4726785907
0.1982476945 1.5098516242 -0.3054421080 -0.4951250005 0.0116158491 -0.4741986165
0.2460886074 1.4251414901 -0.2733414456 -0.4951371792 0.0116919085 -0.4742506950
0.4849474273 1.3369164549 0.0572821655 -0.4944755771 0.0130672673 -0.4728357167
0.4389175162 1.3384494788 0.4497850393 -0.4951610109 0.0132312664 -0.4727407448
-0.2778225828 0.9940312799 -0.2971038829 -0.4949250142 0.0118175154 -0.4710886918
-0.4946648707 1.3583594638 -0.2671972626 -0.4937220815 0.0114436104 -0.4730032833
-0.4969629437 1.1136517357 0.0152260794 -0.4934783726 0.0115279277 -0.4726734011
-0.0367295705 0.8077136260 0.0206716382 -0.4951442313 0.0099584589 -0.4726550011
-0.0852849634 1.1301326596 -0.3238868789 -0.4947156240 0.0116091419 -0.4711493682
-0.3873241051 1.1867091015 0.2766985307 -0.4967270333 0.0115594269 -0.4729769040
-0.1615715616 1.3600496982 -0.3719294433 -0.4943573043 0.0112849402 -0.4714879478
-0.3873241051 1.1638308552 0.3454591966 -0.4967459142 0.0115828589 -0.4729107130
-0.4293205664 0.6499328643 -0.2466449877 -0.4954706936 0.0112642299 -0.4738202135
-0.2655773423 0.9751140563 -0.0113896221 -0.4955932903 0.0131756834 -0.4728805539
0.3921941787 1.2559007034 0.3170173094 -0.4967363593 0.0115917006 -0.4726742271
-0.4952997801 1.0990310095 0.3418290447 -0.4934933775 0.0116117243 -0.4728370933
-0.2805026180 0.9772668088 -0.0446281822 -0.4955833307 0.0131781016 -0.4729017220
0.0714534845 1.3300544881 -0.3632289296 -0.4943599514 0.0113070670 -0.4712588856
0.3921941787 1.3236162725 -0.0441067475 -0.4963341594 0.0116098468 -0.4736912297
-0.3873241051 1.2076779493 0.3803167781 -0.4967521785 0.0115863634 -0.4729190754
0.1633449142 1.1475911624 -0.3273225063 -0.4946838230 0.0115798071 -0.4711504114
-0.3285936833 0.9254706433 0.3064896595 -0.4951790642 0.0131391920 -0.4732206097
-0.2790968132 0.8077136260 0.2958971737 -0.4950346759 0.0099683919 -0.4725042871
0.4182418286 0.8077136260 0.1131427592 -0.4960773297 0.0106934716 -0.4727341471
-0.0149950185 0.8077136260 -0.0037280918 -0.4951589510 0.0099606050 -0.4726748905
-0.3873241051 1.2473511343 -0.1643811743 -0.4964037504 0.0117552236 -0.4733106805
0.2376295403 0.9254706433 -0.1204273592 -0.4951377481 0.0132650776 -0.4727294650
0.3921941787 1.2524387433 -0.0415095452 -0.4966522061 0.0115367678 -0.4721645100
0.1067284864 1.6668422877 -0.3727348781 -0.4950710578 0.0131259286 -0.4720603531
0.3374407349 0.9471023454 0.4211107793 -0.4955461891 0.0132097119 -0.4726004879
0.4431208811 1.0782235220 0.4726865683 -0.4944861404 0.0124750192 -0.4731095897
-0.4193050501 0.4062706129 0.3773292825 -0.4943564634 0.0110776945 -0.4738038170
0.1380002538 0.8077136260 0.1913424495 -0.4951634705 0.0099562795 -0.4726327517
-0.4930303303 0.9419743457 0.1484562792 -0.4934830497 0.0114493025 -0.4726724524
0.4314785400 1.3384494788 0.0884321026 -0.4951414549 0.0126589590 -0.4735355400
-0.2625369540 0.9254706433 0.2992100202 -0.4951805519 0.0131552202 -0.4731691515
-0.4922887265 1.4574551667 -0.4037143892 -0.4945455232 0.0112261778 -0.4724288828
0.3396251740 0.9254706433 -0.0266153474 -0.4951372173 0.0132625018 -0.4727629031
0.4633641151 0.6254870250 -0.1968513517 -0.4949568152 0.0106131978 -0.4716609229
-0.2703897830 1.2983747142 -0.2371175146 -0.4965281665 0.0114905175 -0.4733482881
-0.3873241051 1.1819576771 0.3701555798 -0.4967511237 0.0115872955 -0.4729068552
0.3921941787 1.1206287992 0.2394320851 -0.4967260531 0.0115917172 -0.4724738162
0.3836600988 1.2537813540 -0.3482193548 -0.4945313343 0.0114157915 -0.4711915899
0.3921941787 1.0461212143 0.0029606693 -0.4958558204 0.0126115311 -0.4729896633
-0.0856744207 0.8077136260 -0.2304806345 -0.4936840742 0.0110393041 -0.4727135065
0.3893325124 1.2738552303 -0.2335973991 -0.4964762257 0.0116734472 -0.4721987690
-0.3436573782 1.2199372874 -0.2258566830 -0.4962833066 0.0119081684 -0.4733531311
-0.4941616021 0.9400513836 0.4289875744 -0.4934819733 0.0116047650 -0.4727442162
0.0411875361 0.9254706433 -0.2042234899 -0.4951381461 0.0132673780 -0.4726995962
-0.1609307776 0.9254706433 0.0764220942 -0.4952355942 0.0132361077 -0.4728472834
0.4704864426 0.3562476144 -0.2613949464 -0.4939291912 0.0111090676 -0.4721001251
0.4253757992 1.3353160110 -0.3642643338 -0.4944125489 0.0112915645 -0.4712285159
0.3921941787 1.1079804350 0.3331220128 -0.4967488399 0.0116072711 -0.4725979371
-0.4437298607 0.4040070892 -0.2451355501 -0.4955512825 0.0109240183 -0.4717210404
-0.4435899637 0.4961826699 0.3763985758 -0.4952588802 0.0111205067 -0.4738843065
0.2875975961 1.1466910261 -0.2153411306 -0.4961432006 0.0121195224 -0.4730955268
0.4427479513 0.9040960662 0.4726865683 -0.4950456422 0.0124704598 -0.4735350391
-0.4950085719 1.0317692544 0.3514226972 -0.4934863038 0.0116094620 -0.4727808088
0.0105084695 1.5472976525 -0.4330314018 -0.4948174855 0.0111572983 -0.4732346128
-0.4925446523 1.0298672464 -0.0643403636 -0.4934787341 0.0115044294 -0.4726824070
0.4999998988 1.2912132100 -0.1993904235 -0.4934730918 0.0115961024 -0.4726874673
0.2207807452 0.9616832863 0.1959811041 -0.4955737758 0.0131205947 -0.4728798225
-0.1969265354 0.9254706433 -0.1635228965 -0.4951377149 0.0132662618 -0.4727141036
0.4999998988 0.9712768377 -0.1777320470 -0.4935277393 0.0112630408 -0.4726791330
-0.4042770521 0.8223313154 0.4717027151 -0.4941425105 0.0115961505 -0.4733455200
0.3275091263 0.9254706433 -0.0993193707 -0.4951376768 0.0132644971 -0.4727369882
-0.4983273130 1.2796091333 -0.0058146417 -0.4934858443 0.0116258369 -0.4727877481
0.1462097407 0.8581929446 0.4726865683 -0.4951283259 0.0120874908 -0.4740450481
-0.0500941345 0.9254706433 0.2286168412 -0.4951970959 0.0132193033 -0.4729495347
-0.0691465001 0.9254706433 -0.1542879019 -0.4951377464 0.0132660080 -0.4727173958
0.4999998988 1.1254434922 -0.0682038519 -0.4934908681 0.0114629540 -0.4726854206
-0.0064432236 1.2331533481 -0.3441600249 -0.4945320027 0.0114535219 -0.4712059861
0.4999998988 0.8483767876 0.4475476576 -0.4934727916 0.0116029472 -0.4726672694
0.3921941787 1.2545920033 -0.0978886379 -0.4966388150 0.0115278912 -0.4720861634
-0.0429511050 1.2213713091 -0.3418414705 -0.4945481337 0.0114719135 -0.4712021250
-0.4136593740 0.7830999978 0.3734283906 -0.4940559707 0.0106329478 -0.4733837695
0.1703631778 0.9254706433 0.2665753447 -0.4951352088 0.0132544529 -0.4728674066
0.1827557836 0.9254706433 0.2144830817 -0.4951355538 0.0132558842 -0.4728488391
0.0156049369 1.6701593868 -0.4021741954 -0.4951116889 0.0132678938 -0.4726675613
-0.4344659443 0.0561662859 -0.3631390113 -0.4951545442 0.0117756022 -0.4740752967
0.0275617489 1.2983306797 -0.2371111889 -0.4965334341 0.0115331836 -0.4727685239
-0.1412164700 0.9831300418 -0.1351561217 -0.4955936568 0.0130791293 -0.4731344961
-0.4946999059 1.4999727077 -0.3194172273 -0.4942116190 0.0112218772 -0.4736402625
0.4999998988 0.9694936747 -0.0856169519 -0.4935199624 0.0112914152 -0.4726808281
-0.2010639763 0.9522132354 0.3421983821 -0.4957399890 0.0131348466 -0.4726564275
-0.0389934741 1.5621526240 -0.4378788296 -0.4948470375 0.0111482741 -0.4733777987
-0.4843052618 0.8494300346 -0.1618803172 -0.4934804955 0.0114462309 -0.4726969691
-0.0173355537 1.3470374135 -0.3676833458 -0.4943498823 0.0112906307 -0.4713527379
-0.3873241051 1.2431104155 0.1920733789 -0.4967021136 0.0115263222 -0.4730797209
-0.1871741297 0.9254706433 0.4496139616 -0.4951426756 0.0131313238 -0.4732924995
0.4479921622 0.5874534588 0.4289140808 -0.4950754065 0.0109947820 -0.4716626014
-0.4851116768 0.8230018106 -0.0596877407 -0.4934823017 0.0114257246 -0.4726914726
0.4267384535 1.3384494788 -0.0856874320 -0.4951336233 0.0123971039 -0.4739102279
0.1196013269 0.8077135746 0.3556796648 -0.4951332584 0.0099597824 -0.4725721682
0.3912796678 1.4591255599 -0.4042594350 -0.4946346055 0.0112103984 -0.4723839477
-0.0693283087 1.0650850034 -0.3110862915 -0.4948126773 0.0117075072 -0.4711173284
-0.1129242503 0.8077136774 -0.0855497591 -0.4951444304 0.0099610943 -0.4726804914
-0.4666501661 0.4598166626 0.4116103604 -0.4962338238 0.0111642476 -0.4721736154
0.2448254627 1.6166827043 -0.4556728620 -0.4949155024 0.0111126684 -0.4738992616
-0.0780649987 0.9254706433 0.2271294208 -0.4951976051 0.0132137322 -0.4729660820
0.4369978943 0.5984677205 -0.2564294846 -0.4949461458 0.0106605577 -0.4733345802
0.4999998988 1.1742558076 -0.1822374836 -0.4934922579 0.0114773817 -0.4726845946
0.4647204935 1.3384494788 -0.1815894601 -0.4950896253 0.0126263602 -0.4738952579
-0.0321210817 1.4804046775 -0.4112031567 -0.4946851797 0.0112007141 -0.4725994231
-0.0911921546 0.9527161458 0.3344330415 -0.4956886635 0.0131535749 -0.4726600929
-0.2115883604 0.9254706433 0.2629200872 -0.4951893455 0.0131757348 -0.4730942746
-0.4953665234 0.9612363569 0.2672952414 -0.4940261716 0.0111876630 -0.4717915652
0.3666017592 1.5843367374 -0.3336680853 -0.4945230216 0.0110987498 -0.4740473004
0.4999998988 1.0062987151 -0.1757559914 -0.4935213754 0.0113009287 -0.4726801265
-0.4948461286 1.5212586072 -0.3469779736 -0.4946587009 0.0112170674 -0.4735576170
-0.1765416314 0.8077136260 0.0753676846 -0.4950888159 0.0099572232 -0.4725931008
-0.3037932859 1.6701593868 -0.3872964985 -0.4951038009 0.0132670579 -0.4726331348
-0.0514753149 1.4433570909 -0.3991139542 -0.4945878825 0.0112261977 -0.4722553405
-0.4680367053 0.5937563816 0.4068255296 -0.4962147753 0.0110573275 -0.4724204375
0.3921941787 1.1736742422 -0.0883155613 -0.4961978067 0.0121091531 -0.4724516033
-0.3393080892 0.8077136260 0.2283733329 -0.4950269254 0.0099674714 -0.4725117273
0.4256164215 0.4474141867 0.4274461467 -0.4956310289 0.0107739677 -0.4720057652
0.4200637635 0.5641476186 0.3757267140 -0.4961677803 0.0109938184 -0.4737475143
0.4493999656 0.6274990181 0.3750625959 -0.4949510651 0.0109361174 -0.4737086909
0.3281346267 1.0161244866 -0.2404897339 -0.4953786773 0.0118146345 -0.4711271088
0.4999997977 0.9106299454 0.4266818622 -0.4934781603 0.0116045494 -0.4727119325
-0.0885543327 1.5906054958 -0.3360436076 -0.4950314831 0.0110316565 -0.4742236192
-0.4338426216 0.8077136260 0.4304902302 -0.4954105861 0.0103018035 -0.4721547080
-0.1954345855 0.9860481934 -0.2955328982 -0.4949197848 0.0118294205 -0.4710873501
0.4999998988 1.0273578609 0.4078022959 -0.4934898448 0.0116075530 -0.4728078929
0.3921941787 0.9664170968 -0.0383650430 -0.4958626536 0.0126461964 -0.4733001902
0.4491770582 1.6701593868 -0.3935763857 -0.4951131850 0.0132680679 -0.4726798429
0.2589927282 0.9674609796 0.1067730234 -0.4956091195 0.0130277706 -0.4730831972
0.2065716710 0.9254706433 -0.1160526860 -0.4951376967 0.0132649581 -0.4727310241
0.4999998988 1.3909090043 -0.2930631686 -0.4940976003 0.0110370733 -0.4737757759
0.2345991746 1.2056363461 -0.2404897339 -0.4961247658 0.0116196936 -0.4716236852
0.4114643898 1.5611524738 -0.4375524586 -0.4948066153 0.0111464995 -0.4733641704
0.3040427865 0.8849994638 0.4726865683 -0.4951305898 0.0125555119 -0.4735882421
-0.0970844404 0.8077136260 0.2219066698 -0.4950920368 0.0099606166 -0.4725659105
0.2520368228 0.8763487663 -0.2733122916 -0.4949953533 0.0116114805 -0.4726169905
0.0345956028 1.0892176887 -0.2070900142 -0.4959647257 0.0123804487 -0.4735528868
0.2241703246 0.8561760919 0.4726866695 -0.4951282164 0.0120581129 -0.4740604494
-0.1914864199 1.5343830547 -0.4288171701 -0.4947937168 0.0111676327 -0.4731185807
-0.3038524679 0.8077136260 0.2661905197 -0.4950317253 0.0099679408 -0.4725079342
0.1788499824 0.9254706433 -0.0706231682 -0.4951373848 0.0132637109 -0.4727472165
0.2379243707 0.8077136260 0.2855953171 -0.4951753789 0.0099552114 -0.4726216925
-0.4398756486 0.3762981299 -0.2512111869 -0.4952972060 0.0109417084 -0.4716813364
-0.2804970503 0.9868369763 -0.2176027835 -0.4953927185 0.0124172867 -0.4720802905
0.2276138599 0.8077136260 0.4211163471 -0.4951539571 0.0099593180 -0.4725756661
-0.3481751892 0.9586432545 0.2429200596 -0.4957545577 0.0131256416 -0.4727208124
0.3927057948 1.3278628625 -0.1427033381 -0.4961695384 0.0120164982 -0.4738108659
-0.0066278169 0.9254706433 0.1854929344 -0.4952076311 0.0132400384 -0.4728717023
-0.4961842116 1.2003421283 -0.2119990024 -0.4934738845 0.0115840829 -0.4726843558
-0.0175949558 1.4854554385 -0.2961972567 -0.4951082491 0.0110251019 -0.4742348509
-0.3873241051 1.0752403802 0.2559589674 -0.4967283983 0.0115702373 -0.4729073793
0.1589501212 1.1046268926 -0.2404897339 -0.4957160279 0.0117236946 -0.4713583256
-0.4984820424 1.2504105030 -0.0419472629 -0.4934794539 0.0116258617 -0.4727382189
0.3215352000 1.4125120566 -0.3890487545 -0.4945612213 0.0112399156 -0.4719366502
0.0499688709 1.3964908163 -0.2624843448 -0.4951312913 0.0111531884 -0.4742403008
-0.4463951913 0.3414773219 0.4263963943 -0.4958567260 0.0109604981 -0.4718289605
-0.4139782102 0.9720040735 0.4726865683 -0.4949043785 0.0127148803 -0.4734965674
0.0697967577 0.9254706433 0.1613746237 -0.4951358142 0.0132573421 -0.4728299101
-0.4340439297 1.5755433068 -0.4422483945 -0.4948550417 0.0111450217 -0.4735259602
0.4727387048 1.3384494788 -0.0322981368 -0.4950908808 0.0128026308 -0.4736027328
-0.0556397072 1.0366463039 -0.2404897339 -0.4954264999 0.0117938181 -0.4711788406
0.3529610401 1.0503341972 -0.2015077212 -0.4958934297 0.0124778537 -0.4734977284
0.2152309217 0.9598249097 0.2246740410 -0.4955638958 0.0131463951 -0.4728210999
-0.4147208573 0.5644255450 0.4009889213 -0.4940911303 0.0107523866 -0.4727539585
0.1662332036 0.9553641163 0.2935499065 -0.4955572085 0.0132007408 -0.4726830140
-0.4968712806 1.0834388825 0.1091286928 -0.4934723802 0.0116170648 -0.4726777482
0.1627539332 0.8077136260 0.2636240901 -0.4951559490 0.0099551102 -0.4726093164
0.4720372843 0.5134667530 0.4199519010 -0.4939938630 0.0112577201 -0.4718781001
0.0265903464 0.9254706433 0.1950056016 -0.4952050935 0.0132445961 -0.4728609349
0.3876792271 0.8077136260 0.3047886445 -0.4952262018 0.0099600743 -0.4726657237
0.4281618456 0.8077136260 -0.2332001234 -0.4937398562 0.0109454915 -0.4726779439
-0.1182465357 0.8077135746 0.4104955166 -0.4950634086 0.0099683521 -0.4725043070
-0.3617537161 1.4210004816 -0.2717722189 -0.4949937329 0.0106734198 -0.4739751154
0.2640720361 0.8264661988 -0.2628530238 -0.4950396830 0.0112990412 -0.4741876651
-0.0884318704 1.6245728607 -0.3489154231 -0.4950316424 0.0110319716 -0.4742237618
-0.3873241051 1.0949843477 0.1804483979 -0.4967079865 0.0115453176 -0.4729760018
0.4999998988 0.9817175812 0.0617511588 -0.4935048563 0.0113528413 -0.4726839544
-0.3930629320 0.6691210286 -0.2367608833 -0.4939202433 0.0108766452 -0.4731537668
-0.4176746743 0.0747473730 -0.3344898568 -0.4941293383 0.0114062847 -0.4725135352
-0.3331449390 1.6576773436 -0.4693695704 -0.4951289959 0.0118585048 -0.4743048665
0.0415235184 1.0039816650 -0.2404897339 -0.4953050526 0.0118273556 -0.4710936924
0.0555706767 0.8077136260 -0.1125076939 -0.4952147313 0.0099691383 -0.4727541409
0.2130780149 0.9254706433 0.4097830601 -0.4951506168 0.0132273008 -0.4729856065
0.4999998988 1.2263876519 0.2005781025 -0.4934957691 0.0116126912 -0.4728658874
0.1910820904 1.1540231021 -0.3285881952 -0.4946721584 0.0115698111 -0.4711531613
-0.3635738034 0.9756902563 -0.0202861034 -0.4956312561 0.0131612689 -0.4728872810
0.1539206692 1.4033720156 -0.2650919479 -0.4951344061 0.0114386530 -0.4742457790
0.4999997977 1.1957184554 -0.3046301054 -0.4944944266 0.0115496464 -0.4720311211
-0.4201807012 0.8077136260 -0.2028580509 -0.4951238129 0.0108702216 -0.4731634909
-0.0829475413 0.9254706433 0.3452759700 -0.4951681725 0.0131812910 -0.4731047948
-0.1773228978 0.8077136260 0.2625024130 -0.4950657770 0.0099643467 -0.4725363303
0.4999998988 1.2314471186 -0.3191631408 -0.4944743631 0.0114842382 -0.4718435691
0.0511356954 1.5251464397 -0.4258031112 -0.4947762722 0.0111709315 -0.4730213930
0.3921941787 1.2510800363 0.0243193028 -0.4966677749 0.0115470309 -0.4722567618
0.4622685038 0.2774715217 -0.2718855078 -0.4944105355 0.0110541630 -0.4718380229
0.0127245422 0.9254706433 0.2549086080 -0.4951902279 0.0132257185 -0.4729386994
-0.2726180543 1.6033680461 -0.4513280592 -0.4949373074 0.0111237508 -0.4737759319
0.4193587987 0.5850253606 -0.2469894734 -0.4956346960 0.0103574080 -0.4725356105
-0.2368497832 1.4273742162 -0.2741874999 -0.4949799520 0.0108818646 -0.4741128479
0.4999997977 1.0436577856 0.4430858525 -0.4934945103 0.0116079693 -0.4728441770
0.3921941787 1.1220318442 -0.0027318890 -0.4960528246 0.0123394626 -0.4725609514
0.4607325443 1.0808315049 -0.3141850375 -0.4947061553 0.0116810483 -0.4711322470
-0.4985052173 1.2112594609 -0.0639803406 -0.4934730602 0.0116252331 -0.4726882600
0.4999998988 1.1148918000 -0.2383368039 -0.4935076791 0.0113958275 -0.4726819095
-0.4878252363 0.9688329467 -0.2237439662 -0.4934897370 0.0114801864 -0.4726972129
0.1204700818 0.9254706433 -0.0751359936 -0.4951373732 0.0132638353 -0.4727456077
-0.4197249020 0.8077136260 -0.1108892813 -0.4953186908 0.0102829425 -0.4721720763
0.3750152742 1.0039422877 -0.2404897339 -0.4953343227 0.0118271334 -0.4710954123
0.3204161551 0.9254706433 0.0082553433 -0.4951369785 0.0132615449 -0.4727753322
0.4699580238 0.9496325838 -0.2883667750 -0.4948470823 0.0118824841 -0.4710863566
0.4034500247 1.3367909293 0.0589282129 -0.4952325176 0.0132224794 -0.4728275732
0.0805474161 1.3161206071 -0.2404897339 -0.4965718826 0.0114633322 -0.4724949246
0.0226184934 0.9254706433 0.2957565138 -0.4951799930 0.0132169730 -0.4729791000
0.0349234350 0.9767581300 -0.0367750762 -0.4956029032 0.0130501859 -0.4731269331
0.4712443500 0.4300689611 -0.2541372365 -0.4938879132 0.0111917762 -0.4723398552
0.4397205726 0.8077136260 0.0730364622 -0.4955082979 0.0106009113 -0.4725714583
-0.4965492998 1.1899698148 0.2061929163 -0.4934928335 0.0116178476 -0.4728368031
0.3971330805 1.3334738302 -0.0041754275 -0.4956511090 0.0130778555 -0.4731512408
0.2404211048 0.9822262617 -0.1212019184 -0.4956737647 0.0128604711 -0.4734875350
-0.2272269518 1.5270452086 -0.3119576138 -0.4948812550 0.0110418815 -0.4742006930
-0.0399966610 0.8077136260 0.2841603334 -0.4950996014 0.0099614227 -0.4725593891
0.4548455227 0.7235288739 0.3740560156 -0.4947069912 0.0108459885 -0.4735887679
-0.4931853351 1.0756191813 -0.1234147022 -0.4934771751 0.0115278066 -0.4726842049
-0.1648938735 1.3059255495 -0.2382015608 -0.4965497376 0.0114782193 -0.4731014362
-0.0732609353 1.4985946654 -0.3011762954 -0.4950479741 0.0110295783 -0.4742257885
-0.3873241051 1.1475965261 -0.0572592361 -0.4961617780 0.0122432369 -0.4731255001
-0.4590901109 1.1010977181 0.4726865683 -0.4943487777 0.0120974189 -0.4734516240
0.3330559644 1.0499817156 -0.3081142221 -0.4947611976 0.0117289721 -0.4711191561
0.3361588104 0.8077136260 -0.2496575622 -0.4943981013 0.0101479548 -0.4728769847
-0.0969380618 0.9631505122 0.1733267271 -0.4956116006 0.0131759703 -0.4727619444
-0.1884936353 0.9011137338 -0.2785049382 -0.4950266816 0.0117691787 -0.4718312875
0.4999998988 1.1567847529 0.3168757389 -0.4934972037 0.0116108900 -0.4728720555
0.4845899850 0.8077136260 0.3075081334 -0.4940222557 0.0111764877 -0.4718281180
-0.4470498655 1.6206200379 -0.4569576557 -0.4949669506 0.0111148029 -0.4739480893
0.3908584509 0.8077136260 0.4360778123 -0.4948596159 0.0102177548 -0.4726186043
-0.0364207171 1.1684244635 -0.2404897339 -0.4959577565 0.0116479271 -0.4716643744
-0.2614469370 0.9572514445 0.2644093304 -0.4957276792 0.0131364289 -0.4727062570
-0.3432422333 0.9254706433 -0.0584607325 -0.4952701302 0.0132330609 -0.4728115351
-0.1524510583 0.9254706433 0.3855906488 -0.4951584667 0.0131557476 -0.4731963982
-0.0561597753 0.8077136260 0.0773327574 -0.4951216552 0.0099546956 -0.4726199178
0.0753856053 0.9254706433 0.3015233237 -0.4951782930 0.0132266971 -0.4729512795
0.1255138587 1.1907860319 -0.3358226854 -0.4946366339 0.0115139710 -0.4711670765
0.2130802423 0.8346525041 0.4726865683 -0.4951245626 0.0117400578 -0.4742534084
-0.4990861856 1.2781614452 -0.1152783540 -0.4934766560 0.0116285270 -0.4727182400
0.3507165714 0.8951838934 0.4726865683 -0.4951313361 0.0127351992 -0.4734093509
0.1983626403 0.9868369763 -0.2113044151 -0.4955303865 0.0123720017 -0.4726998085
0.4527246575 1.0059638473 -0.2994520358 -0.4947888141 0.0117960538 -0.4711058247
-0.0300999782 0.9254706433 0.3942936819 -0.4951556869 0.0131795379 -0.4731265351
0.4533589631 0.8707045961 0.4726865683 -0.4951197711 0.0123053794 -0.4737310415
-0.4143764744 0.5976933122 0.4119361178 -0.4943289995 0.0105735651 -0.4726030239
0.3196138068 1.2375862016 -0.3450323225 -0.4945597270 0.0114409368 -0.4711847700
-0.4637531578 0.1799657973 0.3968065105 -0.4962795699 0.0114014567 -0.4728681248
0.4999998988 0.9292176650 0.2863729646 -0.4934944025 0.0113708332 -0.4726867756
0.1425084735 1.3807566644 -0.2565219322 -0.4951340478 0.0114071040 -0.4742450990
-0.4862090876 0.8398495923 -0.0315982836 -0.4934823879 0.0114292059 -0.4726888704
0.0756911167 1.5081833572 -0.3048099021 -0.4951321488 0.0112248792 -0.4742420556
0.4313192048 0.0697345861 -0.3166747857 -0.4960257604 0.0112284666 -0.4715692831
-0.3552193676 1.2647516310 -0.3503781560 -0.4944096233 0.0114138444 -0.4712588059
-0.1052223310 0.9254706433 0.3743764092 -0.4951610275 0.0131688037 -0.4731527120
0.3921941787 1.0927262126 0.0379726766 -0.4959716054 0.0124658060 -0.4726405452
0.4999998988 1.1093103927 -0.2621899672 -0.4937161406 0.0111583216 -0.4731027382
-0.4948195205 1.4335775796 -0.2893272427 -0.4939295561 0.0113545280 -0.4732812678
0.4240221541 0.1447080178 0.4115749288 -0.4962745843 0.0114076265 -0.4720541169
0.1214732190 0.9579605591 0.2534621853 -0.4955567624 0.0131993708 -0.4727088476
-0.4388680566 0.8077136260 0.3014465925 -0.4950733118 0.0107101915 -0.4732738259
0.1786577482 0.8077135746 0.0399867446 -0.4952195676 0.0099658941 -0.4727224477
-0.4539092466 0.3937220619 -0.2709901050 -0.4964285010 0.0112836831 -0.4727438447
0.4312379176 0.1106596808 0.4239161611 -0.4960668659 0.0114902372 -0.4714910858
0.3652247302 1.2712950268 -0.2332298346 -0.4964691222 0.0116792803 -0.4722597655
0.2362809057 1.1157473943 -0.2108987621 -0.4960616829 0.0122242797 -0.4733654442
-0.3334012894 0.8547381726 -0.2687810298 -0.4950258275 0.0114818283 -0.4732948646
0.1543565145 1.3793939088 -0.3782417684 -0.4944622756 0.0112650310 -0.4716385358
0.2706304137 1.5973032661 -0.4493490133 -0.4948802831 0.0111246481 -0.4737128091
-0.4837885158 0.8161049711 -0.1217491668 -0.4934815935 0.0114295011 -0.4726958496
-0.1527398417 1.0980443218 -0.3175723015 -0.4947652196 0.0116585385 -0.4711358112
0.0750984672 1.2708282563 -0.3515739586 -0.4944741889 0.0113954743 -0.4712216810
0.4999998988 1.1316337978 0.0981474330 -0.4934768650 0.0116102631 -0.4727169281
-0.1662756111 0.8660713070 -0.2711573117 -0.4950338880 0.0115504060 -0.4729368551
0.4234315777 1.3384494788 -0.2284305280 -0.4951280555 0.0122631810 -0.4741694161
0.4327670953 0.4392406887 -0.2874902000 -0.4952803203 0.0108191283 -0.4734545016
0.4408527267 0.8077136260 -0.1991748038 -0.4948878926 0.0108264392 -0.4728364349
0.4365667560 1.6403805063 -0.4634058326 -0.4949393773 0.0110968292 -0.4741252688
0.0326869141 0.9848490256 -0.1616978750 -0.4956400829 0.0129537346 -0.4733563818
0.0995805475 0.8992931157 0.4726866695 -0.4951329814 0.0127501029 -0.4735133536
-0.1926026553 0.9681206942 0.0965876833 -0.4956150604 0.0131717493 -0.4728115085
0.1548005082 0.9254706433 -0.0593331312 -0.4951372953 0.0132634008 -0.4727512401
0.0075860157 0.9254706433 -0.1005787953 -0.4951374562 0.0132645336 -0.4727365388
-0.3092697186 0.9254706433 0.3536956598 -0.4951671989 0.0131307682 -0.4732621497
-0.3873241051 0.9741405291 0.4120311726 -0.4967741842 0.0116308490 -0.4727199632
-0.4642299758 1.0774933506 -0.3135281192 -0.4947494617 0.0116959686 -0.4711526322
-0.0738125622 0.8754486316 0.4726865683 -0.4951305035 0.0123431910 -0.4738923255
0.4241336069 0.6207108999 -0.2520904703 -0.4953675600 0.0104086970 -0.4731908536
0.2519661122 1.3347133886 -0.3641457426 -0.4943829903 0.0112962084 -0.4712446253
-0.4853511995 0.8783446150 -0.1621260512 -0.4934800029 0.0114571906 -0.4726956754
-0.2506402229 1.4778101571 -0.4103565268 -0.4946398996 0.0112071874 -0.4725959700
-0.4988877452 1.2279436550 -0.1109569037 -0.4936394774 0.0113987781 -0.4725363668
0.4514861107 0.8077136260 0.0215367990 -0.4951934073 0.0105433862 -0.4723735436
-0.4445506951 1.6701593868 -0.4051991261 -0.4951056253 0.0132672187 -0.4726469754
0.4194202447 0.5837351351 0.4076991424 -0.4958543725 0.0106948598 -0.4726963007
0.4944541238 0.8626022615 0.4726865683 -0.4950181783 0.0116732216 -0.4741911680
-0.3873241051 1.2399509300 -0.0307893560 -0.4966455321 0.0114620518 -0.4732358086
0.4727139045 0.5731968058 -0.2151189563 -0.4941754626 0.0108466569 -0.4720203522
0.4495922014 0.9207396673 -0.2826200451 -0.4948849702 0.0118899111 -0.4712261193
0.4208144844 0.4432410886 -0.2576951354 -0.4959102540 0.0106953989 -0.4720903513
0.3006103867 0.8528313564 0.4726865683 -0.4951275148 0.0120186792 -0.4740593133
0.3921941787 1.3210098055 0.0760653601 -0.4966758421 0.0115488138 -0.4723768358
-0.3873241051 1.1137004274 -0.1338542300 -0.4960005172 0.0124651160 -0.4731247024
0.3921941787 0.9874679416 0.0348558093 -0.4956999151 0.0128369645 -0.4732595657
0.3016803353 0.8169326769 0.4702957227 -0.4943212275 0.0108085650 -0.4714824945
0.3921941787 1.1982046593 0.0879960550 -0.4966858647 0.0115615200 -0.4723114625
0.3426118071 0.9613351567 0.2013554465 -0.4955990703 0.0130515128 -0.4729908176
0.0147681704 0.9370240032 -0.2858855931 -0.4949375645 0.0119038015 -0.4710738661
-0.4777118407 1.3144567950 0.4726865683 -0.4940230038 0.0116398383 -0.4731044614
-0.1649371749 0.9254706433 -0.2196244177 -0.4951380980 0.0132678026 -0.4726941064
-0.4673697743 0.8077136260 -0.2359589398 -0.4941874440 0.0104031409 -0.4727962233
-0.4956313905 1.0560797992 0.0591667107 -0.4934799316 0.0115016364 -0.4726731324
0.2711395486 0.9598693489 0.2239883601 -0.4955764543 0.0131122256 -0.4728778820
-0.4698126022 0.7653080951 0.4129678517 -0.4961824834 0.0108975843 -0.4722915748
-0.3873241051 1.1106418680 0.3337919027 -0.4967461132 0.0115875028 -0.4728787975
0.4999998988 0.8366494641 0.2951883610 -0.4935099895 0.0112753057 -0.4726844122
0.3525863887 0.9450871629 0.4533561253 -0.4956498103 0.0131015794 -0.4722189353
0.2046782675 1.5899270528 -0.3357865473 -0.4946764855 0.0110868530 -0.4740738853
0.2084685160 0.9823871161 -0.1236859480 -0.4956674556 0.0128777482 -0.4734604177
-0.4895323349 0.9432789956 -0.0566694708 -0.4934803031 0.0114708968 -0.4726858269
0.4999998988 1.2990540677 -0.2477804838 -0.4935483103 0.0114785776 -0.4728829754
0.4999998988 0.9756934954 0.2394156854 -0.4938608507 0.0110074881 -0.4720899482
0.4328823960 0.8077136260 0.3199609711 -0.4955915703 0.0107253042 -0.4734437260
-0.4904174995 1.0365104538 -0.2013712624 -0.4934768019 0.0115210364 -0.4726910812
0.5000000000 1.0626210688 0.2398519353 -0.4934803977 0.0116084752 -0.4727389718
0.3829767980 0.9818996933 -0.1161603193 -0.4957037397 0.0127786615 -0.4736197263
-0.1668191145 1.1430813721 -0.2148229102 -0.4960859342 0.0122132470 -0.4734253476
0.2988549613 1.6701593868 -0.3903701026 -0.4951132662 0.0132680928 -0.4726684404
0.4999998988 1.0516764032 0.0195194903 -0.4934962003 0.0114133485 -0.4726850673
0.3538344505 0.9254706433 0.1521042987 -0.4951360763 0.0132575958 -0.4728266046
-0.2034145838 0.8077135746 -0.1262303836 -0.4951215789 0.0099596961 -0.4726683259
0.1376877068 0.9859001960 -0.1779281556 -0.4956681754 0.0128778643 -0.4734907326
-0.4133169449 0.7000437560 0.4216223954 -0.4946525145 0.0102798460 -0.4725164526
0.3046312365 0.8077136260 0.3567122081 -0.4951822685 0.0099547719 -0.4726117511
-0.3231577292 0.8077136260 0.1380650368 -0.4950422322 0.0099636037 -0.4725425249
-0.4979975353 1.2862806854 0.0446419001 -0.4934907818 0.0116247787 -0.4728253458
-0.3873241051 1.1347209025 0.2875357919 -0.4967328946 0.0115704280 -0.4729298941
0.4999998988 1.1293829521 0.4145797347 -0.4935019207 0.0116101768 -0.4729058153
0.3277351219 0.9549267021 0.3003020872 -0.4955659458 0.0131379215 -0.4727925513
0.4419337593 1.3384494788 0.4182643998 -0.4951550882 0.0131814071 -0.4728100954
-0.4908624187 0.9215242988 0.0660001288 -0.4934823017 0.0114500522 -0.4726787798
-0.0933851982 1.0056907289 -0.1950985053 -0.4956794867 0.0129046117 -0.4733134851
-0.4459158555 0.2468753362 -0.3254989775 -0.4958171414 0.0116356140 -0.4739350382
0.4271170523 0.4999463948 -0.2239186646 -0.4959752559 0.0108620980 -0.4716554431
0.3281762828 1.2957290739 -0.3564741416 -0.4944712566 0.0113528064 -0.4712131195
0.3921941787 1.0401838823 0.4400743661 -0.4967779872 0.0116297494 -0.4727038869
0.3259112133 1.0908969900 -0.3161658018 -0.4947179692 0.0116661711 -0.4711333914
-0.3326259208 0.8077136260 0.0239475870 -0.4950536397 0.0099595303 -0.4725749993
-0.3873241051 0.9497715735 0.1848399501 -0.4956907582 0.0131436021 -0.4726942093
0.2103908694 1.6298536161 -0.4599707194 -0.4949408915 0.0111046161 -0.4740261307
0.4091197050 1.4420646894 -0.3986922183 -0.4946040185 0.0112209716 -0.4722198458
-0.0448577686 1.3976604255 -0.2629275789 -0.4950786556 0.0110263906 -0.4742300709
0.3921942799 1.2399078061 0.4620921585 -0.4967714326 0.0116154676 -0.4728688280
0.4999998988 1.2624805409 -0.1875212509 -0.4934771270 0.0115694528 -0.4726869067
0.4999998988 1.1124666374 0.3828331493 -0.4934974691 0.0116097440 -0.4728710985
0.1440366394 0.8077136260 0.4106571804 -0.4951330394 0.0099612021 -0.4725608088
-0.1479457992 0.9254706433 0.2458085513 -0.4951932962 0.0131938594 -0.4730331123
-0.3259323382 1.1838061339 -0.3344491245 -0.4945700581 0.0115341473 -0.4712056478
-0.2572870742 0.9515036151 0.3531550423 -0.4957697002 0.0131242518 -0.4726501399
0.0595465285 0.9470950560 0.4212237514 -0.4956663610 0.0131651665 -0.4726035546
0.4999998988 1.3114203043 0.0048090747 -0.4934897237 0.0116148954 -0.4728259512
0.1499755919 1.4357698139 -0.3966381013 -0.4946043403 0.0112269822 -0.4721653476
-0.3632084763 0.9208204486 0.4726865683 -0.4951372124 0.0130137957 -0.4734907409
0.3555496893 0.9768465025 -0.0381395035 -0.4956741528 0.0128562401 -0.4734478044
0.4999998988 0.8519447854 0.1992930899 -0.4935157115 0.0112600554 -0.4726830140
-0.4987283950 1.2318666156 -0.0861204179 -0.4934736457 0.0116264057 -0.4726935458
-0.4944611627 1.3024733085 -0.3300556102 -0.4947069680 0.0114549598 -0.4723903116
0.3921941787 1.2939770883 0.4429186210 -0.4967637453 0.0116077288 -0.4728779102
-0.3432377801 1.0530738822 -0.2019010744 -0.4957700568 0.0128012426 -0.4731291373
-0.4289744171 0.0529366339 -0.3215220626 -0.4945308085 0.0112663778 -0.4716317225
0.4698756221 0.3072435690 0.3794668527 -0.4942504058 0.0112456144 -0.4738638283
0.3932170046 0.8077136260 0.0924342241 -0.4952856426 0.0099715398 -0.4727731463
-0.0130214424 1.2593089082 -0.2404897339 -0.4963347797 0.0115274069 -0.4722700120
-0.3595608880 0.8077136260 -0.1388976784 -0.4950666013 0.0099542362 -0.4726187668
-0.4950887064 1.1501521752 0.3965149673 -0.4935038612 0.0116118984 -0.4729184684
-0.1730238942 0.8077136260 -0.2160860051 -0.4939240879 0.0107669835 -0.4731556244
0.0951237015 1.0620829309 -0.3104955526 -0.4947881938 0.0117114114 -0.4711191876
-0.4947336607 0.9117985428 0.3340620339 -0.4941120679 0.0109755461 -0.4717441871
0.3921941787 1.0690898582 0.0532157620 -0.4959084578 0.0125579749 -0.4727439790
-0.0550741866 1.5031013160 -0.4186094544 -0.4947386198 0.0111858535 -0.4728135286
0.1350286522 0.9254706433 0.1227336785 -0.4951361094 0.0132584019 -0.4728161359
0.1733445980 1.2513913178 -0.2404897339 -0.4963053371 0.0115647856 -0.4718504935
-0.4472417282 0.7170966804 -0.2009691520 -0.4960612434 0.0108978945 -0.4725797013
-0.0840282721 0.9813766398 -0.1080848863 -0.4955981283 0.0130659189 -0.4731410739
0.4999998988 1.2713158798 0.1500353129 -0.4934968057 0.0116138505 -0.4728767061
0.0784912857 0.9254706433 -0.2343754529 -0.4951383667 0.0132682056 -0.4726888488
-0.1319113984 1.0872839957 -0.2068123912 -0.4959219899 0.0124909662 -0.4733849669
-0.0875015933 0.8077135746 -0.0662009692 -0.4951487111 0.0099610678 -0.4726799772
-0.3804467155 0.9254706433 -0.0362714078 -0.4952647830 0.0132192270 -0.4728612667
-0.3145928251 0.9254706433 0.2173588192 -0.4952012174 0.0131658681 -0.4731092314
-0.1994985825 0.8077135746 0.3608054868 -0.4950478945 0.0099686838 -0.4725018175
0.1011162549 0.9673178401 0.1089833773 -0.4955735734 0.0131244740 -0.4729223461
0.1306102746 1.6460196145 -0.4652459386 -0.4949752782 0.0110949335 -0.4741821853
-0.2063890946 1.4710815111 -0.4081608643 -0.4946306897 0.0112107848 -0.4725289365
-0.0019876945 1.0850352762 -0.3150122872 -0.4947796506 0.0116765818 -0.4711255232
0.1795640079 0.8077136260 -0.0025180920 -0.4952313898 0.0099681813 -0.4727438762
0.4493114902 0.6801711266 -0.2404914555 -0.4945330011 0.0109513247 -0.4733818290
0.4154306767 1.3691050089 -0.3748843665 -0.4944792309 0.0112665552 -0.4715187040
0.4457386859 1.3058855636 0.4726865683 -0.4950935826 0.0116785306 -0.4730278033
-0.4150844495 0.5293026404 0.3974419290 -0.4939763156 0.0108555633 -0.4727871776
-0.3873241051 1.2102529320 0.1602369002 -0.4966959637 0.0115220349 -0.4730775200
-0.4961541139 1.3184183218 0.3242250257 -0.4935175774 0.0116187665 -0.4730292014
-0.4353968169 0.3093905531 -0.3134960296 -0.4954139878 0.0115964789 -0.4740149819
0.1232526868 1.3921701256 -0.3824108428 -0.4944891391 0.0112570584 -0.4717607875
0.0413424181 0.9865227591 -0.1875398266 -0.4956497871 0.0129282975 -0.4734128986
0.3353194135 1.5224254830 -0.4249152366 -0.4947472111 0.0111711190 -0.4729927133
-0.3362898458 0.8077136260 0.0930220140 -0.4950442407 0.0099622520 -0.4725533171
-0.2503450359 1.3454948728 -0.3671799793 -0.4943047018 0.0112967060 -0.4713604850
-0.3074633094 1.6701593868 -0.4431517301 -0.4951154472 0.0132682155 -0.4726991534
-0.3873241051 1.3105572183 0.3256152650 -0.4967321084 0.0115549339 -0.4730357527
-0.4936920253 1.2489930834 -0.2658480840 -0.4937093156 0.0114153868 -0.4729309075
-0.4145893609 0.5771284721 0.3779674360 -0.4940864449 0.0108654267 -0.4734724173
-0.3175286303 0.8077136260 0.3218759871 -0.4950212996 0.0099704270 -0.4724881428
0.3085521206 0.9254706433 0.1848776589 -0.4951358341 0.0132566953 -0.4728382875
-0.4159516354 0.8934846497 0.4726865683 -0.4951323992 0.0126111247 -0.4737327034
-0.4988844612 1.3169465416 -0.0678281374 -0.4934850996 0.0116285088 -0.4727836897
-0.4834241142 0.8356961829 -0.1840011089 -0.4934804341 0.0114433118 -0.4726990390
0.4999998988 0.9294304503 0.0793590239 -0.4935125503 0.0113030317 -0.4726828598
-0.3873241051 1.0425180403 0.0036416930 -0.4958705599 0.0127830616 -0.4729589934
0.4999998988 1.2619994969 0.0455930052 -0.4934874001 0.0116136200 -0.4728051115
0.0201012116 0.8077136260 0.3480439482 -0.4951077665 0.0099622072 -0.4725530252
-0.4536965924 0.2251155543 0.3792045663 -0.4958148426 0.0113631442 -0.4739213900
-0.3783526739 0.9254706433 -0.0117054580 -0.4952586480 0.0132131451 -0.4728880804
0.1579391391 1.5494484828 -0.4337332635 -0.4948084762 0.0111551687 -0.4732539647
0.3951456356 0.8077136260 0.1991492422 -0.4952575335 0.0099659638 -0.4727208472
-0.3486219411 1.4716469803 -0.4083453813 -0.4946069293 0.0112134733 -0.4725477361
-0.4159251135 0.4480940460 0.4175233964 -0.4941921410 0.0107918452 -0.4724186694
0.4999998988 0.9672517370 0.4081513360 -0.4934830779 0.0116060072 -0.4727528241
-0.4960109164 1.2032698961 0.2897176984 -0.4935012705 0.0116161625 -0.4729011282
0.1935652575 1.1170497173 -0.2404897339 -0.4957685309 0.0117108840 -0.4713911002
-0.4891673396 1.0786655918 -0.3137588102 -0.4947427960 0.0116947562 -0.4711557321
0.4112619307 1.1815236032 0.4726865683 -0.4956170224 0.0121910374 -0.4729711738
0.2727279465 1.2095523209 -0.2243657714 -0.4963066473 0.0118897171 -0.4727790756
-0.2909050076 1.2581934574 -0.2404897339 -0.4963251369 0.0114892835 -0.4728029603
0.3632943776 1.3432772312 -0.2423192102 -0.4951406207 0.0120129108 -0.4742565480
0.3921941787 1.2087609058 -0.1527861318 -0.4962971588 0.0119491777 -0.4723914162
-0.2790897776 0.9254706433 0.1614780791 -0.4952149735 0.0131882934 -0.4730219619
0.1616382800 1.6701593868 -0.4492078790 -0.4951088478 0.0132674277 -0.4727295048
-0.2234464473 1.1451481819 -0.2151196396 -0.4960797826 0.0122362461 -0.4733719042
0.3277568870 0.9820427315 -0.1183680908 -0.4956922062 0.0128101524 -0.4735689930
-0.3906578178 1.3301733332 0.0761193658 -0.4963273975 0.0108028015 -0.4733534910
-0.3606418958 0.9715002526 0.0444079069 -0.4956619310 0.0131523758 -0.4728463745
0.4375759171 0.9987927252 0.4726865683 -0.4947580497 0.0125555550 -0.4732460982
0.0976927632 0.9637776313 0.1636452593 -0.4955563328 0.0131693262 -0.4728175771
0.4999998988 0.9477692465 0.2436064487 -0.4934948801 0.0113765054 -0.4726864721
-0.1296678171 0.9254706433 0.4034036583 -0.4951539123 0.0131558737 -0.4732019626
0.1588916623 0.8077136260 0.1466253351 -0.4951833648 0.0099594689 -0.4726624281
-0.3962501848 0.8557061817 0.4726866695 -0.4951260636 0.0120540743 -0.4740670935
0.4732969875 0.6299882090 -0.2313111234 -0.4938228517 0.0113515078 -0.4728893791
0.4299502729 0.3285028205 -0.2608828626 -0.4959901596 0.0109990561 -0.4716115828
0.0922538867 0.9573580395 0.2627629281 -0.4955739831 0.0131933420 -0.4727033014
0.2987455816 0.9686526574 0.0883732373 -0.4956234510 0.0129894515 -0.4731567887
-0.4973040543 1.2384289405 0.1211715504 -0.4934914934 0.0116214284 -0.4728287110
-0.0024994118 1.4098280491 -0.2675384959 -0.4951245377 0.0110231979 -0.4742370468
-0.0276247058 1.3626264009 -0.2496515400 -0.4950972911 0.0110247072 -0.4742327644
0.3921941787 1.0055668237 0.0805878018 -0.4957405695 0.0127981577 -0.4730522901
0.3844925115 1.6049808395 -0.4518543336 -0.4948835704 0.0111192412 -0.4737855680
-0.4744116920 1.3224394752 -0.2404897339 -0.4941653571 0.0115656514 -0.4728858265
0.4999998988 0.9075150019 0.2966303305 -0.4934973381 0.0113511280 -0.4726863759
0.4245310352 0.0961636577 0.3940220811 -0.4962845488 0.0114501732 -0.4730847363
-0.2020306453 0.8754910474 0.4726865683 -0.4951300756 0.0123445842 -0.4738919573
0.4207218577 0.9226902641 0.4726865683 -0.4950543960 0.0128101242 -0.4732532748
-0.4169006392 0.3538582864 0.3840380872 -0.4941442222 0.0111259169 -0.4735175895
0.4999998988 1.2030628809 -0.0309473759 -0.4934746143 0.0116121124 -0.4727047178
0.3921941787 1.0403488864 0.0850036501 -0.4958298940 0.0126773838 -0.4728401832
-0.4337221081 0.1875179097 0.3795937947 -0.4949654215 0.0113891917 -0.4740949738
0.0553230171 0.9254706433 0.2194579707 -0.4951988540 0.0132442279 -0.4728702344
-0.1586210915 1.2751245514 -0.2404897339 -0.4963976851 0.0114850824 -0.4726667619
0.0556490780 0.9405653266 0.4607412451 -0.4960520567 0.0126890683 -0.4719838774
-0.1060906547 0.9254706433 -0.2047341175 -0.4951380450 0.0132673929 -0.4726994138
0.4864972573 0.8396898010 -0.2656257090 -0.4950194338 0.0113798375 -0.4737726496
0.2967165303 1.1656390225 -0.3308740662 -0.4946417240 0.0115515189 -0.4711591105
-0.4019982548 0.8077136260 0.1810351264 -0.4948670977 0.0100606023 -0.4726467416
-0.2013059404 0.8077136774 -0.1845687557 -0.4945532570 0.0103236466 -0.4727607171
0.3921941787 0.9509137486 -0.0651394212 -0.4961683641 0.0123152445 -0.4730454735
0.0339707608 0.9868369763 -0.2222345534 -0.4954111168 0.0121747172 -0.4720808876
-0.4953817472 1.1920696265 0.3745457670 -0.4935069510 0.0116137079 -0.4729435871
0.3921941787 0.9395532316 0.1556425339 -0.4960510416 0.0125409349 -0.4726879267
0.4248111393 0.0539565208 -0.3378799553 -0.4962267666 0.0113689972 -0.4724071193
-0.0727580249 1.4246995215 -0.2731739736 -0.4950484601 0.0110288303 -0.4742256028
0.1241310082 0.9465412282 0.4297735229 -0.4956426669 0.0131742786 -0.4725974246
0.4735390280 0.6535693437 -0.1947734312 -0.4943138752 0.0106845669 -0.4718901378
0.4999998988 0.9623075710 0.2722514535 -0.4934716488 0.0116058928 -0.4726662660
0.4276596451 1.3384494788 0.2335846448 -0.4951571415 0.0128887344 -0.4732162410
-0.0270065959 0.9565290683 0.2755629351 -0.4956318532 0.0131723796 -0.4726965611
0.0112342376 0.9254706433 0.0280456241 -0.4951366302 0.0132610025 -0.4727823860
0.3921941787 0.9853741041 -0.1890833790 -0.4957493249 0.0126935762 -0.4737420676
-0.4951298252 1.5053551986 -0.3973955344 -0.4943382476 0.0113540338 -0.4724758181
-0.3866473837 0.8077136260 0.2528636131 -0.4950113649 0.0099696939 -0.4724941135
0.1611132513 0.9764691178 -0.0323120056 -0.4956294367 0.0129777687 -0.4732439471
0.0366040018 0.8077136260 -0.1340853638 -0.4952134675 0.0099695363 -0.4727580717
-0.4040423126 1.6701593868 -0.4068333364 -0.4951065707 0.0132673199 -0.4726510422
-0.3565743047 0.9254706433 0.1908216218 -0.4952080440 0.0131639641 -0.4731061880
0.4973790588 1.5904534482 -0.3359860078 -0.4944482177 0.0110995708 -0.4740505279
0.3709097969 0.8077136260 -0.0111213616 -0.4953052782 0.0099761489 -0.4728165853
0.1750284056 1.5236142252 -0.3106574187 -0.4951299612 0.0115238029 -0.4742234765
-0.4956219119 1.1606153920 0.3250893257 -0.4934991990 0.0116139965 -0.4728836737
-0.3873241051 1.1297034452 0.2257054714 -0.4967174435 0.0115532222 -0.4729700675
0.2152073338 0.8077136260 0.3304524314 -0.4951617257 0.0099562165 -0.4726004133
-0.4116560303 1.3947173708 -0.2618123171 -0.4950406085 0.0105293366 -0.4738874378
0.4502192194 0.0468526612 -0.3216082591 -0.4947651864 0.0113147527 -0.4718185100
0.3933416180 0.9921416214 -0.2967320146 -0.4948138416 0.0118175337 -0.4710999202
-0.1899901412 0.9254706433 0.0818152147 -0.4952343934 0.0132284750 -0.4728724337
-0.4951340661 1.2204654027 0.4236177367 -0.4935143150 0.0116133364 -0.4730004306
-0.3424549199 0.8748477308 0.4726865683 -0.4951294902 0.0123359382 -0.4738976611
0.2584534259 1.5153160109 -0.3077385954 -0.4951291120 0.0110261269 -0.4742391050
0.4699158104 0.3006707421 -0.2805516663 -0.4937585099 0.0113242462 -0.4723501282
0.1627720546 0.9254706433 0.1955481431 -0.4951356616 0.0132564033 -0.4728420905
0.4999998988 1.0508980476 0.3536441850 -0.4934881746 0.0116081634 -0.4727968602
-0.4927532663 0.9245397343 0.1690628766 -0.4934836186 0.0114405901 -0.4726718935
0.2127592433 0.8077136260 -0.0439586987 -0.4952550009 0.0099716792 -0.4727763257
0.0679904629 0.9595496651 0.2289242251 -0.4955677635 0.0131943520 -0.4727249554
-0.2323181548 1.5503301942 -0.4340209870 -0.4948268911 0.0111577245 -0.4732713646
-0.4184219969 1.1645486771 -0.3306595096 -0.4945906092 0.0115649150 -0.4712024551
-0.0616932505 0.9768134011 -0.0376278360 -0.4955818148 0.0131076397 -0.4730325865
0.4999998988 1.1345949722 0.2424729279 -0.4934887435 0.0116103261 -0.4728067485
-0.4209263154 0.7775858563 -0.2215372312 -0.4952453929 0.0110730456 -0.4736704182
0.1964980873 0.9853866560 -0.1699982653 -0.4956787769 0.0128486937 -0.4735344188
-0.4671664378 0.5096886518 0.4084850909 -0.4962275959 0.0111269335 -0.4723142472
-0.4621833108 0.8407373276 -0.2658453523 -0.4950184702 0.0113962107 -0.4737371251
-0.2538182311 1.1170106419 -0.3213046450 -0.4947109402 0.0116323848 -0.4711572231
0.4999998988 1.1145906423 0.0410996147 -0.4939218306 0.0109809729 -0.4726871803
0.2240210103 1.1450524189 -0.3268228865 -0.4946763446 0.0115834460 -0.4711505955
-0.3873241051 1.1671896618 0.2263501529 -0.4967153720 0.0115477474 -0.4729979494
0.4999998988 0.8459849800 -0.1309117839 -0.4935457727 0.0111452074 -0.4726765955
-0.2215726844 1.1985487403 -0.2227860543 -0.4962444783 0.0119492325 -0.4734455803
0.4999998988 1.0993569692 0.3454077716 -0.4934929943 0.0116094106 -0.4728364581
-0.4389449287 1.3384494788 0.4141160009 -0.4951536983 0.0099886328 -0.4727830694
0.3921941787 1.0440589605 0.3370369759 -0.4967535153 0.0116135304 -0.4725606612
0.3921941787 1.1418409031 -0.1009091087 -0.4961172028 0.0122149553 -0.4726648081
-0.2118331342 1.6701593868 -0.4360536688 -0.4951152780 0.0132682122 -0.4726957567
-0.3724906948 0.9254706433 -0.1890484798 -0.4952684385 0.0132608201 -0.4726915075
-0.1116123625 0.9847162106 -0.1596466805 -0.4956075836 0.0130421469 -0.4732093066
0.2936943645 0.8077136260 0.1413098082 -0.4952352177 0.0099650433 -0.4727132809
-0.4967052349 1.2181030029 0.1972878786 -0.4934953893 0.0116189157 -0.4728572977
-0.1126476656 0.8077136260 0.4449342081 -0.4946941226 0.0110986503 -0.4722175438
0.0256361049 1.6563492087 -0.4693695704 -0.4951281119 0.0114385136 -0.4743174134
-0.3236141122 0.9254706433 0.0443976322 -0.4952443878 0.0132099125 -0.4729167136
0.4906657993 0.8077136774 0.1634248315 -0.4938345278 0.0111575670 -0.4721627884
-0.0947748554 0.9254706433 -0.1490018823 -0.4951376950 0.0132658637 -0.4727192799
-0.4716072324 0.8077136260 -0.1561451905 -0.4943464342 0.0113693073 -0.4730454187
-0.1769118030 0.8077136260 0.2892798795 -0.4950626191 0.0099653518 -0.4725283211
0.1513587957 0.9616867294 0.1959291732 -0.4955584524 0.0131623155 -0.4728109910
0.3399576120 1.3975009891 -0.2628671314 -0.4951324125 0.0119874040 -0.4742206902
0.3542699408 0.9254706433 0.3499625583 -0.4951348041 0.0132521641 -0.4728971295
0.2824998135 0.8077136260 -0.0847782616 -0.4952921109 0.0099765785 -0.4728215378
0.4743249764 0.7317116365 0.3859874701 -0.4939254595 0.0109012116 -0.4729858751
-0.0697519553 1.3173426546 -0.2398406489 -0.4965811904 0.0114504403 -0.4728534964
0.0896063722 0.9254705422 0.1352155691 -0.4951359966 0.0132580602 -0.4728205858
0.1253167135 1.1725617270 -0.2190552284 -0.4962076469 0.0120026676 -0.4732692815
0.1890234805 1.1221090828 -0.2118120308 -0.4960773977 0.0121944971 -0.4734224833
-0.2198105767 0.9556251870 0.2895183772 -0.4957220800 0.0131394657 -0.4726899219
-0.1221770112 0.9437901042 0.4559503423 -0.4955566413 0.0129326694 -0.4717887440
0.3562082894 0.8077135746 0.3813725029 -0.4951937407 0.0099547819 -0.4726164415
-0.4853162489 1.3366532564 0.2027666399 -0.4944179525 0.0101334358 -0.4727431846
0.1305565210 1.3668952636 -0.3741632624 -0.4944263929 0.0112740021 -0.4715240959
0.2733749566 0.9716618152 0.0419116804 -0.4956318565 0.0129683415 -0.4732177619
0.4999997977 0.9164072323 0.2352584298 -0.4935011577 0.0113404154 -0.4726854571
-0.3943588512 0.6378244094 -0.2238781976 -0.4942391808 0.0106522119 -0.4727896754
-0.4524317344 0.0492304291 0.3810253867 -0.4958610365 0.0114927565 -0.4739385477
-0.3806519328 1.0218557157 -0.2404897339 -0.4953441977 0.0117985615 -0.4712843012
0.2045546160 0.9254706433 0.3474676984 -0.4951661955 0.0132420436 -0.4729196874
-0.1684663510 1.6011368392 -0.4505999693 -0.4949245548 0.0111245900 -0.4737535630
-0.3974659481 1.0903371897 0.4726865683 -0.4955115901 0.0124660232 -0.4732549383
0.4367460336 0.2327926733 -0.2815185261 -0.4958613948 0.0110552942 -0.4715834737
0.2965476800 0.9840260267 -0.1489900635 -0.4956945447 0.0128049545 -0.4735947950
-0.1308263421 1.5598470129 -0.3243877642 -0.4949856806 0.0110346635 -0.4742165886
