0.0497476852 0.0821561698 0.0402587356 0.0565997526 0.0047980553 -0.4349426036
-0.0160650867 0.6181771057 0.1618771241 0.0559750724 0.0037000060 -0.4359485449
-0.3093912988 0.9037296841 0.1283837971 0.0571132262 0.0047464994 -0.4363590002
-0.2787437800 1.0239981210 0.1450570660 0.0570593379 0.0047363949 -0.4365001410
-0.2905172071 0.5311211523 0.1479396964 0.0552315500 0.0039782779 -0.4356767158
0.3371891100 0.6745733437 0.0028719928 0.0560235447 0.0060071861 -0.4366899083
-0.1813393298 0.6781309897 0.2415278710 0.0552479178 0.0055468583 -0.4351483176
-0.0570156997 0.5390314619 -0.1830269288 0.0560308515 0.0061836591 -0.4356865408
0.1963436637 0.4940007404 0.0375159090 0.0561507346 0.0037182077 -0.4359916406
-0.1926334963 0.7743381274 -0.2498219194 0.0549681837 0.0049165523 -0.4368137452
0.0338850771 0.0793337226 -0.1042908955 0.0571774630 0.0049081148 -0.4358213259
0.1808619980 0.5894503000 -0.1555195735 0.0552093893 0.0044552442 -0.4350863270
-0.3444906025 0.5812495333 0.1144608059 0.0547938394 0.0044693696 -0.4357911679
-0.2718960547 0.9397288033 -0.1323802237 0.0551083530 0.0053942699 -0.4368505409
0.0744030969 0.5248100642 -0.1149876497 0.0558305964 0.0062058602 -0.4357870042
-0.2824919889 1.0650732046 0.1550262330 0.0548971346 0.0046936800 -0.4353234397
0.0131980299 0.3553285771 0.0100774513 0.0563552964 0.0049581188 -0.4371517830
-0.1417462825 0.7031933861 0.3312783645 0.0565954092 0.0049364957 -0.4370665251
-0.0686319535 0.6550798208 -0.2694419897 0.0556701839 0.0049211688 -0.4347639058
-0.1227569356 0.5421276999 -0.1593744293 0.0562004262 0.0061484369 -0.4356523380
0.1570417387 0.6430034315 0.2484572709 0.0562075977 0.0037517807 -0.4357810153
-0.3224165602 0.0064746854 0.4333957399 0.0549651241 0.0042600964 -0.4362732681
-0.1819618699 0.5402079519 -0.0940562462 0.0563153716 0.0061162059 -0.4356620138
-0.1979425209 0.6232271719 0.1293238700 0.0557989826 0.0037081450 -0.4359796490
-0.2558112244 0.9457239599 -0.0958370378 0.0570961589 0.0050798776 -0.4355346923
0.0419308446 0.0883870972 0.0561777843 0.0571277916 0.0049661414 -0.4359161470
0.0729558377 0.0306692974 -0.4086589191 0.0571771772 0.0049074052 -0.4359570305
-0.1816032867 0.5171870055 0.2606805672 0.0554706042 0.0039320127 -0.4354463875
-0.1861988154 0.7119047363 -0.1194992055 0.0558991133 0.0062237268 -0.4360120166
-0.1785984131 0.6364368974 -0.0724444239 0.0557297334 0.0037233492 -0.4361332417
-0.0934828089 0.5787778237 -0.2942028708 0.0554668907 0.0044313432 -0.4370382972
-0.0523029098 0.4880370800 -0.1037859859 0.0558589394 0.0037155795 -0.4361919311
-0.0055589435 0.5068659713 -0.0022171748 0.0559176667 0.0062216943 -0.4358829256
0.2997776048 0.0253088636 0.4396715880 0.0550889611 0.0048975486 -0.4350652718
-0.0469071336 0.6704454395 -0.2766006961 0.0565915908 0.0060118621 -0.4361751560
-0.0086802208 1.0667367338 0.3390763911 0.0561426411 0.0048843617 -0.4372352979
0.1465813346 0.5725803327 0.3426019996 0.0566902897 0.0045306531 -0.4350941637
-0.0633880536 0.5344880039 -0.1617166584 0.0560313043 0.0061927872 -0.4357229343
-0.0279837905 0.7045116100 -0.1571574524 0.0560006973 0.0062238697 -0.4359376853
0.0393105497 1.0568038868 0.3614606518 0.0557671361 0.0045547097 -0.4348108325
-0.0407923101 0.6993399190 0.1710041065 0.0559050807 0.0062271317 -0.4359855771
-0.2104037596 0.5258611856 0.0597795492 0.0562515837 0.0061812648 -0.4359556632
-0.0307950821 0.6035602242 -0.2707772935 0.0556519201 0.0047748728 -0.4347800662
0.0041338766 0.0694677104 0.0286848642 0.0559159934 0.0036984376 -0.4360120659
-0.2941361872 0.6985911034 -0.0992514056 0.0548332494 0.0049519706 -0.4366312088
0.0128958303 0.4878882822 0.2460536508 0.0559692277 0.0037289434 -0.4357291812
0.2332750380 0.8756760410 0.2782912440 0.0566854455 0.0049126288 -0.4349883009
-0.1964453336 0.7635243030 0.2877619089 0.0566954261 0.0048608592 -0.4369932158
0.0592692838 0.0479840456 -0.3043727331 0.0571786304 0.0048997063 -0.4358337678
0.3041981453 0.6230306656 -0.0867056173 0.0566930002 0.0055410579 -0.4368158435
0.2951088554 0.6775743964 0.1430146509 0.0569962900 0.0047387335 -0.4354720934
-0.2751661792 0.6425902315 0.0047606292 0.0554034621 0.0039132620 -0.4362298891
-0.2541143461 0.8136572778 -0.1030987738 0.0570086825 0.0049061417 -0.4353449933
-0.0195081529 0.4733308806 -0.0042816278 0.0559156038 0.0037046364 -0.4361162819
-0.3276812358 0.6377939140 0.0840696995 0.0571659305 0.0051929283 -0.4359677712
-0.2823771573 0.8165161324 0.2391784426 0.0550287526 0.0051640326 -0.4351282932
-0.1327911616 0.7797617913 0.3303997788 0.0565870603 0.0048519638 -0.4370666655
-0.1657787872 0.6474577271 -0.2560922277 0.0550361669 0.0048634874 -0.4368884850
-0.3528493153 0.0406690626 -0.0835240379 0.0554526933 0.0050052416 -0.4348250856
-0.3726032259 0.0640600703 -0.0933599250 0.0554369756 0.0051128245 -0.4348391173
-0.1607821020 0.7962675394 0.3102862833 0.0566402516 0.0048417897 -0.4370314786
-0.0915486939 1.0106529907 0.3323496329 0.0553598226 0.0052645339 -0.4349069146
0.1721334325 0.5266732250 0.1051555368 0.0556803529 0.0062005088 -0.4360749785
-0.1202375960 0.9069566168 0.3212193774 0.0565616491 0.0048035408 -0.4370765486
-0.3348275230 0.7471674678 0.1873885397 0.0548422409 0.0050657890 -0.4353620833
-0.1584059053 0.6485467509 -0.1899845074 0.0556358014 0.0037654697 -0.4362793872
0.0258649117 0.0455584709 -0.2789153171 0.0546751338 0.0050282635 -0.4361655081
-0.2748966053 1.0890547592 0.1393344151 0.0570507537 0.0050368945 -0.4365607908
0.0898383240 0.6193465697 0.0445067595 0.0560034065 0.0037016957 -0.4359387035
-0.2640848653 0.8085864840 -0.1440345165 0.0548362887 0.0049562190 -0.4366348122
-0.2136216983 1.1083789110 0.2193176903 0.0567963132 0.0049930096 -0.4369108037
0.1320664886 0.6171279144 -0.1495036690 0.0559622599 0.0037033134 -0.4360739793
-0.2765719452 0.7486529013 -0.0683527639 0.0570245078 0.0049758817 -0.4353692509
-0.1466529743 0.0891345620 0.2051956455 0.0554322174 0.0060260848 -0.4362242734
0.3254343640 0.5363730900 0.0521275796 0.0567987707 0.0040673985 -0.4358232231
-0.1302012637 0.7411749357 -0.2632040845 0.0565967056 0.0050696277 -0.4349353069
0.0995343049 0.6225606874 0.3923282983 0.0565054235 0.0047457355 -0.4348982077
0.1034502052 0.7072244076 0.2457699490 0.0558524901 0.0062215387 -0.4359457333
-0.2263500775 1.1006034257 0.2065558267 0.0568405016 0.0049658708 -0.4368675588
0.3368351977 0.5508977585 0.0544865421 0.0569136136 0.0042103277 -0.4357687404
-0.2258261769 0.7786015123 0.2627957780 0.0567448799 0.0048506876 -0.4369514747
-0.1420078084 0.0672343973 0.1968595511 0.0549516616 0.0049023043 -0.4367992683
0.1895785971 0.7082767634 0.1128857851 0.0558487286 0.0062240405 -0.4360486061
-0.2089967187 0.6047115483 -0.1363384672 0.0568939067 0.0053442191 -0.4352769544
-0.1431686654 0.6186488205 0.1398655340 0.0558439363 0.0037008382 -0.4360161120
-0.2990026014 0.5801960581 -0.0541417869 0.0548696036 0.0045725396 -0.4365640705
-0.2457253337 0.7967991225 -0.1734633185 0.0548666048 0.0049037512 -0.4366827407
0.1928438293 0.7111333793 0.1830556753 0.0559195703 0.0062238470 -0.4359971437
-0.1424403839 0.7626630881 0.3263880569 0.0566060740 0.0048609591 -0.4370559969
-0.2647074244 0.7874472644 -0.1431203822 0.0548539568 0.0049816947 -0.4366613756
-0.2134594860 0.8510132960 0.2630732254 0.0567299590 0.0048232730 -0.4369612074
0.0087909506 0.6235704307 0.2578091291 0.0559956507 0.0037042405 -0.4359092146
0.2701302194 0.5758342070 0.1286439141 0.0549847071 0.0055899122 -0.4365434187
0.0066469440 0.2962673472 0.0079701531 0.0561062085 0.0049608760 -0.4372467469
0.0498049922 0.4731970985 0.0431333383 0.0560379420 0.0037044947 -0.4360335789
-0.2415619581 0.5165700811 -0.0731591947 0.0553435913 0.0039082192 -0.4363555625
0.1299196944 0.6594007176 0.3786457386 0.0566448150 0.0048483819 -0.4349650943
0.2029069371 0.5746684084 0.2270601351 0.0550313088 0.0055226841 -0.4366877771
0.0921100201 0.8629172256 0.3798993487 0.0564814694 0.0052498609 -0.4349015759
-0.0379414946 0.5524410909 0.3248311380 0.0560910953 0.0059505887 -0.4367388296
-0.0505571456 0.4714308192 0.1237316457 0.0558849728 0.0037013631 -0.4359275606
0.2202951299 0.0316070203 0.3245123898 0.0558317929 0.0037075151 -0.4361188229
-0.0645975739 0.6993399190 0.1116669141 0.0559281785 0.0062274289 -0.4359892602
0.2566841349 0.5315985019 0.1814296260 0.0567271651 0.0041220912 -0.4354979814
0.2850589205 0.5698122239 0.1819677696 0.0568854123 0.0044367009 -0.4353654553
0.2432411569 0.7069672629 -0.0066258452 0.0558726865 0.0062232690 -0.4360807814
0.0157539248 0.7034890529 -0.2215228843 0.0560700958 0.0062048838 -0.4360868714
0.0594852300 0.4916875942 -0.1354362031 0.0559883945 0.0037178194 -0.4362063815
-0.3587974200 0.0281181480 -0.1143513498 0.0561861479 0.0037745332 -0.4362607882
0.0187361357 0.6909706311 0.4193048826 0.0559354448 0.0049426996 -0.4347381051
-0.2455775401 0.9035834728 -0.1715962774 0.0554091448 0.0055382463 -0.4369893291
-0.1563419153 0.0534261591 -0.0284406205 0.0560978835 0.0037148927 -0.4360331615
-0.2876705503 0.0380221347 0.3765781578 0.0549482453 0.0049175274 -0.4367961809
-0.1448232588 0.6368074836 0.2664229794 0.0553531659 0.0042408651 -0.4351790181
-0.2212203426 0.7646167240 0.3030175213 0.0551519331 0.0051097143 -0.4350069897
0.2532857467 0.6991748709 -0.0771816851 0.0560783170 0.0061835718 -0.4362388098
0.0648994825 0.7703032458 0.4093496499 0.0562617996 0.0051035029 -0.4347887541
-0.0609567671 0.9239646905 0.3487842068 0.0563841427 0.0047774745 -0.4371568763
-0.0266461696 0.6999388946 0.2212602883 0.0558793634 0.0062263247 -0.4359743633
0.0344907460 0.4593054099 0.0341780834 0.0571142570 0.0049627252 -0.4364029421
0.1165109925 0.6215860689 0.0547541087 0.0560193620 0.0037033931 -0.4359270711
-0.2657924349 0.8454284443 -0.0801994510 0.0570318386 0.0048939249 -0.4353870467
0.1686793272 0.6046302202 0.2842645536 0.0550386409 0.0053237115 -0.4368146900
0.3189009867 0.0247235365 0.4611599706 0.0553176591 0.0049544584 -0.4350119426
-0.0398100118 0.2843937565 0.0426842812 0.0546898712 0.0049613162 -0.4360801389
0.1193549237 0.5083556507 0.2873397162 0.0561751845 0.0037931979 -0.4356049888
-0.2874084652 0.9587154473 -0.0098393457 0.0571250293 0.0048642830 -0.4356113394
0.3001172931 0.7069104454 0.1094988219 0.0565001961 0.0059440534 -0.4357814479
0.3425517876 0.7470209467 0.1521422897 0.0569207041 0.0048317295 -0.4352263344
0.3429437578 0.7486129133 0.0852238404 0.0559423721 0.0057801210 -0.4369270552
0.0868574019 0.7059277208 0.2396555999 0.0558406718 0.0062233954 -0.4359689475
0.3408289328 0.5781364671 0.0912707578 0.0569673247 0.0044194541 -0.4355315139
0.2316281069 0.5203482810 0.1992654884 0.0565673268 0.0039648381 -0.4355667829
-0.2321037021 0.5524099413 0.1997080622 0.0565757301 0.0059328561 -0.4364626914
0.0152803203 0.6976619546 -0.2578763003 0.0561291849 0.0059813399 -0.4365976168
-0.0291141164 0.6699690538 -0.2736350098 0.0558446888 0.0049145691 -0.4372395072
-0.2793283975 0.9609408971 -0.0351317125 0.0571228804 0.0049544458 -0.4355913176
0.3039248478 0.7402284946 0.1331823546 0.0548518471 0.0049530140 -0.4366619043
-0.1002603426 0.8998361518 0.3566612065 0.0553420976 0.0052207666 -0.4349049871
0.1862194937 0.9275502823 0.3109387563 0.0565031279 0.0048833512 -0.4348769982
0.2902381193 0.5900294346 0.1884566056 0.0569198149 0.0045484021 -0.4353348280
0.2139210015 0.8990692722 0.2942547581 0.0566028349 0.0048921656 -0.4349319666
-0.1319130793 0.7904244629 0.3613188395 0.0552748644 0.0051372681 -0.4349258664
-0.3327033954 0.7132016545 0.0670129915 0.0571741252 0.0049971253 -0.4358472531
0.0000878748 0.9083083453 0.3677167361 0.0560694571 0.0047607677 -0.4372305296
0.3242874603 0.6744687419 0.0948809374 0.0547868754 0.0050488166 -0.4365374248
-0.2942400175 0.6830239218 0.0521813476 0.0547783531 0.0054643488 -0.4359538634
0.2145482113 0.5466172735 0.1689840405 0.0553444716 0.0060207157 -0.4363570841
-0.1757233095 1.1516807572 0.2582320174 0.0564890734 0.0057450986 -0.4367636818
-0.0571040627 1.0417174912 0.3391518126 0.0554987726 0.0052161552 -0.4348351218
0.2553353395 0.6632528731 -0.1384799264 0.0568048620 0.0053392939 -0.4367152803
0.0357358655 0.1074040990 0.0988872168 0.0559600490 0.0062139398 -0.4358206897
-0.1468435941 1.0823151089 0.2767493788 0.0566336670 0.0048121731 -0.4370314268
0.2892890916 0.7614893769 0.1559842535 0.0548498879 0.0049206831 -0.4366583034
-0.1042519554 0.4742267966 0.0673389972 0.0557975711 0.0037056495 -0.4360141604
0.2187060774 0.6282042867 0.0072641435 0.0560971752 0.0037136557 -0.4359153350
-0.2219698146 0.6989442049 0.1171274002 0.0558175133 0.0062121513 -0.4358616845
0.0338122244 0.7012416790 0.1771040975 0.0558702126 0.0062259086 -0.4360173755
0.1680788465 0.6087546120 -0.1546217665 0.0551781436 0.0046375050 -0.4350311917
-0.3177245359 0.6828673644 -0.0553585736 0.0548037023 0.0049178424 -0.4365745316
0.0534217551 0.5818049693 0.3589155279 0.0556899148 0.0056220939 -0.4370433627
-0.0320040131 0.9950331604 0.3460073354 0.0562261599 0.0047410279 -0.4372003236
-0.2716639215 0.5234262224 0.1607199729 0.0553083577 0.0039271331 -0.4356798576
-0.3358536709 0.8869111310 0.0737469288 0.0547115740 0.0052741072 -0.4361151904
0.1010950498 0.5132217955 0.0375396469 0.0557612421 0.0062160786 -0.4359727115
0.1416712366 0.6442292501 0.2835231485 0.0562763726 0.0038430894 -0.4356506571
-0.1799740729 0.7254360659 -0.2063128566 0.0568743553 0.0049476993 -0.4351590975
0.0012528424 0.3813771333 0.0829799409 0.0558441500 0.0049650625 -0.4347705308
0.2322600660 0.7255781097 0.2365576645 0.0549474940 0.0050134931 -0.4367947453
-0.0080736413 0.6255802669 -0.2945071636 0.0559509867 0.0051707614 -0.4372401636
-0.3224062926 0.7990600045 0.0366680492 0.0571341637 0.0048566701 -0.4356526782
-0.3241329304 0.6665550730 -0.0405475017 0.0547978096 0.0048721475 -0.4365538863
0.2559048641 0.8960461411 0.2651420419 0.0567118028 0.0048425562 -0.4350124157
0.0528720411 0.0154846203 -0.4365067268 0.0558411297 0.0037095830 -0.4358783306
-0.1132971555 0.6778145573 0.3482065380 0.0565194957 0.0050087059 -0.4371081245
0.2810239427 0.7219903563 0.2333316589 0.0568992264 0.0049404280 -0.4351883663
-0.0014336739 0.7637519588 0.4159416977 0.0558022167 0.0050881343 -0.4347456850
-0.3468014329 0.7441319088 0.0106624546 0.0547447498 0.0050455483 -0.4364342447
-0.1006552561 0.4816476753 -0.0355659094 0.0558083877 0.0037132535 -0.4361468927
0.0439430675 0.4925092460 -0.1434305626 0.0559648009 0.0037177549 -0.4362113673
-0.2999041901 0.7119752174 -0.0242645070 0.0570481267 0.0050023780 -0.4354141312
-0.2251164804 0.8567144073 -0.1447522799 0.0570044581 0.0050012372 -0.4353381279
0.0704409781 0.5162304130 0.1821196953 0.0557610132 0.0062062498 -0.4361493047
-0.2582129739 0.6528989908 -0.0553137603 0.0553403496 0.0039711356 -0.4362994128
0.0409946205 0.6219213380 -0.1735358449 0.0558330703 0.0037055028 -0.4360927173
-0.1303971135 0.6320836924 -0.0955913953 0.0557715642 0.0037131700 -0.4361127809
0.1058353618 0.6017779274 -0.2487836333 0.0565279610 0.0054690488 -0.4369853449
-0.0588571981 0.5307613347 0.3469929160 0.0556922167 0.0039920352 -0.4352335792
0.2731746561 0.7104053293 0.0245119545 0.0559170647 0.0062227706 -0.4360566565
-0.2603777258 0.6315817538 0.0593484004 0.0556378542 0.0037497418 -0.4361023412
0.0528854708 0.0580543514 -0.4241943086 0.0559544017 0.0062017964 -0.4362357995
-0.0316234969 0.5628595857 0.3407689463 0.0561078590 0.0058507666 -0.4368706361
-0.1046506025 0.7122443285 -0.2192480666 0.0559059395 0.0062222710 -0.4360628857
-0.2956518052 0.9030424732 -0.0756581938 0.0547194373 0.0049320297 -0.4363653900
0.2779184804 0.5241462434 -0.0648848203 0.0564949029 0.0038939396 -0.4363351119
0.2033735662 0.6835641498 -0.1657332245 0.0563644611 0.0059667453 -0.4365181695
-0.3011556387 0.9564858299 0.0400766267 0.0571516774 0.0047840641 -0.4357587687
0.4590535268 0.0569967656 -0.1351362523 0.0561282489 0.0062015599 -0.4361137864
-0.0197456602 0.4889703976 -0.1200391439 0.0558902648 0.0037139276 -0.4361911532
-0.0188409298 0.0914354320 0.0940980012 0.0568530017 0.0050440445 -0.4351392919
-0.1106500544 0.5111395088 0.0122064434 0.0560695709 0.0062128900 -0.4358737697
-0.2615615883 0.8187778644 0.2232983018 0.0568444402 0.0048270725 -0.4368522003
0.0374733718 0.9435117879 0.3605112763 0.0557433869 0.0047287403 -0.4372160805
-0.2603599123 0.6079836409 0.2221069124 0.0568297065 0.0053846713 -0.4367526274
-0.3170245860 0.8989652105 0.0891199592 0.0571712971 0.0047463502 -0.4360213230
0.2629165573 0.5916820789 0.1550037688 0.0549445205 0.0054366193 -0.4366322851
0.2548109759 0.5059504862 0.0609725196 0.0562122167 0.0037320839 -0.4359464036
-0.0680258570 0.5065527427 0.0247887454 0.0560026261 0.0062206597 -0.4358982019
-0.0320621144 0.5352912061 -0.2749323328 0.0558298008 0.0039781793 -0.4367820265
-0.1393758760 0.5825430151 0.3133539570 0.0564926325 0.0055450522 -0.4369618461
0.0821638447 0.6509258237 0.3690334157 0.0553900261 0.0051393436 -0.4371185932
0.1573285747 0.6243885702 0.0506117681 0.0560408181 0.0037058797 -0.4359154716
-0.3294831408 0.8922013202 0.1398808584 0.0547551414 0.0052665905 -0.4356486511
0.2237816395 0.9128400684 0.2401008752 0.0551732716 0.0051519879 -0.4369908708
-0.1677752101 0.0539461515 0.2293386181 0.0549570142 0.0048574923 -0.4368004445
0.0349920143 0.8746902290 0.3743815038 0.0558083561 0.0047695429 -0.4372317919
0.2062706343 0.6233535055 -0.0372090196 0.0560588530 0.0037068017 -0.4359286154
-0.0786773439 0.6205117510 0.0141277725 0.0558405972 0.0037024888 -0.4360559331
-0.1186334316 0.4868670747 -0.0659362123 0.0557856883 0.0037191614 -0.4361767218
-0.2785189042 1.0323938875 0.1632999902 0.0548390738 0.0052004956 -0.4354024179
0.2066555508 0.9964883322 0.2957314682 0.0568965438 0.0055891103 -0.4354889342
-0.0516246816 0.4705535856 0.1040821055 0.0558819461 0.0037003196 -0.4359566498
-0.0621705915 0.6880307962 0.3057770231 0.0556500077 0.0059892828 -0.4354597843
-0.0433393932 1.0085661887 0.3407569028 0.0562866049 0.0047434285 -0.4371867497
-0.2488811680 0.6294366684 -0.1570548376 0.0549183112 0.0047650718 -0.4367297939
-0.0428364997 0.5029709339 0.1377928206 0.0559276283 0.0062245919 -0.4360627010
-0.3169344966 0.9544129230 0.0574926502 0.0546958980 0.0052169811 -0.4361091092
0.1532519785 0.8960059988 0.3319465084 0.0566003622 0.0051296590 -0.4349399993
0.0912967830 1.0618303707 0.3629907063 0.0562704116 0.0049518555 -0.4347820077
0.2729253279 0.0301647862 0.4061352236 0.0549594806 0.0048699885 -0.4351894098
-0.0326475515 1.1249086688 0.3368068616 0.0563678040 0.0053308956 -0.4371174827
0.0102862609 1.0378696601 0.3447220749 0.0559858485 0.0047862927 -0.4372428615
0.2155338019 0.7097163414 0.1060602141 0.0558596704 0.0062237976 -0.4360422175
-0.1146630107 0.9700777601 0.3307658496 0.0552903861 0.0052491501 -0.4349400803
0.4662894784 0.0293274723 -0.1503657137 0.0557621401 0.0050270442 -0.4372300060
-0.1233820041 0.6187766985 0.2150134674 0.0557909751 0.0037295518 -0.4358146490
0.3592137452 0.6620691270 0.0010199092 0.0566328891 0.0057240042 -0.4367138333
0.4043524670 0.0491758397 -0.1266542933 0.0554807264 0.0050050379 -0.4371783413
-0.3008266228 0.6240213408 0.0009486944 0.0570444689 0.0052343367 -0.4354754906
-0.2310557465 1.0927450300 0.2231007533 0.0551474620 0.0045549613 -0.4350880876
0.1510081852 0.4905471169 0.1538419847 0.0561476333 0.0037232568 -0.4358809715
0.3055851530 0.5753311111 0.1537588428 0.0569262477 0.0044752193 -0.4353968414
-0.0308159438 0.6957456810 0.2969623827 0.0558037674 0.0062007453 -0.4357781430
0.1960077002 0.7096069536 0.1309813775 0.0558553486 0.0062240063 -0.4360449444
0.1476154722 0.4968519518 0.2104984953 0.0561496330 0.0037339836 -0.4358002644
-0.2912583036 0.7923428196 -0.0386374054 0.0570533541 0.0049072383 -0.4354265630
-0.1412183673 0.0662723813 0.2437064611 0.0569007834 0.0050218333 -0.4351917610
-0.2688840400 0.5297186280 -0.0575984586 0.0550994981 0.0041368919 -0.4364565685
-0.2452497587 0.0445622306 -0.0710237964 0.0563699466 0.0042485146 -0.4368604253
-0.1211430449 0.5182361576 0.2169377687 0.0561410032 0.0061671041 -0.4362946344
0.0718788460 0.7025320354 0.2880579615 0.0558842544 0.0062002824 -0.4357975223
-0.3084696376 0.0347354602 -0.0913294371 0.0560941170 0.0037167937 -0.4360133813
0.2465940375 0.5119943554 -0.0697792183 0.0563267004 0.0037925972 -0.4362403174
0.0051711889 0.6259003280 0.2837632335 0.0559677352 0.0037132725 -0.4358471848
0.0138138248 0.4710415898 0.1024170725 0.0559814356 0.0037010064 -0.4359510012
0.0423639475 0.4790932880 0.1806257308 0.0560230578 0.0037115675 -0.4358426012
-0.1665533086 0.6273905867 0.0206076524 0.0558162143 0.0037080311 -0.4361031102
-0.3121223146 0.9829735234 0.0891007367 0.0546928423 0.0052289777 -0.4359236422
0.0810557161 0.9869041106 0.3399600702 0.0554412000 0.0047873791 -0.4371458106
-0.3013638405 0.7001864672 0.1887527341 0.0569823670 0.0049632071 -0.4366877822
-0.0545930986 0.7104501817 0.3749730676 0.0563456409 0.0049437810 -0.4371852901
-0.0642108830 1.0816365430 0.3355954795 0.0553812445 0.0046260699 -0.4349059761
-0.1769375286 0.5248732500 -0.0101204989 0.0561657403 0.0061947072 -0.4358450498
0.0395390225 0.1569600425 0.0425450933 0.0571303579 0.0049624748 -0.4361603148
-0.3061915011 0.9657133996 0.1450058452 0.0547794712 0.0053077889 -0.4356059804
-0.1192210594 0.8093187787 0.3660474179 0.0552970061 0.0051559884 -0.4349156848
0.0275703350 0.6993399190 -0.0810734809 0.0559471253 0.0062272366 -0.4359797413
-0.1427140874 0.0952866997 -0.0303993131 0.0561573205 0.0058379959 -0.4368390008
0.1306019370 0.7090799264 0.2290114552 0.0558657946 0.0062205104 -0.4359559352
0.0879515089 0.4844952972 -0.0627832352 0.0560277666 0.0037082929 -0.4361186559
0.2011184441 0.5583116896 0.2119020998 0.0551495363 0.0057639682 -0.4365749984
-0.1341790572 0.8430886651 0.3493984675 0.0552683494 0.0051836649 -0.4349383867
-0.1065732356 0.8773025911 0.3584581320 0.0553257475 0.0052077455 -0.4349106610
-0.2102146057 0.6261578585 0.0575125291 0.0558189867 0.0037062288 -0.4360912881
0.0274992353 0.2842626558 0.0731647434 0.0567490727 0.0049701015 -0.4350819204
-0.0081558813 0.8095096882 0.4084286831 0.0557480313 0.0051575872 -0.4347595068
-0.2033089815 0.7419056874 0.2847714325 0.0567011493 0.0048758231 -0.4369904079
-0.0182420465 0.3785215203 0.0781491929 0.0552859251 0.0049675504 -0.4349410542
0.1369006730 0.7075295693 0.1680504523 0.0558501831 0.0062243010 -0.4360442007
0.2618339208 0.5671183781 -0.0789907705 0.0551325563 0.0057336053 -0.4353852216
-0.2255871151 0.8609659827 -0.2032938551 0.0554304720 0.0054605949 -0.4370187471
-0.2236655546 0.7049347298 0.0383802506 0.0558928867 0.0062225366 -0.4359000068
-0.2278710608 0.5813043815 -0.1666204944 0.0549788801 0.0045341237 -0.4367142874
0.2684775561 0.8351670456 0.1868401663 0.0550412628 0.0051158056 -0.4368825531
-0.0211577907 0.4695658055 0.0919823262 0.0559273222 0.0036988436 -0.4359714075
-0.2443920182 0.7001112759 0.0860398955 0.0557630002 0.0062013309 -0.4358624636
-0.2810307170 0.8314974620 -0.0534770782 0.0570482798 0.0048761228 -0.4354208322
-0.1609834904 0.0923520757 -0.0083763372 0.0554437537 0.0050782498 -0.4348319282
0.2754886902 0.6418338891 0.0646331484 0.0562406735 0.0037496697 -0.4358586224
0.0842365758 0.4822392012 0.1711505492 0.0560695064 0.0037141250 -0.4358581987
-0.2806064019 0.9816893430 0.1589037858 0.0570251060 0.0047411189 -0.4365754537
0.2819689559 0.6384510959 0.0051200219 0.0562909824 0.0037665877 -0.4359293199
-0.1102249463 0.6188305829 0.0924267137 0.0558597299 0.0037004588 -0.4360355128
-0.0625133963 0.6333694943 -0.1914128729 0.0557716641 0.0037187896 -0.4361617921
0.1453404130 0.5227209843 0.3015475273 0.0564189274 0.0039773875 -0.4353913610
0.0643129855 0.6997683649 0.0793625051 0.0558996837 0.0062268559 -0.4360145183
-0.0980038507 0.5500807384 0.3041981801 0.0562426985 0.0059319973 -0.4367336958
-0.2243146303 0.9252168334 0.2644036470 0.0551343827 0.0052255792 -0.4350450211
-0.2161558020 0.0347237659 0.2947249679 0.0558109654 0.0037412879 -0.4362864170
0.1613390810 0.5797288966 0.3337747757 0.0567330439 0.0045782224 -0.4351017500
-0.2291727840 1.0128536592 0.2191732535 0.0568328862 0.0047615518 -0.4368515780
0.0263768372 0.3383005486 0.0165877472 0.0567284881 0.0049583654 -0.4369596858
-0.1022035009 0.8345226775 0.3416994838 0.0565191833 0.0048209091 -0.4371022950
0.2168152896 0.7089749375 0.0855447894 0.0558440691 0.0062238356 -0.4360462839
0.0441626298 1.0864254121 0.3440746965 0.0559130363 0.0051852219 -0.4372382930
-0.1222331121 0.0509046922 0.1981545393 0.0560785194 0.0037091568 -0.4360655886
-0.2927590614 0.8930092692 0.1668477935 0.0570012480 0.0047744339 -0.4366276648
-0.1932611500 0.0506673088 -0.0271353646 0.0560451159 0.0037073823 -0.4359061120
0.0272451957 0.4770236620 0.1705023993 0.0560008010 0.0037089228 -0.4358568340
0.2115218094 0.5000485836 -0.0515296942 0.0561749354 0.0037288966 -0.4361161731
-0.3200616122 0.6888818206 0.2157876031 0.0549081991 0.0049578355 -0.4352490655
-0.3301714722 0.8424833592 0.0049483349 0.0547575952 0.0051936366 -0.4364197918
-0.2949828126 0.6130362544 0.1780487629 0.0569496010 0.0053800509 -0.4365961408
-0.1917680734 0.6946297915 0.1943171289 0.0557940752 0.0062102794 -0.4358442226
-0.1027353812 0.4864601279 0.2207283966 0.0557748679 0.0037414042 -0.4357278961
-0.2131481685 0.7477076958 -0.2130212790 0.0549395979 0.0048948799 -0.4367836606
0.0836351541 0.4771486827 0.0438683752 0.0560788950 0.0037078541 -0.4360247696
0.1997878492 0.8768081415 0.2649387804 0.0550110352 0.0048712318 -0.4368628373
0.0905851337 0.6513587091 -0.2590216596 0.0563035786 0.0049032567 -0.4371734832
-0.1511733888 0.5999716993 -0.2044082584 0.0567873014 0.0054143802 -0.4351918470
-0.3140455738 0.8848054923 0.1245775755 0.0571259577 0.0047624195 -0.4363329213
0.2260399742 0.8665607935 0.2379635848 0.0549778253 0.0049056522 -0.4368302433
0.0184397239 0.0484508201 -0.1777770755 0.0558522410 0.0037085813 -0.4358501280
0.3580810655 0.7574472390 0.1280849658 0.0571046622 0.0052015543 -0.4356220877
0.2018563470 0.5328784363 0.1035409897 0.0556428717 0.0061916286 -0.4360847668
-0.2285562656 0.5477608773 -0.1397574287 0.0550529610 0.0043346756 -0.4366589889
0.1213674097 0.4854189263 0.1572832169 0.0561100864 0.0037170871 -0.4358786177
0.1429889874 0.4855853264 0.0844563816 0.0561282894 0.0037147232 -0.4359698885
0.1210050637 0.7007368073 0.0403475906 0.0558752389 0.0062256658 -0.4360314541
-0.2689540582 0.6064173030 -0.0488926280 0.0569691423 0.0053089652 -0.4353745745
0.0019104151 0.1045823866 0.0858616075 0.0556650892 0.0051747505 -0.4349059698
0.0072609202 1.0746629862 0.3619520913 0.0556234076 0.0045172613 -0.4348529492
-0.1937970941 0.9014569900 0.2944759280 0.0551843500 0.0052148676 -0.4350025199
0.0735006784 0.5707505982 -0.2290650399 0.0554427684 0.0055582909 -0.4349929187
0.0545994542 0.0507330381 -0.2647405072 0.0571768015 0.0048807191 -0.4358279307
-0.1861230069 0.0924981049 -0.0320540025 0.0558323481 0.0062158243 -0.4361370740
-0.0421935797 0.5075609038 -0.0026119618 0.0559737165 0.0062197250 -0.4358721255
0.1037535140 0.6319291435 0.2369140849 0.0561037206 0.0037146511 -0.4359015600
-0.3183897847 0.0144479177 0.4563946471 0.0560489533 0.0044279321 -0.4351111399
0.1667407829 0.6265061361 0.0675713998 0.0560536660 0.0037079464 -0.4359074439
0.2422960665 0.0592218144 0.3703582026 0.0549430925 0.0049500202 -0.4351998659
0.3069897997 0.8303538594 0.2076046702 0.0568669790 0.0048742534 -0.4351610035
-0.0966265125 0.5470667948 -0.1926843736 0.0561858633 0.0061280748 -0.4355860168
0.0488330361 0.8285455077 0.4031320093 0.0561645905 0.0051933381 -0.4347833218
0.0435100493 0.0515343582 -0.1812137531 0.0571694201 0.0048205979 -0.4358149627
-0.2515711334 0.7278655488 -0.1074783803 0.0569927688 0.0050168057 -0.4353196921
-0.1931963807 0.9782484194 0.2597208482 0.0567215089 0.0047850532 -0.4369617525
-0.2440476400 0.5353077649 0.0781498873 0.0563766058 0.0061358002 -0.4360168772
-0.3233223569 0.6132121873 -0.0274617181 0.0548047154 0.0047192050 -0.4365268625
-0.0305272739 0.6166788952 0.0592074773 0.0559037374 0.0036988309 -0.4360109427
0.1344512404 0.5861042126 0.3590411280 0.0566778302 0.0046180649 -0.4350427469
0.0847071599 0.6506630431 0.3312876279 0.0563246856 0.0045234741 -0.4349227171
0.2167728883 0.5190062409 0.2185837741 0.0565366629 0.0039521876 -0.4355489492
-0.1969196552 1.1002093331 0.2533122210 0.0552067876 0.0045334559 -0.4350475165
0.1562182339 0.5451565429 -0.1488059970 0.0555848729 0.0060973970 -0.4355635488
-0.2913482388 0.5239590778 0.0046029145 0.0551802318 0.0039872682 -0.4362464606
0.2614362185 0.6966425621 0.1971458774 0.0556242475 0.0052535858 -0.4362135453
-0.2569770609 1.0540713279 0.1739636255 0.0569786599 0.0048033473 -0.4366752227
0.3336155996 0.6882346749 0.0746392540 0.0548170169 0.0052108468 -0.4365358324
-0.2598884871 0.7047517721 0.0129444892 0.0556604297 0.0061881757 -0.4359212580
0.0719540841 0.5848864610 0.3935281783 0.0562722405 0.0045180797 -0.4348764910
-0.2371797272 0.6595638368 0.2589018600 0.0567765949 0.0050602504 -0.4369182774
0.0066435480 0.0560584824 -0.1343720934 0.0548340222 0.0044019024 -0.4360711866
-0.0958389344 0.9472129449 0.3472346984 0.0553479916 0.0052432966 -0.4349073333
0.0345102392 0.2972740221 0.0271611793 0.0569703590 0.0049618221 -0.4366454694
-0.0317680690 0.5086156526 -0.2204572695 0.0558878110 0.0037476878 -0.4363410894
-0.1929483072 0.5502375272 -0.1852677789 0.0551144266 0.0043015074 -0.4367018910
-0.0203452682 0.3950252625 0.0721109976 0.0552335306 0.0049627252 -0.4349531950
0.0766645303 0.7031036824 0.1674329498 0.0558549679 0.0062247589 -0.4360375314
0.1125971765 0.6569792650 -0.2475973385 0.0564098284 0.0051669379 -0.4370796019
0.1171643635 0.5801107926 0.3699841799 0.0565857790 0.0045686174 -0.4349979552
0.3352201876 0.5949056915 0.1185889415 0.0569641703 0.0045245567 -0.4354225814
0.0530437141 0.8733016770 0.3713945789 0.0556142454 0.0047629216 -0.4371971059
0.1317814954 0.5258228178 0.1790410975 0.0556983877 0.0061976162 -0.4361457088
0.0388697884 0.0416166763 -0.2295561125 0.0559050579 0.0037073620 -0.4358441556
0.2592758087 0.8075028622 0.2001409463 0.0549013034 0.0049157871 -0.4367351566
0.1883415850 0.0502038683 -0.0234113198 0.0557857047 0.0037074025 -0.4359307200
0.1380450673 0.7657646510 0.3367302044 0.0551176784 0.0049175009 -0.4369646401
-0.2754309658 0.5126470207 0.0215192001 0.0553983927 0.0038274071 -0.4361048531
0.0341815180 0.5490019039 0.3807482887 0.0559789085 0.0041689509 -0.4350300749
0.2365330040 0.5025511722 0.0737777305 0.0561943324 0.0037281984 -0.4359401036
0.0432636846 0.4761350021 -0.0167230066 0.0560041957 0.0037057052 -0.4361093647
0.2947112504 0.6980021640 0.2144113260 0.0569294730 0.0049086801 -0.4352285238
-0.0876125871 0.7101555963 -0.1864241977 0.0559725756 0.0062232968 -0.4359568901
0.4949977573 0.0510411189 -0.1313184691 0.0562957671 0.0059617620 -0.4354104797
0.2598015812 0.5066489690 0.0444113427 0.0562156317 0.0037322319 -0.4359713860
-0.1426800629 0.5876079035 -0.2647948166 0.0551316495 0.0045424600 -0.4368828591
-0.0556128769 0.6046324210 0.3960603341 0.0555802601 0.0045906377 -0.4348531390
0.0704611744 0.0585453949 -0.4181659788 0.0562260587 0.0061675126 -0.4361270972
-0.1397923948 0.0781368629 0.0012802576 0.0554467196 0.0050454876 -0.4348276709
-0.3087022337 0.6721488024 0.1743692607 0.0570252451 0.0050721092 -0.4365993243
0.3467057847 0.0484678519 -0.1050061685 0.0554846789 0.0050197855 -0.4371791748
-0.2978165394 0.5634783631 -0.0447317605 0.0548907600 0.0044902806 -0.4365428483
-0.1750473289 0.7522219735 -0.2103057810 0.0568802923 0.0049425225 -0.4351664801
-0.2923618031 0.5981593343 -0.0769727118 0.0548644268 0.0046457717 -0.4366001009
-0.3027336709 0.6490974400 -0.0045054626 0.0570525940 0.0051617294 -0.4354651686
-0.2738540137 0.9521020939 -0.0494492605 0.0571062027 0.0049540967 -0.4355490542
-0.2399050489 0.5865025132 -0.1532028756 0.0549503942 0.0045683544 -0.4366954317
-0.2630579269 0.5460726073 0.0181637343 0.0565476793 0.0060427208 -0.4358107395
-0.1718971698 0.7011380802 -0.2558492678 0.0549842164 0.0048185022 -0.4368253675
-0.1954579584 0.6857912969 -0.2295081537 0.0549928689 0.0048983682 -0.4368466339
0.2816520024 0.5578174713 -0.0190664133 0.0553122546 0.0060466821 -0.4358022286
0.0384313012 0.6164591532 -0.0251639342 0.0559103916 0.0036985451 -0.4360066993
-0.1180570176 0.9572510880 0.3149670749 0.0565564115 0.0047915328 -0.4370777401
-0.0889797829 0.5285699296 -0.2532889169 0.0556478171 0.0039207117 -0.4366480357
-0.0941785420 0.9689975356 0.3262677071 0.0564921962 0.0047777350 -0.4371095006
0.1844962050 0.5779038709 0.2516446014 0.0550558422 0.0055010876 -0.4367256301
-0.3157433007 0.9616678657 0.1058193576 0.0547160767 0.0052919890 -0.4358710770
0.2454560115 0.5931804816 0.1824546937 0.0549609414 0.0054116268 -0.4366749773
-0.2768053128 0.9852872856 0.1901381975 0.0549262909 0.0052951611 -0.4352980792
0.2222741264 0.7196152220 0.2971418672 0.0568198044 0.0049741868 -0.4351014869
0.1021268045 0.4795341618 0.0912100813 0.0560945786 0.0037097943 -0.4359699226
-0.3222775659 0.8178691725 0.0430696504 0.0571421864 0.0048310237 -0.4356895523
-0.2975289787 0.9967850804 -0.0709423140 0.0550528686 0.0054888924 -0.4367224580
-0.0668989081 0.5102340207 -0.0108959083 0.0560114367 0.0062158129 -0.4358549090
0.0235780974 0.6562979962 0.3411360973 0.0559205568 0.0048310035 -0.4347846549
-0.0320152458 0.6980006197 0.2569229798 0.0558464001 0.0062155486 -0.4358907016
0.1127010549 0.8031681462 0.3518777419 0.0552275102 0.0048563843 -0.4370384958
0.1842909945 0.7365589894 0.2905447236 0.0550029266 0.0049774918 -0.4368570028
-0.0407106936 0.6059114283 0.3656958594 0.0562177490 0.0054310908 -0.4371283322
0.1321168606 0.7263442177 0.3790202229 0.0566471270 0.0050080216 -0.4349616009
0.2375175043 0.5021730591 0.0479155685 0.0561802248 0.0037243231 -0.4359710660
0.0411306590 1.1063420548 0.3658199936 0.0563475027 0.0058434446 -0.4352173379
-0.1521540480 0.6275580290 0.0007311520 0.0558036232 0.0037081235 -0.4360900157
0.1519088291 0.6319447752 0.1620850553 0.0560782247 0.0037128665 -0.4358782762
0.1466593805 0.6719752625 0.2999204359 0.0565729084 0.0048970009 -0.4349291309
0.1726639329 0.4956510296 -0.0736320681 0.0561307115 0.0037239386 -0.4361416994
-0.2175297822 0.8346980704 -0.2185266758 0.0551581901 0.0052320588 -0.4369605813
0.0959586544 0.6870295447 -0.2348866957 0.0562551138 0.0060072797 -0.4365117101
-0.1775588912 0.6345225930 -0.1909612482 0.0568650578 0.0052481863 -0.4351990741
0.2530506223 0.7126543234 0.1491645120 0.0559864240 0.0062234928 -0.4359582839
0.3393351605 0.0307195506 -0.1007385756 0.0556372686 0.0037898197 -0.4363573370
-0.2230258763 0.6427684424 -0.0591016094 0.0556451572 0.0037473918 -0.4361800584
-0.2937082042 0.5275625021 0.1300061026 0.0552590734 0.0039372060 -0.4357371140
0.1219637937 0.7612308435 0.3496687358 0.0551824908 0.0049200849 -0.4370134678
-0.3610006750 0.7082150827 0.0495283019 0.0546894652 0.0049646490 -0.4362560313
-0.1203841551 0.5107373873 0.1734150992 0.0560979114 0.0062033584 -0.4361489821
0.0465542078 0.8530019038 0.3984907416 0.0561592493 0.0052306207 -0.4347900531
0.0874108787 0.0847050186 0.0254717886 0.0564235540 0.0049294368 -0.4348350156
-0.3040126024 0.9787350716 -0.0674543005 0.0547803667 0.0051113206 -0.4365061285
-0.0871285202 0.5283123599 -0.1212315754 0.0560628687 0.0061980880 -0.4357618586
0.0061383867 0.7053380870 -0.2069444275 0.0560341336 0.0062228275 -0.4359837381
-0.3066190592 0.8029252052 -0.0051548470 0.0570808029 0.0048697356 -0.4354937848
-0.3425077471 0.7545981892 0.1723960924 0.0547990213 0.0050754584 -0.4354401166
-0.2197179443 0.0747203046 0.3090432495 0.0558096006 0.0062166439 -0.4358886691
0.2136212342 0.7042683604 -0.0065256045 0.0558629121 0.0062236446 -0.4360658213
-0.0502393536 0.5026253592 -0.1877071032 0.0558476662 0.0037250326 -0.4362431050
0.1457027779 0.6858506618 -0.2046474745 0.0562664768 0.0060132142 -0.4365094752
-0.1185239085 1.0237481554 0.3130552028 0.0552756587 0.0052560306 -0.4349514281
-0.2997936437 0.9772555055 0.1030981857 0.0571517103 0.0047384363 -0.4361727503
-0.0580765575 0.7280160060 0.3724247020 0.0563653212 0.0049178006 -0.4371772738
-0.0835605585 0.7117441656 -0.2248642235 0.0559338840 0.0062182490 -0.4360763318
-0.3264371598 0.7357037949 0.0376723109 0.0571375382 0.0049550820 -0.4356527782
0.3444062452 0.6991883803 0.0638280554 0.0547324357 0.0051913498 -0.4361786443
-0.1699861274 0.5157068589 0.0975283864 0.0561800629 0.0061997259 -0.4360008053
-0.0871176353 0.5133703619 0.2102769384 0.0560374550 0.0061926443 -0.4362419654
-0.3018772041 0.8379527933 0.2115384611 0.0549553889 0.0051852358 -0.4352198422
0.1351263900 0.6220838008 -0.2062138896 0.0560306276 0.0037508118 -0.4362620227
-0.0202593716 0.6996281740 -0.0340079483 0.0559538401 0.0062269002 -0.4359746808
-0.1165711782 0.6395889486 0.3783284563 0.0553526220 0.0048114762 -0.4348837510
0.0414879407 0.5116092936 -0.0316494108 0.0558580882 0.0062186335 -0.4358688054
-0.0912051062 0.9363034735 0.3331515614 0.0564913298 0.0047900846 -0.4371122907
0.2950046204 0.5329820743 0.1172007765 0.0566978861 0.0040470757 -0.4356033699
0.1256168602 0.5515735456 -0.1842416500 0.0555309821 0.0059722522 -0.4353552888
0.0091814107 0.5174537614 -0.0828847657 0.0559214422 0.0062129241 -0.4358082896
-0.3316028682 0.5540603469 0.1047713249 0.0549225483 0.0042316737 -0.4358275829
0.1834129501 0.7033338084 0.0277376123 0.0558484377 0.0062241594 -0.4360453176
0.1209299457 0.5992302941 0.3289222972 0.0551486256 0.0053517497 -0.4369032933
0.0077372048 0.4766942211 -0.0299823314 0.0559485646 0.0037064539 -0.4361334744
-0.1711308303 0.6945210968 0.2139384147 0.0557876867 0.0062062725 -0.4358230347
-0.0252332056 0.5039035179 0.1459355341 0.0558945929 0.0062230615 -0.4360817894
-0.0749751460 0.0872077412 0.1614859254 0.0568968069 0.0050448135 -0.4351892504
0.1535695783 0.6393943712 0.2253048950 0.0561601081 0.0037372797 -0.4358146781
0.2758726897 0.5898994343 0.2100417950 0.0568876914 0.0045523546 -0.4352857069
-0.1489390234 0.5261676210 -0.0541711987 0.0561324519 0.0061959049 -0.4358067528
0.0036247021 0.1274140931 0.0083006741 0.0559271983 0.0049627252 -0.4372457743
-0.2360452324 0.0612053453 -0.0688310405 0.0563989157 0.0049089812 -0.4371669808
-0.0666762319 0.0693604690 0.0002556162 0.0563159585 0.0047775592 -0.4371739967
-0.0688980150 1.1212777616 0.3206573796 0.0564700242 0.0051176447 -0.4371246921
-0.0136887990 0.6667967783 0.3843659952 0.0561060567 0.0050979959 -0.4372341154
0.3237938011 0.5370555161 -0.0038667305 0.0567394236 0.0040184582 -0.4361698830
-0.1197999436 0.6973808014 0.2002318465 0.0558408716 0.0062142383 -0.4358824033
0.0634068334 1.0178606880 0.3547871608 0.0560497603 0.0049046252 -0.4347393547
-0.0551690598 0.7044283909 -0.1238381106 0.0559978515 0.0062241354 -0.4359370554
-0.2087724020 0.5321954702 -0.0144115590 0.0562338297 0.0061780876 -0.4358364669
0.0119571576 0.4909960982 -0.1368638742 0.0559243019 0.0037146410 -0.4361994756
-0.2160823485 0.6250066899 0.1201447031 0.0557808744 0.0037115448 -0.4359847790
-0.3343560004 0.7063306151 0.0862904392 0.0571882303 0.0050030724 -0.4359887087
-0.2248103347 0.7019079712 0.0813365613 0.0558604154 0.0062207406 -0.4358955901
-0.0260825326 0.5323617160 -0.1622934013 0.0559765370 0.0061969889 -0.4357260381
0.0695294493 0.6993399190 -0.0088353926 0.0559168977 0.0062273960 -0.4360017527
-0.2827082956 0.6780327183 -0.0159484838 0.0547213408 0.0050840274 -0.4362667379
-0.2117586907 0.5021299445 0.1903260195 0.0555190411 0.0037995005 -0.4357162764
-0.2982584947 0.9464530129 -0.0867840882 0.0547312847 0.0049034755 -0.4363951230
-0.2602432481 0.0243178115 0.3652752882 0.0560152881 0.0037069978 -0.4361171736
-0.0389329893 0.6957706937 0.3808775946 0.0562713046 0.0049843660 -0.4372091532
0.1116795539 0.0689211812 0.2074751707 0.0549362955 0.0048875402 -0.4352111859
-0.1052727177 0.7249402275 0.3843155851 0.0553555108 0.0050401071 -0.4348723475
-0.2965680239 0.9639704344 0.0228528635 0.0571474846 0.0048205916 -0.4357090316
0.2021036009 0.4960160962 -0.0164608052 0.0561524358 0.0037200531 -0.4360545607
0.1408158689 0.6224784726 0.0398141559 0.0560279310 0.0037042076 -0.4359236776
-0.0415754019 0.6200837288 -0.0278171735 0.0558462015 0.0037020233 -0.4360536311
0.0097904161 0.5127725828 0.2058469991 0.0558396473 0.0062068569 -0.4361951943
-0.3246393464 0.7442089518 0.1397232980 0.0571146212 0.0049158098 -0.4364062204
0.3257358008 0.5425315960 0.0711417836 0.0568496550 0.0041633642 -0.4356696494
0.2139925059 0.4976053612 0.0492489624 0.0561629564 0.0037207437 -0.4359764654
0.0065516879 0.3310818893 0.0823565331 0.0561102622 0.0049643188 -0.4347806354
0.0449871275 0.0652748155 -0.3714165220 0.0558475979 0.0062053657 -0.4361693493
0.0047323652 0.6520380845 0.3407592187 0.0557878258 0.0047140951 -0.4348118419
-0.1293512802 1.0029813357 0.3009570436 0.0565758693 0.0047856274 -0.4370650339
-0.0310624553 0.6831909770 0.3247919999 0.0556925987 0.0057782756 -0.4351805561
0.0541899235 0.5172764385 -0.0724478198 0.0558541875 0.0062145190 -0.4358340207
0.3315333129 0.6071961488 0.1324207632 0.0569634683 0.0045641350 -0.4353921679
-0.3161682342 0.0494515605 0.4569881423 0.0566389374 0.0052364274 -0.4350149832
-0.2882523878 0.9722629120 -0.0971031923 0.0550292509 0.0053920830 -0.4367526894
0.1613522337 0.7030285695 0.3564993230 0.0567408326 0.0049538779 -0.4350303329
0.0891032935 0.6228717937 0.1175769595 0.0560275453 0.0037044543 -0.4359183578
-0.0289249916 0.5023742742 0.0979669457 0.0559162906 0.0062262248 -0.4360060315
0.1667030323 0.0578303635 -0.0369451968 0.0554713099 0.0049449370 -0.4371744128
0.1618317170 0.6215636819 -0.0089381036 0.0560221787 0.0037035575 -0.4359315143
-0.2456988942 0.5531809896 -0.1212016995 0.0550025800 0.0043895440 -0.4366380450
-0.3098449876 0.9971308473 0.0763370594 0.0546783324 0.0051190435 -0.4358997931
0.2849277034 0.0182023304 0.4141933293 0.0554627080 0.0039321025 -0.4357781670
-0.2374359447 0.7637359780 0.2545838950 0.0567686848 0.0048593199 -0.4369314883
-0.4807965851 0.0318104526 -0.1670662327 0.0560152577 0.0048954275 -0.4372384764
0.4624630693 0.0469199460 -0.1488370303 0.0556391974 0.0050372158 -0.4372166168
0.2003371774 0.5252927411 -0.1594725477 0.0564371911 0.0039646016 -0.4365728887
0.1410003797 0.6962707009 -0.1542905499 0.0560685742 0.0061902892 -0.4361875334
0.0030185222 0.5045109082 -0.2046685107 0.0559331391 0.0037363678 -0.4363035209
0.0412315081 0.8732795215 0.3950693491 0.0561301639 0.0052571120 -0.4347902921
-0.1672835582 0.9972389236 0.2871494240 0.0552081271 0.0052595152 -0.4349971773
0.3723727913 0.6346413998 -0.0039951485 0.0569670250 0.0053094913 -0.4366210448
0.0168223145 0.6216868889 0.1902979965 0.0560094371 0.0037024862 -0.4359348914
-0.0734328559 0.0729563133 0.1135824921 0.0549671744 0.0048239459 -0.4368055657
-0.0450258305 0.5061125620 0.0147416474 0.0559724201 0.0062218321 -0.4358921359
0.0229503084 0.5265938661 -0.1391936551 0.0559145338 0.0062048711 -0.4357605837
-0.1503393280 0.5122223578 0.1280589121 0.0561509307 0.0062039225 -0.4360518730
-0.3102665631 0.8129151011 -0.0519616917 0.0547831493 0.0051093880 -0.4365129319
-0.2276071228 0.9806630016 0.2283734187 0.0568064114 0.0047717171 -0.4368817044
0.1506189558 0.6910590991 0.3652586130 0.0567145297 0.0049249670 -0.4350093966
0.1460530716 0.7374451386 0.3289222200 0.0550906597 0.0049714751 -0.4369401421
-0.3334634829 0.5635827334 0.0377637524 0.0548301228 0.0044265256 -0.4362899268
-0.0761507089 0.5021854883 -0.1743591182 0.0558119431 0.0037266035 -0.4362361119
-0.0301849510 0.7373457086 0.3810584692 0.0562343609 0.0049099222 -0.4372155619
-0.0287420529 1.1318780581 0.3534856880 0.0560571366 0.0060694119 -0.4354376085
-0.0043632601 0.6985377603 0.2815192569 0.0558279681 0.0062111901 -0.4358484281
-0.2760133434 0.6524989157 0.2627574886 0.0550424163 0.0048580766 -0.4351027467
0.0653987562 0.0602664891 0.1394862244 0.0556958720 0.0037212129 -0.4360099650
-0.2639379773 0.9175674883 0.2313114007 0.0550467912 0.0052254211 -0.4351267463
-0.1171228514 0.5461158762 -0.1755933895 0.0562428667 0.0061159225 -0.4355931275
0.1971075140 0.7023801882 -0.0128364990 0.0558602320 0.0062237673 -0.4360609240
-0.0212291067 0.1938095107 0.0148599521 0.0552838332 0.0049591724 -0.4370438269
0.0118805573 0.0520170402 -0.1513996590 0.0555806939 0.0037591608 -0.4358935740
0.1174208707 0.7423142936 0.3535955400 0.0551971764 0.0049497142 -0.4370233852
0.3475916253 0.6373076856 -0.0342952004 0.0567281580 0.0055615212 -0.4367667375
0.0297091192 1.0127822522 0.3480948331 0.0558217415 0.0047576487 -0.4372336701
0.1708661385 0.6435387963 0.2338422424 0.0561965028 0.0037506727 -0.4357749493
0.0101413852 0.6168276550 0.0739994025 0.0559517342 0.0036990093 -0.4359757066
0.1367021684 0.5189984446 0.0555831319 0.0557226720 0.0062102959 -0.4360031199
0.1698427315 0.4916887135 0.1187054325 0.0561631310 0.0037230304 -0.4359236156
-0.1931362254 0.4884200183 0.0365519061 0.0556727287 0.0037251174 -0.4360480521
0.1115745600 0.7603390570 0.3900862517 0.0565593611 0.0050797726 -0.4349093822
-0.0756471109 0.9071692960 0.3456059854 0.0564500896 0.0047954321 -0.4371338050
0.3317807312 0.6399275745 0.0399390616 0.0546833777 0.0049626076 -0.4357833261
-0.0915488672 0.6268173574 0.2805883323 0.0557630774 0.0038284417 -0.4356400327
-0.0947075284 0.5100022733 -0.2028826826 0.0557344574 0.0037557813 -0.4363142085
-0.0370083984 1.0464942397 0.3351749070 0.0562586894 0.0047664024 -0.4371970478
-0.0614114020 0.6993399190 0.1349060594 0.0559163893 0.0062271835 -0.4359825024
-0.1184247087 0.6793450747 -0.2491196347 0.0553560193 0.0049171568 -0.4370996629
0.3147178093 0.0050976911 0.4330536016 0.0559895430 0.0037076226 -0.4359004508
0.0232735821 0.4711052777 0.0766829035 0.0559901602 0.0037004866 -0.4359865118
-0.0458738257 0.1034592789 0.1240772205 0.0566334722 0.0056799839 -0.4352571514
-0.2832681318 0.8992142491 -0.0366317367 0.0570859013 0.0048669871 -0.4355027548
0.1352795932 0.0566924336 -0.0131328994 0.0557767992 0.0037077301 -0.4359476912
0.2111045380 0.7896795062 0.2608192909 0.0549868155 0.0049185595 -0.4368401214
-0.2358951799 0.5053143406 0.1595621262 0.0554780943 0.0038053818 -0.4357688113
-0.1972586100 0.8270816885 -0.1883134324 0.0570368915 0.0051589089 -0.4354237690
-0.3067703663 0.7856443943 -0.0080139330 0.0570776852 0.0048955881 -0.4354812822
0.0460862988 0.5646919839 -0.2878089217 0.0564380904 0.0044655840 -0.4370343573
-0.3292348358 0.5737301884 0.0133301683 0.0548221115 0.0045275986 -0.4364132173
-0.2486002462 0.8384051706 0.2660731208 0.0551015889 0.0051761089 -0.4350609386
0.1544478162 0.5220385974 0.0187616677 0.0557156637 0.0062093144 -0.4359647407
-0.3471186760 0.7182892007 0.1688866557 0.0547763712 0.0050033949 -0.4354767959
-0.0767132860 0.6160496592 0.1622904012 0.0559139836 0.0036985185 -0.4359699833
0.1724174037 0.7721735868 0.3036692999 0.0550269654 0.0049145830 -0.4368827251
-0.0133903875 0.6857212787 0.3266077609 0.0557719816 0.0058580202 -0.4352733700
-0.2862269578 0.0381314238 -0.0719277402 0.0560572517 0.0037066398 -0.4359278831
0.1879587239 0.4929691109 0.0669087755 0.0561537284 0.0037190147 -0.4359686388
0.2985153105 0.6806900871 0.2079829375 0.0569339453 0.0048616699 -0.4352393657
0.1580504967 0.4877598641 0.0131365572 0.0561117369 0.0037122113 -0.4360284931
-0.2871671837 1.0030950478 -0.0064926804 0.0571590158 0.0050003619 -0.4357347792
0.1567579408 0.9133534320 0.3274130082 0.0565591144 0.0050780095 -0.4349086917
-0.1923315383 0.5764075526 0.3139705323 0.0552539458 0.0044526375 -0.4350716060
-0.0097964341 0.4368213714 0.0752019083 0.0555161649 0.0049627252 -0.4348299007
0.0277742631 0.0679090157 0.0916596027 0.0558691223 0.0037016413 -0.4360059240
-0.1400120217 0.4818738639 0.0045313532 0.0557520344 0.0037143754 -0.4360933826
0.0987945313 0.9389482588 0.3390731482 0.0553099969 0.0047716892 -0.4370798144
0.1325720167 0.8074624884 0.3676401560 0.0566648583 0.0051699253 -0.4349946793
-0.3103815110 0.9841623642 -0.0492171665 0.0547189946 0.0049504882 -0.4363309596
0.0328560923 0.6172968618 0.0619330115 0.0559610925 0.0036992458 -0.4359696924
