0.0381214242 0.7653809091 -0.3636711515 -0.5000000000 0.0000000000 0.5151167273
0.1178824242 0.1277065455 -0.1450554848 -0.5135684848 -0.0089593030 0.5701328182
0.3366255455 0.6548073030 -0.1535753636 -0.5215150000 0.0139420606 0.5593618182
-0.1061862727 0.5758832424 -0.2850888485 -0.5246812121 -0.0095415455 0.5337551212
0.0559100606 0.8268673636 -0.3636711515 -0.4992955152 -0.0007044848 0.5152325455
-0.2880583939 0.0318232121 -0.2261881818 -0.4723740606 -0.0046965758 0.5569147879
0.1059465152 0.0754287273 -0.4848832727 -0.5000000000 0.0000000000 0.5151167273
0.0824990000 0.0094349091 -0.4545802424 -0.4969851515 0.0000000000 0.5750110909
0.1014534848 0.0748784848 -0.0606408485 -0.5000000000 0.0000000000 0.5151167273
0.2755506061 0.7647851818 -0.2547872121 -0.5214274848 0.0000000000 0.5668472424
0.0854898485 0.0806372121 -0.3983991212 -0.4698016364 0.0000000000 0.5429032424
0.2085003636 0.5885336364 0.2120864242 -0.4982194242 0.0004151515 0.5710309697
0.0275710000 0.5942481212 -0.2912525455 -0.4982583333 0.0269194545 0.5590216667
0.0163560303 0.8565080909 -0.3636711515 -0.5050764242 0.0050764242 0.5743271818
0.3181818182 0.0432586364 0.2141872424 -0.5258374242 0.0107809394 0.5454197576
-0.0148893333 0.8723823030 -0.3756198788 -0.5000000000 0.0105831212 0.5735446667
0.3484848485 0.1720602727 0.2405683939 -0.5302457576 -0.0010340909 0.5454197576
-0.1666666667 0.5760220000 -0.0274525152 -0.4844396970 0.0245572121 0.5536348788
0.0801989091 0.5454545455 -0.1886728485 -0.5000000000 -0.0303030303 0.5454197576
0.0706369697 0.1212121212 -0.3013160606 -0.5000000000 0.0303030303 0.5454197576
0.0757575758 0.3244538182 -0.0980590909 -0.5303030303 0.0000000000 0.5454197576
0.3120376061 0.6060606061 -0.0575426061 -0.5034228182 0.0287226364 0.5431378788
0.1012879091 0.5757575758 0.0983137273 -0.5055635758 0.0294101212 0.5439341515
0.1737012424 0.5757575758 -0.1494009394 -0.5050395758 0.0287151818 0.5378603939
-0.0758512424 0.5938620606 -0.1514562424 -0.4852464242 0.0242787273 0.5552461515
0.0757575758 0.2843535455 -0.0882629697 -0.5300200000 0.0000000000 0.5466186970
0.2737807576 0.1212121212 0.0976203636 -0.5000000000 0.0303030303 0.5454197576
0.4090909091 0.6220381212 -0.1014499091 -0.5292784242 0.0000000000 0.5400993939
0.3630824242 0.0640824545 0.1963809697 -0.5214274848 0.0000000000 0.5668472424
0.1816254848 0.5604133636 0.1964598485 -0.4998003333 -0.0179792727 0.5663403939
0.2995925758 0.6060606061 0.1209183333 -0.4952926364 -0.0295460606 0.5450867576
0.0506728788 0.8535606970 -0.3636711515 -0.4991534848 -0.0038712121 0.5156282727
0.2342614848 0.0827006061 -0.1657459394 -0.5125394848 0.0000000000 0.5178328788
-0.0387988788 0.7878787273 -0.3806959697 -0.5236456061 -0.0051135455 0.5350444545
0.0676100909 0.0606060606 -0.5015758182 -0.5000000000 -0.0303030303 0.5454197576
0.3978818182 0.7363846667 -0.1515499394 -0.4968434242 0.0000000000 0.5156289697
-0.0151515152 0.7002009697 -0.4144900909 -0.4696969697 0.0000000000 0.5454197576
-0.0215130909 0.7168551212 -0.3939741212 -0.4983441515 -0.0016558485 0.5158610000
0.1533525758 0.5454545455 -0.1331466364 -0.5000000000 -0.0303030303 0.5454197576
0.1124016667 0.0418592424 -0.5151863030 -0.5000000000 0.0000000000 0.5151167273
-0.1027614848 0.1212121212 -0.1291450606 -0.5000000000 0.0303030303 0.5454197576
0.1363636364 0.1318865758 -0.1157607879 -0.5303030303 0.0000000000 0.5454197576
0.0958210909 0.7896253939 -0.3636711515 -0.4912591515 -0.0001830909 0.5171492424
0.4590198182 0.0956414545 -0.2413675152 -0.4878836061 0.0135680303 0.5694269697
0.3181818182 0.0236705758 0.2671342424 -0.5296028182 -0.0029661212 0.5454197576
0.0487325152 0.0910647879 -0.4727286061 -0.5301791818 0.0013045758 0.5478070000
0.0860180000 0.0938539697 -0.3920609394 -0.4701096667 0.0013133636 0.5429289091
0.2272727273 0.5759223030 0.1359757879 -0.5280339091 0.0057429394 0.5396768182
0.2034206970 0.5757575758 -0.0421557576 -0.5000000000 0.0303030303 0.5454197576
0.2778549697 0.5757575758 -0.0483223333 -0.4987734545 -0.0298481818 0.5460330303
0.3312586061 0.6099685455 -0.1607188485 -0.4836913939 -0.0118999394 0.5556865152
-0.1587347879 0.0537849697 0.2276364848 -0.5239103636 0.0102323636 0.5304751212
0.0373733939 0.5757575758 -0.1020434848 -0.5000000000 0.0303030303 0.5454197576
0.2266013333 0.6800506364 -0.2949413030 -0.5137715758 0.0078710303 0.5707287576
0.1087214242 0.2024990909 -0.1212469091 -0.4988100606 0.0000000000 0.5153976364
-0.0475047576 0.0606060606 -0.1277570303 -0.5000000000 -0.0303030303 0.5454197576
0.2765038182 0.6060606061 0.1334909394 -0.4935073030 -0.0292890606 0.5435182121
0.2678599394 0.5656932424 -0.0827093333 -0.5059429091 0.0297145758 0.5454197576
0.1288251515 0.5606627576 -0.1781315455 -0.5003656364 0.0299698182 0.5483864545
0.0984799394 0.5691975758 0.0100229394 -0.4916024242 -0.0288375455 0.5419129091
0.2077932727 0.5589999091 -0.1655858788 -0.4916724545 -0.0286432727 0.5454045758
-0.1380941212 0.5757575758 -0.0759533939 -0.5103217273 -0.0265947576 0.5381026667
0.1920011818 0.8079723636 -0.3207009091 -0.5129209394 0.0000000000 0.5725764242
0.1321794848 0.7164957576 -0.3375522727 -0.4870585455 -0.0014030303 0.5181338182
0.1075823333 0.0606060606 -0.1074456364 -0.5000000000 -0.0303030303 0.5454197576
-0.0402607273 0.5465645758 0.0228543636 -0.5009775152 -0.0295551818 0.5392889697
0.1935700606 0.5857078182 0.1548799697 -0.4805261212 -0.0194738788 0.5580246061
0.3026688182 0.5945980303 0.0383862727 -0.4747863636 0.0000000000 0.5622288485
-0.1708427879 0.6060606061 -0.1135961212 -0.5000000000 -0.0303030303 0.5454197576
0.1358565758 0.3229728485 -0.1212469091 -0.4833752424 0.0000000000 0.5215619394
-0.0692806667 0.0741358788 -0.1196276364 -0.5073495758 0.0000000000 0.5748180000
0.1633862121 1.0388190606 -0.3738273636 -0.5121113030 0.0183459394 0.5660629394
0.2304137879 0.5749387879 -0.1563285455 -0.4916074242 -0.0286336364 0.5491601212
0.2401761212 0.5757575758 0.0412170000 -0.4868137879 -0.0244331818 0.5538098788
0.2550069697 0.8898716667 -0.2808727576 -0.5172741515 0.0058737576 0.5694989394
0.0553042727 0.0791080303 -0.3871396364 -0.5302137879 0.0000000000 0.5477439091
0.1789246061 0.9183458182 -0.3423906970 -0.4877726667 -0.0055693030 0.5182744242
0.0834115455 0.1134773333 -0.4233383939 -0.4721621212 0.0100649091 0.5430999394
0.0551028485 0.0977179091 -0.3965667879 -0.5301814848 0.0012856061 0.5477891818
-0.1374780909 0.5757575758 -0.0201464545 -0.5000000000 -0.0292270909 0.5408620303
0.1927387273 0.5757575758 -0.2325318485 -0.4984642424 -0.0290324242 0.5408125152
-0.0488868788 0.1045395455 0.1373076364 -0.5237895152 0.0123310909 0.5314020000
0.2355189394 0.5757575758 -0.0473918788 -0.5036475152 0.0293518485 0.5442039091
0.1552107273 0.6847396667 -0.3333681212 -0.4915554242 -0.0026542121 0.5166685758
0.2597018788 0.8546513030 -0.2888707273 -0.4839106970 -0.0068554545 0.5207624242
0.2347535758 0.9852059091 -0.3258873333 -0.4797858788 -0.0015064242 0.5231970606
-0.3029174545 0.0847910000 -0.1804458788 -0.4956735152 0.0038072727 0.5156813030
-0.0151515152 0.7583238485 -0.3885984545 -0.4696969697 0.0000000000 0.5454197576
0.4041717879 0.7099682121 -0.1391644848 -0.5200141818 0.0103607273 0.5654339394
0.4178929091 0.6155632424 -0.1300488485 -0.5213808182 -0.0015914545 0.5241573636
0.3461633030 0.6232452424 -0.1623468182 -0.4746134545 -0.0023560000 0.5424160909
-0.1185623939 0.0428048182 0.2436566061 -0.5092755758 -0.0158991818 0.5338284242
-0.0977282424 0.5575880000 0.0689036061 -0.5069559697 0.0183051515 0.5615283030
0.1550242121 0.6363636364 -0.3255730909 -0.5000000000 -0.0194374242 0.5454197576
0.0796889091 0.8283757879 -0.3636711515 -0.4998109091 -0.0001890909 0.5151478182
-0.1348448182 0.0606060606 0.2598345758 -0.4915782424 0.0281825758 0.5460398182
0.3405380303 0.6060606061 -0.0785350303 -0.4888273333 -0.0255183030 0.5553032727
-0.1363636364 0.0161145152 0.1819484848 -0.4697143939 0.0000000000 0.5453459394
0.0873675455 0.1212121212 -0.1586425152 -0.5000000000 0.0303030303 0.5454197576
0.0710444545 0.1068629091 -0.1984713636 -0.5301768182 0.0014839394 0.5477028182
0.3787878788 0.9671394545 -0.1830913030 -0.4722904848 -0.0081910909 0.5372286667
0.2822023939 0.5880556970 -0.1212773030 -0.5094113939 0.0285739091 0.5454228182
0.3461096667 0.0000000000 0.1940608788 -0.5000000000 -0.0193813333 0.5576221818
0.2923223939 0.1125787273 -0.1673789091 -0.4891051515 0.0179325758 0.5668768788
0.2896399091 0.5854020000 -0.0431131212 -0.4810673030 -0.0211652121 0.5556180606
-0.0506313636 0.5151515152 0.0802765152 -0.4941930909 -0.0189379697 0.5437590303
0.1061757273 0.2612312121 -0.0607559697 -0.4785725152 0.0000000000 0.5668472424
0.2334205152 0.9524199697 -0.3272203333 -0.4824748182 -0.0048449091 0.5214346970
0.3611130000 0.6018380909 -0.0126629394 -0.4769947273 0.0000000000 0.5649226364
-0.1362924242 0.5757575758 -0.1687075152 -0.5000000000 -0.0303030303 0.5454197576
-0.1155893030 0.5358164848 0.0510425758 -0.4879809394 -0.0035193333 0.5193188485
-0.1278651818 0.1162458485 -0.1509612121 -0.4953024242 0.0031364848 0.5156660606
0.0816509394 0.1212121212 -0.1409786667 -0.5000000000 0.0303030303 0.5454197576
0.2414469394 0.6128550909 0.1534350606 -0.5210440000 0.0174820303 0.5421194848
-0.1078720606 0.5764777576 -0.2709506061 -0.5245211212 -0.0153461818 0.5372001818
0.0994193333 0.7674658788 -0.3636711515 -0.5105818788 0.0000000000 0.5732247576
-0.0843286970 0.6060606061 -0.1465586364 -0.4849339091 0.0238510909 0.5549705758
0.3646462121 1.0225460303 -0.2262976667 -0.5217832727 0.0045073636 0.5636395152
0.0784079091 0.2827370909 -0.1212469091 -0.5000000000 0.0000000000 0.5151167273
-0.0589385758 0.0606060606 0.1765174545 -0.5000000000 -0.0303030303 0.5454197576
-0.1221754242 0.6027499091 -0.2031352727 -0.5236175152 0.0053047273 0.5296747576
0.0868146364 0.0606060606 -0.3596513333 -0.5000000000 -0.0303030303 0.5454197576
0.0813480606 0.0429189697 -0.5151863030 -0.5000000000 0.0000000000 0.5151167273
0.1877662121 0.5757575758 0.0989058182 -0.4993837879 -0.0302336970 0.5457278788
0.1252533333 0.1890186364 -0.1212468485 -0.4862028485 0.0000000000 0.5223568788
0.3349981515 0.0977272424 0.1682966667 -0.5214274848 0.0000000000 0.5668472424
0.2529358788 0.5757575758 -0.1462714242 -0.5052633939 0.0292512424 0.5464493333
0.3787878788 0.7796004242 -0.1618855758 -0.5262910303 0.0036505152 0.5563713030
0.3484848485 0.1550864545 0.2295808788 -0.4696969697 0.0000000000 0.5454197576
0.1879227879 0.0986088182 -0.1143798788 -0.4881061515 0.0070466970 0.5706902121
0.0466801515 0.0894001818 -0.4992532424 -0.5302137879 0.0000000000 0.5477439091
-0.0838390303 0.5757575758 0.0038650000 -0.4949322727 0.0293918788 0.5471090000
0.3484848485 0.0775816667 0.2415049697 -0.5301758182 -0.0022967879 0.5454197576
0.1574500000 0.5757575758 0.0215130606 -0.4970454545 -0.0300585152 0.5454197576
0.3214360909 0.6060606061 -0.1027851515 -0.4898971212 -0.0251398788 0.5342229697
0.2487984242 0.5908866667 0.0932550303 -0.5256371212 0.0114058182 0.5340139394
0.0649850000 0.1212121212 -0.4309107273 -0.4951080909 0.0272644848 0.5450120909
0.0808415758 0.0303030303 -0.4557601515 -0.5000000000 0.0301784545 0.5459474242
0.2712341212 0.8521116970 -0.2760686061 -0.4852841212 -0.0079188182 0.5201590303
0.0367758182 1.0303030303 -0.4076452424 -0.4938632424 -0.0277610909 0.5454197576
0.1381880303 0.5757576364 -0.2482921212 -0.4965075455 -0.0294460909 0.5401810909
0.0474006667 0.7294238182 -0.3636710909 -0.5000000000 0.0000000000 0.5757227879
-0.1421306061 0.0196365455 0.2669255152 -0.5214274848 0.0000000000 0.5668472424
0.3322974242 0.0426355455 0.2726924848 -0.4900187273 0.0000000000 0.5715883939
0.0196795758 0.6907111515 -0.3636711515 -0.5000000000 0.0019791212 0.5754016061
0.3869560000 0.1212121212 -0.2285317576 -0.4977930606 0.0280960909 0.5498336364
-0.1192258485 0.5783556061 -0.1858255152 -0.4728961515 0.0000000000 0.5589716970
0.2985883636 0.6483276364 -0.2317494545 -0.4772344242 0.0000000000 0.5256244848
-0.1494833636 0.5977645758 -0.0612320606 -0.4889803636 0.0250985152 0.5572950909
0.3706424545 0.9328873333 -0.1867450303 -0.5190342424 0.0044348485 0.5677586364
0.0910849091 0.0606060606 -0.1106235455 -0.5000000000 -0.0303030303 0.5454197576
0.0989476364 0.5151515152 -0.0522004848 -0.5016046364 -0.0273710000 0.5509281212
0.0576962121 0.0801359091 -0.3560450000 -0.5302137879 0.0000000000 0.5477439091
-0.1548937273 0.5757575758 -0.0082971212 -0.5052650303 -0.0290601212 0.5454197576
-0.2575757576 0.0594500606 -0.2251956667 -0.4696969697 0.0000000000 0.5454197576
0.0770143939 0.5757575758 -0.1381110606 -0.5000000000 0.0303030303 0.5454197576
0.1369430606 0.5757575758 0.0210355152 -0.5000000000 0.0303030303 0.5454197576
0.3597884242 0.0606060606 0.2370362727 -0.5068000909 -0.0272464545 0.5522198485
0.3367568485 1.0303030303 -0.3077390303 -0.5000000000 -0.0303030303 0.5454197576
0.2160110606 0.6504837879 -0.3006044848 -0.4883013333 0.0029021515 0.5206368182
0.1363636364 0.0990355455 -0.1358555152 -0.4739757273 0.0000000000 0.5350899394
-0.0281955758 0.6533989091 -0.4110095152 -0.4883748182 -0.0091438182 0.5286336970
0.1053229697 0.6363636364 -0.3398237576 -0.4978014848 0.0147826970 0.5366257273
-0.1887148182 0.5791042121 -0.0744340909 -0.5260427273 0.0019321818 0.5594072121
0.0757575758 0.2969532727 -0.1004848485 -0.5303030303 0.0000000000 0.5454197576
0.1020802727 0.8715065455 -0.3636711515 -0.5108193939 0.0003260909 0.5735886061
0.2434769697 0.6004687879 0.1764772121 -0.4864084848 0.0043789091 0.5645404545
0.3145500000 0.6226251818 0.0981380606 -0.4842260606 0.0173685152 0.5559437879
-0.0308521212 0.6060606061 -0.2935263939 -0.5107627879 -0.0255613939 0.5346569697
0.1225715455 0.1212121212 -0.0851619091 -0.5000000000 0.0303030303 0.5454197576
0.3657660000 0.0606060606 -0.2037316364 -0.5000000000 -0.0303030303 0.5454197576
-0.2941219697 0.1157940606 -0.1781514545 -0.4952466970 0.0021054242 0.5155759697
-0.1476731515 0.1056449697 -0.1392258182 -0.5073495758 0.0000000000 0.5748180000
0.3405949091 1.0208519394 -0.2712009394 -0.4800114242 -0.0143658788 0.5284335758
0.1650851212 0.5757575758 0.0514331515 -0.4990000909 -0.0302201515 0.5449198182
-0.0401594545 0.0683691212 0.1518736970 -0.4733971212 0.0000000000 0.5599304242
0.1189513939 0.8430494242 -0.3632142121 -0.4893190303 -0.0038038182 0.5173692727
0.1714340000 0.9572716970 -0.3506053636 -0.5073947576 0.0079601212 0.5736350000
0.1957718788 0.5570783939 -0.1574074545 -0.4913022424 -0.0286526061 0.5476700606
0.2417003636 0.1212121212 0.0692446364 -0.5000000000 0.0303030303 0.5454197576
0.1138347273 0.6508029697 -0.3333681212 -0.5097504545 0.0053971212 0.5729521515
0.3468194545 0.5809023939 -0.0278397576 -0.4747863636 0.0000000000 0.5622288485
0.3086411515 0.9972056667 -0.2519996970 -0.5178223030 0.0057324848 0.5690830303
0.4672561515 0.0062333939 -0.2337847576 -0.4865747576 -0.0232516364 0.5588450000
0.2582804242 0.5914201515 0.0295635758 -0.4819002424 -0.0210067576 0.5574234848
0.1176217879 0.6363636364 -0.3324024242 -0.5062320909 -0.0105954545 0.5641160000
0.0907016061 0.4313913939 -0.0909438788 -0.5000000000 0.0000000000 0.5757227879
-0.1666666667 0.0108842121 0.2288305758 -0.4896652727 0.0025836667 0.5325013636
0.1060606061 0.0160091212 -0.4713346364 -0.4732294545 0.0000000000 0.5593050000
0.3787878788 0.5787363939 -0.0349048182 -0.4752633333 -0.0022153030 0.5619108485
0.1979564242 0.5757575758 0.1835596970 -0.4805000606 0.0004220303 0.5241739697
-0.1400954242 0.5757575758 0.0035425455 -0.5118830303 -0.0274978182 0.5454197576
-0.2225573030 0.5757575152 -0.0550071818 -0.5180931818 -0.0221593030 0.5460690303
-0.1285351818 0.0918365758 0.2603906364 -0.5239729394 0.0119059394 0.5312466061
-0.1737771212 0.6060606061 -0.0604687273 -0.5137026667 -0.0252468485 0.5407566061
0.4085548788 0.8329438788 -0.1217828788 -0.5136838182 0.0070798788 0.5703223939
-0.0234672121 0.0896617576 0.0952838182 -0.5255654848 0.0000000000 0.5291508182
0.0022456970 0.8693239091 -0.3939741818 -0.4955370606 -0.0055063333 0.5178820909
-0.1060605758 0.0144207273 0.2268963333 -0.4696969697 0.0000000000 0.5454197576
0.3037616970 0.6060605455 -0.0134288182 -0.4861210909 -0.0248911212 0.5536980909
0.1945801212 0.8741986970 -0.3194114242 -0.5126191212 0.0043106364 0.5723670909
0.1108015758 0.1361280303 -0.0606408485 -0.5000000000 0.0000000000 0.5151167273
-0.0151515152 0.7370385152 -0.4103150606 -0.4696969697 0.0000000000 0.5454197576
-0.0151515152 0.6821530606 -0.3720119394 -0.5150180909 0.0078724848 0.5656321515
0.2289172121 0.0851766364 0.0622157576 -0.5214274848 0.0000000000 0.5668472424
0.0186993030 0.5454545455 0.0045353939 -0.4993361212 -0.0293984242 0.5409582727
0.3181818182 0.0086945455 0.1818406364 -0.5214442424 0.0000000000 0.5240327576
0.4881461212 0.0303030303 -0.1896475455 -0.4954997576 0.0270086364 0.5499200000
-0.2576455152 0.0407511212 -0.2424589697 -0.5000000000 0.0000000000 0.5151167273
0.0911291212 0.1212121212 -0.3000388182 -0.4912439394 0.0248643333 0.5446900909
0.0341286970 0.5757575758 -0.1461590909 -0.5000000000 0.0303030303 0.5454197576
0.4322177879 0.0615075455 -0.2557260909 -0.5125394848 0.0000000000 0.5178329091
-0.1363636364 0.6349527879 -0.2282431515 -0.4845222121 0.0006309697 0.5454197576
0.3909890000 0.9221515152 -0.1580802424 -0.5142242121 0.0073518485 0.5703190000
0.0509797273 0.0144267879 -0.4848832727 -0.5000000000 0.0000000000 0.5757227879
0.1782893030 0.7744384545 -0.3275567273 -0.5109684848 0.0000000000 0.5734899394
-0.0151515152 0.8338890606 -0.4198720606 -0.5140324242 -0.0062977273 0.5225297879
0.3950868788 0.7855967879 -0.1515499394 -0.4876848788 0.0123151212 0.5223779394
0.0725296364 0.0793598485 -0.0555683939 -0.5255655152 0.0000000000 0.5291508182
0.3787878788 0.7631126061 -0.1588983030 -0.4718492424 0.0000000000 0.5402236667
-0.1653513030 0.6092362727 -0.1831683030 -0.5244262424 0.0000000000 0.5275231818
0.0133103030 0.0830853333 -0.1316547879 -0.4952398182 0.0021647576 0.5155789394
-0.1606252121 0.0865992424 -0.1582765152 -0.4955008182 0.0032441515 0.5156446061
0.1247222121 0.5757575758 -0.0054960606 -0.5000000000 0.0303030303 0.5454197576
-0.2594112727 0.0606060606 -0.2391230303 -0.4739263939 0.0071597273 0.5584565758
0.0627953939 0.1111871818 -0.0368769091 -0.4733971212 0.0000000000 0.5599304242
0.4561643939 0.0552777273 -0.2727620606 -0.5000000000 0.0000000000 0.5151167273
0.3120003939 0.0836464242 0.1452988788 -0.5214274848 0.0000000000 0.5668472424
0.3251121515 0.0735560606 0.1584107273 -0.5214274848 0.0000000000 0.5668472424
-0.0798368182 0.5151515152 0.0661072424 -0.4947729394 -0.0155793939 0.5296284242
-0.2851478788 0.2012068485 -0.2121560000 -0.5000000000 0.0000000000 0.5194068485
0.3181818182 0.0239756364 0.2449431515 -0.5289281515 -0.0038104545 0.5454197576
0.0886704545 0.2368068485 -0.1212469697 -0.5000000000 0.0000000000 0.5151167273
0.3655792121 0.0431247879 0.2423894545 -0.4923551515 0.0000000000 0.5739180909
-0.0056132727 0.6060606061 -0.3095151515 -0.4988771818 -0.0269526061 0.5329810303
0.1694525455 0.5454545455 -0.1064144848 -0.4961171515 -0.0297924545 0.5437515152
-0.0486545455 0.5757575758 -0.1247120909 -0.4987302727 0.0299331212 0.5462662424
0.0994651212 0.3861005758 -0.0606408485 -0.5048269091 0.0000000000 0.5735646364
0.1096998182 0.0303030303 -0.5009537879 -0.5000000000 -0.0303030303 0.5454197576
-0.0859430606 0.6060606061 -0.1713185152 -0.4914620909 0.0263609091 0.5511116970
0.0593384242 0.1515151515 -0.1334190303 -0.5000000000 0.0303030303 0.5454197576
0.3808610000 0.5965369697 -0.0627139697 -0.5228231212 0.0000000000 0.5259286061
0.3484848485 0.6202690909 -0.0993199091 -0.5194214848 0.0228733030 0.5454197576
0.1060606061 0.4290829394 -0.1023663030 -0.4696969697 0.0000000000 0.5454197576
0.0454545455 0.5315299697 -0.0987059697 -0.5303030303 0.0000000000 0.5454197576
0.2655372121 0.6047390303 -0.1831744848 -0.5083189697 0.0268263030 0.5483200909
-0.0143630303 0.5628679394 -0.0514864848 -0.5034433333 -0.0292698788 0.5390247576
0.2363818788 0.8585056061 -0.2939559394 -0.5177128788 0.0030569394 0.5695327273
0.4246619394 0.7516230909 -0.1515499394 -0.5000000000 0.0000000000 0.5343534545
-0.1247622121 0.0606060606 0.2352258485 -0.5000000000 0.0258652121 0.5454197576
-0.0479617273 0.0841680000 0.1337752121 -0.5255655152 0.0000000000 0.5291508182
0.3968750909 0.7965950303 -0.1212469091 -0.5085840606 -0.0012103636 0.5728029394
0.1307087576 0.0606060606 -0.0462937576 -0.5000000000 -0.0303030303 0.5454197576
0.1730240303 0.5454545455 -0.0857680303 -0.5000000000 -0.0303030303 0.5454197576
-0.1372539697 0.5901932121 -0.0583186364 -0.4918074545 0.0273438182 0.5552489091
0.3213142121 0.0617267576 -0.2053153333 -0.5125394848 0.0000000000 0.5178329091
0.1957285455 0.5757575758 -0.1804562727 -0.5034403333 0.0300480303 0.5450475152
-0.0151515152 0.8794581212 -0.3915683333 -0.5291182424 0.0037419091 0.5491616667
0.1123342727 0.0606060606 -0.0576352121 -0.4878619697 0.0184117273 0.5575577879
-0.1408775758 0.0605788788 0.2423894545 -0.4931683030 -0.0068316970 0.5169948788
0.1418344242 0.5383843939 -0.1212469091 -0.4921280303 -0.0078719697 0.5221423636
0.3085782727 0.6070921818 0.1100815152 -0.4759989091 0.0079046970 0.5552413636
-0.0338299697 0.5182734545 0.0908743030 -0.5080704242 -0.0057643030 0.5725131515
0.0752520000 0.5757575758 -0.2444756061 -0.5100856061 -0.0281822727 0.5414323939
0.0858694848 0.5536662121 0.0586709697 -0.4907058485 -0.0288196364 0.5454197576
0.3936721818 0.6407086364 -0.1014831818 -0.5194267879 0.0194267879 0.5365177576
0.3148128182 0.7811602424 -0.2357404848 -0.4900280000 -0.0085836667 0.5182804242
0.2287500606 0.1212121212 -0.1530836061 -0.4966143030 0.0269173333 0.5521911818
-0.0417497273 0.5757575758 -0.1959090909 -0.5000000000 -0.0303030303 0.5454197576
-0.1949574848 0.6025414848 -0.0283255758 -0.5210358485 0.0000000000 0.5671295152
0.4221987879 0.7744936061 -0.1515499394 -0.5000000000 0.0000000000 0.5582502727
0.0814784545 0.1095173333 -0.4465353939 -0.4717479394 0.0082988182 0.5430654242
0.0582812424 0.5757575758 -0.0382060303 -0.5000000000 0.0303030303 0.5454197576
0.0148296970 0.5757575758 -0.0562564848 -0.5001900000 0.0302646667 0.5456946061
0.0028799697 0.9173630303 -0.4242772121 -0.4964855455 0.0001669091 0.5361956364
0.1421818485 0.8595840606 -0.3333681212 -0.5114367879 0.0031030000 0.5731470303
-0.0001340909 0.8843702727 -0.4242772121 -0.4931673333 -0.0034418788 0.5337599394
0.3459857576 0.0071998485 0.1817833939 -0.5017671515 0.0000000000 0.5158486970
0.3709151515 0.1081646667 -0.2058336061 -0.4887020606 0.0167729697 0.5675193333
0.2785315758 0.0950109394 -0.1858686970 -0.5125394848 0.0000000000 0.5178328788
0.4888483636 0.0606060606 -0.2090394545 -0.4982006667 0.0289858182 0.5472190909
0.0988750909 0.0782610000 -0.2377767273 -0.4698016364 0.0000000000 0.5429032424
0.2870208788 0.5695253939 -0.0964083030 -0.5059429091 0.0297145758 0.5454197576
0.1363636364 0.3490399091 -0.1000135455 -0.4724795152 0.0000000000 0.5395386364
-0.1716449394 0.6357289394 -0.1706270606 -0.4997409091 0.0295584545 0.5517283939
0.0543821515 0.1212121212 -0.4743539091 -0.4981070606 0.0291272727 0.5452620000
0.3496740000 0.6375527879 -0.1397466364 -0.5169435758 0.0137290909 0.5660633030
0.2795347273 0.1095411515 -0.1863246667 -0.5125394848 0.0000000000 0.5178329091
0.0570279394 0.5641842424 -0.1818623333 -0.5097737879 -0.0284247576 0.5432405152
0.3837531212 1.0303030303 -0.2415490000 -0.5000000000 0.0303030303 0.5454197576
-0.2615936061 0.0339702121 -0.1818529697 -0.5000000000 -0.0016400000 0.5155038788
0.0757575758 0.0057126061 -0.4806938182 -0.5237246061 0.0000000000 0.5624002121
-0.2896199697 0.0120910303 -0.2121560000 -0.5000000000 -0.0002442727 0.5151340909
0.3243108788 0.5757575758 -0.0169357576 -0.5000000000 -0.0303030303 0.5454197576
0.0653114242 0.0217789394 -0.4848832727 -0.5161638182 0.0000000000 0.5669615152
0.3667284545 0.0303030303 0.1850204545 -0.5000000000 -0.0303030303 0.5454197576
0.4073995455 0.6156556061 -0.0702358485 -0.4815883333 0.0079094545 0.5639828182
0.0793590000 0.0656346970 -0.4719685455 -0.4698016364 0.0000000000 0.5429032424
0.0976763030 0.0303030303 -0.5284628485 -0.5000000000 0.0170265758 0.5454197576
0.2191420000 0.5757575758 -0.0264347576 -0.5000000000 0.0303030303 0.5454197576
0.0788080000 0.3809253333 -0.0606408485 -0.5195413636 0.0000000000 0.5673648788
0.0164028485 0.5766845455 -0.2583753333 -0.4983652727 -0.0289231515 0.5370977879
0.2058098485 1.0348256364 -0.3939741818 -0.4923189091 0.0138987273 0.5199261818
-0.0151515152 0.6624284242 -0.4079213939 -0.4778100000 -0.0076376061 0.5534983333
0.0987891515 1.0411943333 -0.3939741818 -0.5002725758 0.0005451818 0.5755640000
0.2102656364 0.5757575758 -0.1008510000 -0.5000000000 0.0303030303 0.5454197576
0.1028419394 0.1188000000 -0.1901739697 -0.4701383030 0.0014354545 0.5429312727
-0.0928044848 0.5757576364 -0.0911165758 -0.5005951212 -0.0301974242 0.5442295455
0.1616610303 0.6713203636 -0.3080707273 -0.5122050303 0.0102873333 0.5709741515
-0.0237014242 0.6060606061 -0.2697666667 -0.4831126364 0.0224419091 0.5516874848
0.1014644242 0.8330731818 -0.3636711515 -0.4942571212 -0.0019143030 0.5161492727
0.2008892424 0.0933397273 -0.1202736970 -0.4876886970 0.0040151818 0.5718636364
0.1252253030 0.1375357576 -0.0606408485 -0.5000000000 0.0000000000 0.5757227879
0.1050309697 0.0897286061 -0.1639058485 -0.4698016364 0.0000000000 0.5429032424
0.1814367576 0.0630125152 0.0147353030 -0.5214274848 0.0000000000 0.5668472424
-0.0066496667 0.5757575758 -0.0764950909 -0.5003761212 0.0302013030 0.5459212424
0.2218997273 0.5757575758 0.0619076667 -0.4866743333 -0.0253614848 0.5520826061
0.0160711515 0.7228948485 -0.3636711515 -0.5000000000 0.0000000000 0.5151167273
0.4061900000 0.6838748788 -0.1212469091 -0.5130029394 0.0080031212 0.5686166061
0.0857243333 0.7046130303 -0.3636711515 -0.5042376061 0.0084752121 0.5736190303
0.1458514848 0.1155260909 -0.0556530606 -0.4804097879 0.0150727576 0.5282403333
0.3398950606 0.1059248485 -0.2137611818 -0.5125394848 0.0000000000 0.5178329091
0.0683511818 0.1209363333 -0.0470625455 -0.4733970909 0.0000000000 0.5599304242
0.0903989697 0.1627270909 -0.0606408485 -0.5000000000 0.0000000000 0.5757227879
-0.0306807576 0.6600236667 -0.3636711515 -0.4948695152 -0.0098023636 0.5196306364
0.1937597576 1.0303030303 -0.3846579394 -0.5018270606 -0.0282950606 0.5509009394
0.3092105152 0.5970893030 -0.1043911515 -0.4891740303 -0.0264640909 0.5385003636
-0.0709394545 0.6108787879 -0.3314585152 -0.5141869697 0.0187454242 0.5630136667
0.1060606061 0.3956505152 -0.1059654545 -0.4696969697 0.0000000000 0.5454197576
0.0896441212 0.0000000000 -0.4666527273 -0.5000000000 -0.0303030303 0.5454197576
-0.2575757576 0.0581280606 -0.1946109394 -0.4696969697 0.0000000000 0.5454197576
0.2661888788 0.5653590000 -0.0989738182 -0.4937480303 -0.0295682424 0.5440133030
0.3486911212 0.5912899697 -0.0157734848 -0.5236709394 -0.0071648182 0.5296391212
-0.0151515152 0.7861163939 -0.4215219697 -0.5212677576 0.0000000000 0.5454197576
0.0912828182 0.0728690000 -0.3288829697 -0.4698016364 0.0000000000 0.5429032424
0.0863478788 0.1881804242 -0.0606408485 -0.5000000000 0.0000000000 0.5757227879
0.1045669697 0.2836096364 -0.0606408485 -0.5000000000 0.0000000000 0.5757227879
0.2017721818 0.6363636364 -0.2775325152 -0.5082065455 -0.0047704848 0.5695935152
0.3226174545 1.0347612424 -0.3244743333 -0.4804137273 0.0133153939 0.5265942121
0.3065310303 0.8958013030 -0.2541098182 -0.5188652727 0.0043368485 0.5685356364
0.0757575758 0.1364181818 -0.0730215758 -0.5284109091 0.0000000000 0.5534348788
0.3277909394 0.6267545152 -0.1825930909 -0.5243848182 -0.0043590909 0.5436933939
0.2055882424 0.5832681515 0.1189613636 -0.4827397879 -0.0232990909 0.5527994242
-0.0174646667 0.0655733939 -0.1367839394 -0.4951517576 0.0009801212 0.5155457879
0.1339817576 0.1364896061 -0.1362724242 -0.5196051212 -0.0087113030 0.5664612121
0.2566813333 0.7548660606 -0.2736565455 -0.5212911515 0.0000000000 0.5669590000
0.0594992121 0.0606060606 -0.4575244848 -0.5000000000 -0.0303030303 0.5454197576
0.3274508485 0.0439447879 0.2028173636 -0.5200934545 0.0073575758 0.5253263030
0.0636752121 0.0735676061 -0.5151863030 -0.5000000000 0.0000000000 0.5151167273
0.2612724242 0.7121733939 -0.2690654545 -0.4785725152 0.0000000000 0.5239922727
0.1097732424 1.0303030303 -0.4214912727 -0.5000000000 -0.0303030303 0.5454197576
0.0519956970 0.6612234545 -0.3571300303 -0.5105890303 0.0069424242 0.5724247576
0.0873891515 0.5512703333 0.1185599091 -0.4915079697 -0.0284540909 0.5404807879
0.2450451818 0.7703918182 -0.2852926364 -0.4804822727 0.0000000000 0.5224266667
0.1574947576 0.1212121212 -0.0252719091 -0.5000000000 0.0303030303 0.5454197576
0.3114646667 0.9830122424 -0.2491761818 -0.5173224545 0.0045079697 0.5697754545
0.1363636364 0.1356031515 -0.1003209697 -0.4706869394 0.0000000000 0.5412261818
0.0018814545 0.5757575758 -0.1811747576 -0.5002954848 -0.0302596667 0.5454197576
0.0382506667 0.5454545455 0.0044614242 -0.4960184242 -0.0292837576 0.5413818788
0.0874749394 0.9546068485 -0.3898632727 -0.4895700303 -0.0088212424 0.5184339697
0.1363636364 0.3872772121 -0.1068233030 -0.4781438485 0.0000000000 0.5315478485
0.4701223636 0.0163699394 -0.2723366667 -0.5234627576 0.0024270303 0.5639105152
0.3787878788 0.7945136970 -0.1697766061 -0.5263745152 0.0035745455 0.5561434242
0.3764316667 0.8153744848 -0.1818529697 -0.4832408485 0.0000000000 0.5204058485
0.0454545455 0.0949963030 -0.0639387576 -0.5189005758 0.0000000000 0.5673786667
0.4090909091 0.5991800000 -0.1093212424 -0.5279269091 0.0000000000 0.5386807576
0.4090909091 1.0162673636 -0.1952712727 -0.4696969697 0.0000000000 0.5454197576
-0.0999536364 0.5790017576 -0.1609010909 -0.5158004242 -0.0231130000 0.5341124545
0.0875086970 0.9719296061 -0.3799389394 -0.5094175455 0.0055477273 0.5736724242
-0.1080191212 0.5757575758 -0.0082244848 -0.5092906061 -0.0284412121 0.5420717576
0.0683260909 0.1212121212 -0.3591432121 -0.5000000000 0.0303030303 0.5454197576
0.3353759394 0.1070153030 0.1578215758 -0.4774739697 0.0066010909 0.5267388182
0.4093009394 0.7079189091 -0.1214569394 -0.4821593939 0.0112380000 0.5644731515
0.0629377576 0.0688086970 -0.2879051515 -0.5302137576 0.0000000000 0.5477439091
0.4310368182 0.6872856970 -0.1515499394 -0.5037374242 0.0000000000 0.5159990000
0.1884455758 0.5476990909 -0.1062016970 -0.4936146970 -0.0294987879 0.5432622121
0.0866568485 0.1151066970 -0.3843949091 -0.4718311212 0.0086536061 0.5430723636
0.0757575758 0.0262565152 -0.4721136364 -0.5284519697 0.0000000000 0.5532609091
0.3138533030 0.9547666061 -0.2501453636 -0.4821869697 -0.0059592121 0.5220973636
-0.2869659394 0.1198426061 -0.2121560000 -0.5000000000 0.0000000000 0.5757227879
0.0479257879 0.9266741818 -0.3876142727 -0.4992548788 -0.0058175758 0.5158346970
0.3822622727 1.0303030303 -0.2650899091 -0.5000000000 -0.0303030303 0.5454197576
0.2276107273 0.5594420000 -0.0769564848 -0.5000000000 -0.0214274848 0.5668472424
-0.0605421515 0.5908452121 -0.2145025152 -0.5172547273 -0.0234983030 0.5385230606
0.4750516364 0.0531769394 -0.2727620606 -0.5000000000 0.0037863030 0.5166850606
0.3149427273 0.6085379091 0.0973525152 -0.4739470303 0.0045591212 0.5538979394
0.0294518182 0.9418933030 -0.3939741818 -0.4958816061 -0.0041183939 0.5160255758
-0.1180534545 0.6060606061 -0.1318982424 -0.4917865758 0.0278971212 0.5496375758
-0.0522535455 0.5522535455 0.0503048788 -0.4886278788 0.0276150909 0.5472255455
0.1735180909 0.9712493333 -0.3530577273 -0.5070196667 0.0080270000 0.5737191515
-0.0663715152 0.5454544848 0.0887526970 -0.4993373333 0.0275777273 0.5567298485
0.0539622424 0.7594207879 -0.3636711515 -0.5000000000 0.0000000000 0.5757227879
0.3130712121 0.6009499394 -0.1632202424 -0.4950202121 -0.0200499697 0.5488196061
0.2296337879 1.0606060606 -0.3589553636 -0.4964684545 0.0277242727 0.5348251212
-0.1542863333 0.0163845758 0.2182766061 -0.5136724545 0.0036763939 0.5702921515
0.2461998788 1.0329024545 -0.3636711515 -0.5071843636 -0.0174182121 0.5688109394
0.3097789697 0.6933857879 -0.2205588485 -0.5198483333 0.0027813333 0.5680494242
0.0754967879 0.0648988788 -0.5151863030 -0.5000000000 0.0000000000 0.5151167273
0.0697522121 0.9710177879 -0.3794830606 -0.5097535152 0.0053824848 0.5735838788
0.2956602424 0.9403144242 -0.2649806061 -0.5193169091 0.0019902727 0.5686753636
0.1923600303 0.6488764242 -0.2898845152 -0.5098259394 0.0058673333 0.5728857273
0.2944587879 0.6339360000 0.0344206061 -0.5121893030 0.0243785758 0.5324212424
0.3138159697 0.8320603333 -0.2234611515 -0.5175920909 0.0062817273 0.5692296061
0.1263740909 0.0938697273 -0.0606408485 -0.4977772727 0.0000000000 0.5753620909
0.3432009091 0.0908289697 -0.2152638182 -0.5125394848 0.0000000000 0.5178329091
-0.0864262727 0.5201837879 0.0802056364 -0.5120475455 -0.0090126061 0.5687303939
-0.0600340909 0.6494563030 -0.3490916061 -0.5211256667 0.0200516364 0.5492056061
0.1363636364 0.0693793636 -0.1387942727 -0.5251635152 0.0000000000 0.5578276364
0.2537737879 0.5916713333 0.1605432424 -0.5012502121 -0.0259530303 0.5366578182
0.1972378788 0.7183363939 -0.3180825152 -0.5130963636 0.0026943939 0.5719903939
-0.0194575455 0.5757575758 -0.2617968182 -0.5116818788 -0.0241820303 0.5348886970
0.0663787879 0.0672601515 -0.2431713333 -0.5302137879 0.0000000000 0.5477439091
0.3752194545 0.8595508182 -0.1818530303 -0.4860238485 -0.0045137273 0.5191170303
-0.0266606364 0.7511810606 -0.3939741818 -0.5044297576 -0.0044297576 0.5644190303
0.2096420606 0.5519866970 -0.1822448485 -0.4908355152 -0.0283042121 0.5399746667
0.2067210606 0.5757575758 -0.0133809091 -0.5000000000 -0.0303030303 0.5454197576
0.0112561212 0.6060606061 -0.3318440909 -0.4940339394 -0.0212028485 0.5251807879
0.4172346970 0.6984602121 -0.1293906970 -0.4855120000 0.0135892121 0.5674469394
0.0844562424 0.1212121212 -0.0961120909 -0.5000000000 0.0303030303 0.5454197576
0.3277801212 1.0412452121 -0.3128277576 -0.4802564848 0.0139696667 0.5273223333
0.3484848485 0.7800012727 -0.1831272424 -0.4783338182 0.0000000000 0.5243234545
-0.0609850303 0.5609850303 0.0426292424 -0.4893978182 0.0279890303 0.5478080000
0.1917850606 0.9223190606 -0.3359604848 -0.4873963030 -0.0058092727 0.5185113333
0.4090909697 0.7806863939 -0.1227359091 -0.5303030303 0.0000000000 0.5454197576
0.1210958182 0.0267274545 -0.4848832727 -0.4879430909 0.0000000000 0.5688820000
0.2230096970 0.0606060606 0.0424263333 -0.5000000000 -0.0303030303 0.5454197576
0.3626115455 0.0168369697 0.2159653333 -0.5132114242 -0.0039430303 0.5187000606
-0.0431693939 0.5653864545 -0.0073103939 -0.4984526364 0.0294300909 0.5515944848
-0.1728303636 0.0786928182 -0.1613706364 -0.4954361818 0.0028312121 0.5156089394
0.2330846970 0.9709288788 -0.3275561515 -0.5187815152 0.0034412121 0.5686292424
0.0596464242 0.1515151515 -0.0727611818 -0.5000000000 0.0303030303 0.5454197576
0.0985189394 0.6650603333 -0.3506841212 -0.4921520606 -0.0091402121 0.5178673030
0.0669381818 0.8739934848 -0.3636711515 -0.5031272424 0.0032932424 0.5752285455
0.1374107576 0.7917931818 -0.3333681212 -0.4864618182 -0.0007479394 0.5184053333
0.2401141515 0.6878432121 -0.2902237273 -0.5163500606 0.0056823030 0.5698778182
-0.1133171212 0.5783023939 -0.1190800000 -0.5145170000 -0.0246436970 0.5354666667
0.1800911515 0.0606060606 -0.0285787879 -0.5000000000 -0.0303030303 0.5454197576
0.2314817273 0.9248739394 -0.3218991212 -0.5170117273 0.0056690606 0.5697471515
0.0002371515 0.5757575758 -0.0892833333 -0.5000000000 0.0303030303 0.5454197576
0.0844161818 0.1362401818 -0.1212469091 -0.5000000000 0.0000000000 0.5151167273
-0.0621266061 0.5733153030 -0.0350105455 -0.5019036061 -0.0292256970 0.5378730000
0.4090909091 0.7843028485 -0.1501459091 -0.5299255152 0.0000000000 0.5438205455
0.3484848485 0.6164560000 -0.1291855758 -0.5164820000 0.0203283636 0.5580553636
0.0757575758 0.0106731212 -0.4670943030 -0.5286370606 0.0000000000 0.5514946364
0.2037865758 0.0812953636 0.0370851515 -0.5214274848 0.0000000000 0.5668472424
0.1224157273 0.0860274545 -0.1212469091 -0.5000000000 0.0000000000 0.5151167273
0.3787878788 0.7293375152 -0.1638267273 -0.4748491212 0.0000000000 0.5354628485
-0.2882367879 0.0606060606 -0.1753018182 -0.5000000000 -0.0303030303 0.5454197576
-0.1326569394 0.6028457879 -0.1874129394 -0.5230947879 0.0070420606 0.5300232424
-0.0151515152 0.7953086667 -0.3747194545 -0.4696969697 0.0000000000 0.5454197576
0.1786619394 0.5757575758 0.1276722424 -0.4999054242 -0.0302719394 0.5454576061
0.3787878788 0.8291330000 -0.1799083939 -0.4781483030 0.0000000000 0.5304930606
0.0803520909 0.1134107273 -0.4600517879 -0.4721551515 0.0100352121 0.5430993636
0.2156120000 1.0448727576 -0.3794043939 -0.4936720000 0.0213377273 0.5264357576
0.4090909091 0.8064699394 -0.1461871818 -0.4696969697 0.0000000000 0.5454197576
0.0848082424 0.0606060606 -0.2639153030 -0.5000000000 -0.0303030303 0.5454197576
0.0779457576 0.1106744848 -0.4889280000 -0.4718689697 0.0088149091 0.5430755152
0.2814226364 0.9165624545 -0.2792182727 -0.4798361818 -0.0018622727 0.5229811818
0.1363636364 0.1005707576 -0.1500434848 -0.5216864848 -0.0022165455 0.5655997879
0.0803423939 0.6603549091 -0.3550670000 -0.4916604545 -0.0089163333 0.5181412727
-0.0295357879 0.5757575758 -0.1431428182 -0.5000000000 0.0303030303 0.5454197576
0.1363636364 0.0876731515 -0.1262428182 -0.5288397576 0.0000000000 0.5489524242
0.2361780909 0.5757575758 0.0262236667 -0.4951302424 -0.0282510606 0.5483059394
0.2024090000 0.9197705455 -0.3257426667 -0.5109078182 0.0076759697 0.5723623939
0.0845715455 1.0303030303 -0.4232386970 -0.5030545152 0.0290716667 0.5393106970
0.3032456061 0.7587788182 -0.2270922727 -0.5174337576 0.0000000000 0.5697257576
0.3484848485 0.0782511212 0.2226942424 -0.5302913333 -0.0002112727 0.5454197576
0.1907229697 0.5757576364 -0.0485772121 -0.5000000000 0.0303030303 0.5454197576
0.1568665455 0.5757575758 -0.2028700000 -0.5018197879 0.0292814848 0.5524902424
0.1509596061 0.5757575758 -0.0563607576 -0.4985283030 -0.0300418788 0.5483631515
0.2141800000 0.7672962424 -0.3096114545 -0.5152479697 0.0000000000 0.5713969394
0.0891886061 0.5806708485 -0.2734164545 -0.5010080000 0.0284642424 0.5548796667
0.3012579091 0.6297117879 0.0502992727 -0.5156723939 0.0213166970 0.5337586061
0.0454545455 0.5230822121 -0.1242987879 -0.5218282727 -0.0159321818 0.5359276970
0.0757575758 0.1471055455 -0.0909038182 -0.5302987879 0.0000000000 0.5454376667
0.2453356061 0.1212121212 -0.1567661212 -0.4953288182 0.0256318485 0.5547621212
0.1421773030 0.9847735758 -0.3683026667 -0.4907908182 -0.0061394545 0.5173872121
-0.0365631212 0.6008299697 -0.2461198182 -0.4812400000 0.0204570303 0.5570865758
0.0255321212 0.5463672424 -0.0217456667 -0.4980920303 -0.0285973636 0.5369484848
0.0898906970 0.4149071212 -0.1212469091 -0.5000000000 0.0000000000 0.5151167273
0.2698458485 0.8513699091 -0.2604920303 -0.5174490909 0.0054993939 0.5694946970
-0.3022252424 0.1711665152 -0.2180066970 -0.5138370303 -0.0031782121 0.5534575758
0.4227561818 0.7040248182 -0.1515499394 -0.5081989697 0.0000000000 0.5173133030
0.2460913939 1.0428785758 -0.3751555758 -0.4896381818 0.0011331212 0.5216267576
0.0342078788 0.5454545455 -0.0710370000 -0.5000000000 -0.0303030303 0.5454197576
-0.1199660606 0.6174173030 -0.2096072727 -0.4811491212 0.0195320606 0.5581236061
0.0941207879 0.1127217576 -0.4848832727 -0.5000000000 0.0000000000 0.5151167273
0.1319278485 0.6453379394 -0.3204345758 -0.5105976061 0.0042409091 0.5729518788
-0.0158990909 0.5757575758 -0.0229821515 -0.5041544242 0.0291579091 0.5511233030
0.0917687879 0.2298850000 -0.0606407879 -0.5000000000 0.0000000000 0.5757227879
0.1060606061 0.0800113333 -0.1367270000 -0.4696969697 0.0000000000 0.5454197576
0.1199914242 0.1749181818 -0.1212469091 -0.4902085758 0.0000000000 0.5201488182
-0.1530147879 0.6172997576 -0.1710288182 -0.5171664242 -0.0208856061 0.5333235152
-0.1724307273 0.5757575758 -0.0718386061 -0.5000000000 -0.0303030303 0.5454197576
0.0202516970 0.5757575758 -0.0704554848 -0.5000000000 0.0303030303 0.5454197576
0.0767716970 0.6584930909 -0.3333681212 -0.5047246061 0.0088078788 0.5733589697
0.1057713939 0.5454545455 -0.1377395152 -0.5044339091 -0.0291200000 0.5490396061
0.0783438788 0.5607498485 -0.0081464545 -0.4928206970 -0.0287708182 0.5399040303
0.3357501212 0.5760786970 0.0305893636 -0.4940540000 -0.0068207273 0.5501442727
0.2702621212 0.0823539697 0.1035606667 -0.5214274848 0.0000000000 0.5668472424
0.1363636364 0.1406720909 -0.0706393333 -0.4696969697 0.0000000000 0.5454197576
0.0631013333 0.1062444545 -0.3011136364 -0.5301846061 0.0012561515 0.5477677879
0.3602743333 0.6937076061 -0.1700634848 -0.5217363333 0.0017436667 0.5654124242
0.2283130303 0.5834146061 0.0738046970 -0.4832526970 -0.0240394242 0.5529754848
0.0403038485 0.6688482727 -0.3636711515 -0.5000000000 -0.0013278485 0.5154301818
-0.0040893636 0.0981296970 0.0648329394 -0.5245803333 0.0073650000 0.5304472727
-0.0536619394 0.1073026667 -0.1400845758 -0.4952773030 0.0028856061 0.5156406970
0.3181818182 0.6203137576 0.0770494848 -0.4704957273 0.0003808182 0.5494756364
0.0757575758 0.4996673030 -0.0961313939 -0.5303030303 0.0000000000 0.5454197576
0.1244455455 0.1212121212 -0.1051528788 -0.5000000000 0.0303030303 0.5454197576
-0.0873333939 0.5966054242 -0.3217923030 -0.5264940303 0.0000000000 0.5315050606
0.2406439394 0.5959902121 0.0742940606 -0.4821795152 -0.0233221818 0.5527194848
-0.0201125455 0.6700803636 -0.3670848485 -0.5080052727 0.0107571515 0.5721697576
0.0920260000 1.0140489394 -0.3939741818 -0.4980827576 -0.0019172424 0.5155819394
0.2773465152 0.8669602424 -0.2773805152 -0.4831955455 -0.0060382121 0.5211510000
0.0590880303 0.5757575758 -0.2064292121 -0.4984348182 0.0301103333 0.5454197576
0.3356993636 1.0418840000 -0.2855475455 -0.5230863636 0.0006438788 0.5642914848
0.0247822424 0.8074188182 -0.3636711515 -0.5000000000 0.0000000000 0.5757227879
-0.1060606061 0.5955313030 -0.1091336364 -0.4864914848 0.0261225758 0.5521740303
0.1884973636 0.6363636364 -0.3006517273 -0.5007631818 -0.0278896667 0.5477092727
0.2883429697 0.6273080000 0.0972579394 -0.4976823030 0.0279875455 0.5545535455
0.0870495455 0.1212121212 -0.3309148182 -0.4902927576 0.0242735152 0.5446108182
0.1471950606 0.8805411515 -0.3342448182 -0.5117940606 0.0046191212 0.5728556364
-0.1884779394 0.6060605455 -0.0919740909 -0.5142800000 0.0222566364 0.5358997576
0.3484848485 0.7340461212 -0.2015644848 -0.5244615455 0.0050106667 0.5624161515
0.0774016061 0.0303030303 -0.5263122727 -0.5000000000 0.0249941515 0.5322867879
0.3787878788 0.6223983636 -0.0988873030 -0.4776542727 -0.0133019091 0.5432298788
0.0886276667 0.8028058788 -0.3636711515 -0.5057556970 0.0000000000 0.5743640606
0.0757575758 0.0821505758 -0.0773223939 -0.5303030303 0.0000000000 0.5454197576
0.1833278788 0.1212121212 -0.0020500606 -0.5000000000 0.0303030303 0.5454197576
-0.1134162424 0.5582938788 0.0532156061 -0.5153516364 0.0109106061 0.5632237576
0.1312230000 0.1265722727 -0.1515499394 -0.4821663939 0.0000000000 0.5225436667
0.0757575758 0.3477557576 -0.0673265152 -0.5243469091 0.0000000000 0.5607860909
0.0838375758 0.4591298788 -0.0909438788 -0.5000000000 0.0000000000 0.5757227879
-0.2576814848 0.1108479394 -0.2121560000 -0.5000000000 -0.0010307879 0.5308832121
-0.0391504545 0.5757575758 -0.1007404242 -0.5000000000 0.0303030303 0.5454197576
0.2047171212 0.5757575758 0.0435464545 -0.5000000000 -0.0303030303 0.5454197576
0.2383343636 0.6060606061 0.1090013333 -0.5009754242 0.0302064545 0.5454197576
0.0109898485 0.5757575758 -0.1323932727 -0.5007578485 -0.0302306970 0.5457986667
0.3531279091 0.9317072121 -0.2083126364 -0.4826453636 -0.0086773333 0.5222460606
0.3621903030 0.0606060606 0.2134388182 -0.5000000000 0.0303030303 0.5454197576
-0.0649882121 0.6363636364 -0.3481812121 -0.5224214545 0.0163740303 0.5445356364
0.0731333030 0.0980711212 -0.1625248182 -0.5301623636 0.0018370606 0.5476358182
-0.2975578788 0.0606060606 -0.1983464545 -0.5000000000 0.0303030303 0.5454197576
0.2610248788 0.6164583030 0.1142791212 -0.5214708788 0.0095721515 0.5370773636
0.2448698182 1.0116851212 -0.3157710909 -0.5193804242 0.0004892727 0.5685303333
0.1061693939 0.5454545455 -0.1633533030 -0.5000000000 -0.0303030303 0.5454197576
0.1677850000 1.0580758788 -0.3903257273 -0.5116237879 0.0171128485 0.5674822121
-0.0454545455 0.5899577273 -0.2191879394 -0.4810947576 0.0220632727 0.5532207273
0.0513050909 0.5757575758 -0.0199627576 -0.5003081818 0.0302507879 0.5458820303
0.0639868788 0.1212121212 -0.4016569394 -0.5000000000 0.0303030303 0.5454197576
0.3116756667 1.0455626364 -0.3246146667 -0.4819015152 0.0137263939 0.5260453030
0.3215548182 0.0303030303 0.1822493030 -0.5025176364 0.0278574545 0.5429021212
0.4090909091 0.8763269394 -0.1540596061 -0.4696969697 0.0000000000 0.5454197576
0.4393939394 0.0472605152 -0.2271721515 -0.5303030303 0.0000000000 0.5454197576
0.1020922727 0.1052221515 -0.1991692727 -0.4702166970 0.0017697576 0.5429378182
0.0757575758 0.1981112727 -0.0625993030 -0.5260769394 0.0000000000 0.5598074848
0.1281000909 0.6792042424 -0.3416316667 -0.5105040303 0.0103872727 0.5715353030
0.1060606061 0.4552256364 -0.1029827273 -0.4696969697 0.0000000000 0.5454197576
0.1285995758 0.8012192424 -0.3411321818 -0.4862015758 -0.0031062727 0.5188583636
0.3181818182 0.0229878182 0.2084278788 -0.5292314545 0.0000000000 0.5428327576
0.0581575455 0.0818644848 -0.0606408485 -0.5128354242 0.0000000000 0.5692861818
-0.1595503939 0.0129789091 0.2049701515 -0.5207268788 -0.0057746970 0.5246928788
0.0714995152 0.5462263333 0.0439382727 -0.4911357879 -0.0287364545 0.5439555455
0.1060606061 0.0302103333 -0.4721879697 -0.4785322424 0.0000000000 0.5646077576
0.0094769697 0.6060606061 -0.3100004848 -0.4998801515 0.0257312727 0.5598165455
0.3142285758 1.0160682121 -0.2888303030 -0.4911409394 -0.0195618182 0.5257810303
0.0956012727 0.0303030303 -0.4931845152 -0.5000000000 -0.0303030303 0.5454197576
-0.2226773939 0.0958835455 -0.1671599697 -0.4953251515 0.0009702727 0.5155183636
0.2414573333 0.1106775455 0.0470550606 -0.4786368182 0.0109265152 0.5272365758
0.1243034242 0.5151515152 -0.1385359697 -0.5000000000 -0.0274126061 0.5407429394
0.1235506364 0.8927700303 -0.3636711515 -0.4941013333 -0.0024223939 0.5163890606
-0.2575757576 0.0405841515 -0.2170458788 -0.4696969697 0.0000000000 0.5454197576
0.0950901212 0.2927655455 -0.1212469091 -0.5000000000 0.0000000000 0.5151167273
-0.1534738788 0.0000000000 0.2179328485 -0.5124059091 -0.0088962727 0.5702315758
-0.2952155758 0.0422383030 -0.2194928182 -0.5194317879 -0.0027759697 0.5681260000
-0.0423653939 0.6433356970 -0.3970632727 -0.5124496970 -0.0070345455 0.5199779091
0.3036183333 0.5900506061 -0.0060653636 -0.5259846364 0.0000000000 0.5298289697
0.2366220909 0.6060606061 0.1422325152 -0.5000000000 0.0303030303 0.5454197576
0.2708699697 1.0485093030 -0.3624736364 -0.4899772121 0.0185642727 0.5285958788
0.1505129394 0.9122046970 -0.3497991818 -0.5078132424 0.0056901212 0.5740845758
0.4696969697 0.0223056667 -0.2086449697 -0.5190693030 0.0000000000 0.5658067576
0.3332150909 0.1130320000 0.2120864242 -0.5000000000 0.0000000000 0.5151167273
0.2239942727 0.0925132424 -0.1610790606 -0.5125394848 0.0000000000 0.5178329091
0.4090909091 0.7321184848 -0.1237504545 -0.4726687576 0.0074951515 0.5540636364
0.0748042424 0.0610131818 -0.1336403939 -0.5302137879 0.0000000000 0.5477438788
0.0022934545 0.8169811212 -0.3636711515 -0.4968844242 -0.0062311515 0.5174274242
-0.3178896364 0.2068017879 -0.2121560000 -0.5000000000 -0.0041780303 0.5154136364
-0.0810681212 0.5919260000 -0.2621410303 -0.4728961515 0.0000000000 0.5589716970
-0.0399881515 0.1114402727 -0.1123045758 -0.5073495758 0.0000000000 0.5748180303
0.0853610303 0.5151515152 -0.0586661212 -0.5006582424 -0.0296447879 0.5467362424
0.2652017879 1.0582149394 -0.3059089394 -0.5045071212 0.0194483939 0.5675766364
0.0737292424 0.0606060606 -0.3444261212 -0.5000000000 -0.0303030303 0.5454197576
0.0623533636 0.1185622727 -0.3124007576 -0.5301932121 0.0007531212 0.5478191212
-0.0094366970 0.5454545455 0.0133554242 -0.5029794545 -0.0292187879 0.5397674848
0.2250590606 1.0599925758 -0.3368088182 -0.4948958485 -0.0233996061 0.5321063939
0.0906322424 0.5151515152 -0.1084436364 -0.5000000000 -0.0303030303 0.5454197576
