-0.4179632388 1.0087630819 0.3126364824 -0.4988847759 -0.0019234021 0.3467659638
0.0992450560 0.1145595324 0.0001258872 -0.4794292307 0.0115449337 0.3352416554
-0.3962996416 0.9375132228 -0.1211924281 -0.4949174283 -0.0121356920 0.3437616089
-0.0316582486 0.0942419750 0.0590547392 -0.4612784955 0.0055860371 0.3372113915
-0.0583300623 0.8351395289 0.1773459076 -0.4767537971 -0.0198019460 0.3470216965
-0.4136858034 0.9375132228 0.1076060906 -0.4963465110 -0.0065609050 0.3483715697
0.0193184704 0.8750123413 0.0971200885 -0.4791804772 -0.0208336272 0.3440149250
-0.0255033701 0.8750123413 -0.2084619298 -0.4791804772 -0.0204220797 0.3415933491
0.2286620063 0.8541787141 0.2490321270 -0.4791368724 -0.0208247312 0.3445151820
0.2688746360 0.8541787141 0.1008168282 -0.4780746074 0.0205948946 0.3439502782
0.0838871936 0.0000000000 -0.5041203498 -0.4791804772 -0.0208336272 0.3440149250
-0.0950053296 0.8974664497 -0.1419115536 -0.4844266970 0.0201315131 0.3438583603
-0.2341933135 0.8615063800 0.0878211866 -0.4764720848 -0.0197173198 0.3423444431
-0.1433394904 0.8958459685 -0.0371439093 -0.4791804772 0.0204520593 0.3414862643
0.0354704065 0.8989408455 -0.2471973719 -0.4748585204 0.0203107656 0.3434433544
-0.4204169400 1.5031082418 -0.3366702589 -0.4663815675 0.0025648903 0.3402950183
0.5000000000 0.0024452220 -0.0030890332 -0.4919238236 -0.0004991320 0.3557707574
-0.3958459685 0.9062457818 0.1757869897 -0.4988852134 -0.0046645658 0.3444695564
0.1566463656 0.8958459685 0.0463941023 -0.4791804772 0.0205186019 0.3455924680
0.2318341969 0.8333450870 -0.0507567263 -0.4788446600 -0.0208055018 0.3436102526
0.0892578943 0.8958459685 -0.2791865314 -0.4791804772 0.0207718971 0.3425310290
-0.1062056750 0.8750123413 0.1526815597 -0.4791804772 -0.0208336272 0.3440149250
-0.2651259373 0.8958459685 -0.0781929883 -0.4828630291 0.0203286409 0.3443275544
-0.0833416025 0.6594181964 0.0462022662 -0.4961332996 0.0006967807 0.3555613586
-0.3912561121 1.2569108943 -0.2622759388 -0.4585702698 0.0012328299 0.3428238248
-0.3767693453 1.0228157385 0.2833104229 -0.4584213511 0.0016140019 0.3443853260
-0.3769202224 1.0104430848 0.0946188866 -0.4586745421 0.0030461680 0.3429892230
-0.4166795957 0.9386566140 -0.0512857963 -0.4982877675 -0.0043272069 0.3463590622
-0.0587751936 0.3155782218 0.0523441445 -0.4791804772 -0.0028316858 0.3646364658
-0.1858593401 0.8333450870 -0.0425419021 -0.4801793038 -0.0207169172 0.3435599394
-0.4070814395 0.0636736689 -0.2695355203 -0.4695445496 0.0002146697 0.3292061536
-0.4166795957 1.1570016102 0.2734195334 -0.4995962026 0.0026825587 0.3418730406
-0.2474024373 0.0760269265 0.1315638452 -0.4910911868 0.0009028877 0.3277426955
-0.2719139914 0.8635011790 -0.3434947718 -0.4836510402 -0.0159045160 0.3412804489
-0.4206598810 1.2634480907 0.1837479354 -0.4990007776 -0.0040846826 0.3474144312
-0.3750123413 0.9513783351 -0.1818786382 -0.4590068593 0.0033301095 0.3429363056
-0.1658029531 0.8750123413 -0.2433738388 -0.4791804772 -0.0208336272 0.3440149250
0.1396101670 0.8958458852 0.0580020160 -0.4791804772 0.0206620623 0.3455890722
-0.4375132228 1.4471525150 0.0367702165 -0.4998491854 0.0000890846 0.3443415129
-0.4375132228 1.5258778546 -0.0645676919 -0.4997501840 0.0028079979 0.3437096082
-0.4054240619 0.9375132228 0.3260262546 -0.4923147249 -0.0121169834 0.3485083008
-0.4179360509 1.1595109164 0.1710636523 -0.4998564355 -0.0008883042 0.3463327702
-0.3958459685 1.3702544513 -0.1548785698 -0.4625709304 0.0084817655 0.3353670322
0.0303127505 0.8750123413 0.1168748255 -0.4791804772 -0.0208336272 0.3440149250
-0.0620303645 0.8333450870 0.0873252629 -0.4781106913 -0.0205071851 0.3450381894
-0.0245379607 0.0416672543 -0.1059491506 -0.4896107701 -0.0141573663 0.3427431570
-0.4346409115 1.4404301286 -0.3239710381 -0.4999016861 -0.0000366255 0.3435670853
-0.3525607122 0.8958459685 -0.0152360795 -0.4784571337 0.0206623123 0.3440574672
-0.3990802641 1.4279134520 -0.0915943648 -0.4585096440 0.0015847724 0.3434082914
-0.4196155746 1.0763497435 0.2827323523 -0.4999297073 -0.0006468008 0.3437912551
-0.2607470005 0.8541787141 0.0817637053 -0.4769438831 -0.0206612706 0.3440421753
-0.3541787141 0.8717651914 0.2258319248 -0.4973380875 -0.0096409901 0.3449667717
-0.3867758614 1.1843012244 0.0949666415 -0.4583925173 0.0010654109 0.3436967121
-0.4298480522 1.2671948102 0.3642218350 -0.4987254612 -0.0021116756 0.3477543319
-0.3856947212 0.0878697185 -0.2121096687 -0.4904261983 0.0089553555 0.3572176320
-0.4367736707 1.5416884109 -0.2155513214 -0.4983345598 0.0035656128 0.3435541060
-0.3605306371 0.9021979331 0.0782495724 -0.4644503736 0.0147301036 0.3441191764
-0.0203362139 0.1117176382 0.0901902616 -0.4619273589 0.0069804735 0.3374010817
0.1093725114 0.8750123413 0.2270816715 -0.4756194270 -0.0179695659 0.3453795900
-0.1230963508 0.8750123413 0.3259553786 -0.4791804772 -0.0208336272 0.3440149250
-0.1765500213 0.8750123413 -0.0037270838 -0.4780596697 -0.0206600622 0.3446687258
-0.2102628510 0.8333450870 -0.0545806344 -0.4803951193 -0.0207235423 0.3434805424
0.3952902523 0.0471743112 0.0315105173 -0.4781872340 -0.0105277318 0.3595655818
-0.3236858882 0.8541787141 0.0252441581 -0.4791804772 -0.0208336272 0.3440149250
-0.1006902639 0.8958459685 0.3467543803 -0.4812220268 0.0206575622 0.3444352434
0.1633246056 0.8750123413 0.2157021569 -0.4864326420 -0.0193993361 0.3443921386
0.1022248272 0.8958459685 -0.1651015057 -0.4791804772 0.0207942933 0.3430694533
-0.3820887745 1.0986963087 -0.1196484271 -0.4588331069 0.0017267952 0.3404075407
-0.0466997732 0.5608828066 -0.0309903642 -0.4791804772 -0.0003863804 0.3234408223
-0.2746749053 0.8939304831 0.2035525480 -0.4855189624 0.0195538591 0.3464741680
0.0298634733 0.8333450870 -0.0072403625 -0.4773334303 -0.0205133310 0.3437812550
-0.3938781699 1.1876342089 0.0731777717 -0.4746675177 -0.0000117918 0.3267714943
-0.0833415609 0.7251510402 0.0331624990 -0.4941186462 0.0019481525 0.3582172503
-0.4166795957 1.0116644354 -0.0399892411 -0.4999868123 -0.0006587176 0.3441788231
-0.3461786846 0.0471507692 0.2043463509 -0.4909868104 -0.0052344488 0.3282330565
0.0105777221 0.0495699075 0.1752035857 -0.4604331086 -0.0020957587 0.3374797078
0.0983282098 0.0769575854 0.4165173850 -0.4632115853 0.0062452131 0.3398525121
-0.0223458048 0.0947587740 0.0846638920 -0.4614002472 0.0051079679 0.3373119971
-0.4163490285 1.4753861216 0.3493606254 -0.4587126052 0.0025449942 0.3468779028
-0.4161222545 1.5336070261 -0.2757191284 -0.4584774144 0.0022344482 0.3439431323
-0.0820863140 0.8333450036 0.0903259927 -0.4785029885 -0.0205464565 0.3450455228
-0.0780857159 0.4166725435 0.0221499478 -0.4901523611 -0.0020495914 0.3465382939
-0.0208406794 0.2643340824 0.0276828175 -0.4583468500 0.0000000000 0.3440149250
0.2685105684 0.0622355444 0.0315105173 -0.4786919911 0.0003777553 0.3615126093
0.2256813393 0.8871276789 0.0684257047 -0.4652015925 0.0151779849 0.3445043277
0.1184672021 0.8958460518 0.2390325693 -0.4791804772 0.0208223562 0.3437438795
-0.2176897474 0.0956665785 0.1305039136 -0.4671299531 0.0015829390 0.3601430691
-0.2981682367 0.8541787141 -0.0659545865 -0.4791804772 -0.0208336272 0.3440149250
-0.1041751881 0.8055767162 0.0000443027 -0.5000141044 0.0000000000 0.3440149250
-0.4212807022 1.0709453548 -0.3329765401 -0.4994466172 -0.0035154662 0.3418233732
-0.1600792890 0.8958459685 0.1437906218 -0.4791804772 0.0208336272 0.3440149250
-0.3752515947 0.9868782524 0.3066846276 -0.4588654407 0.0014097491 0.3448469784
0.3599498372 0.0737991242 -0.0101567370 -0.4780340235 0.0026297246 0.3276713194
0.2008903855 0.8541787141 0.0661737562 -0.4787323459 -0.0207834806 0.3446218085
-0.2958507665 0.8541787141 -0.3209050157 -0.4791804772 -0.0208336272 0.3440149250
-0.4855345043 0.0170156358 0.3376608978 -0.4853447933 0.0000000000 0.3600356093
-0.3958459685 1.3248392066 0.1992508415 -0.4597696826 0.0043141442 0.3468515691
0.1140919529 0.8958459685 0.0449435401 -0.4791804772 0.0208147936 0.3435622102
0.0625318507 0.0906380492 -0.4089912581 -0.4901010479 0.0126560327 0.3386797872
0.0054597333 0.1055515721 0.2562472287 -0.4971672725 0.0078454232 0.3506201223
0.0738624689 0.0941998494 -0.3423249220 -0.4610423255 0.0083358259 0.3491919563
-0.3093182273 0.8541787141 -0.0795485282 -0.4791804772 -0.0208336272 0.3440149250
-0.1125723273 0.8750123413 0.2559468495 -0.4791804772 -0.0208336272 0.3440149250
0.1804993062 0.8541786308 -0.1003868013 -0.4791804772 -0.0207976683 0.3436312945
-0.3561595754 0.8750123413 0.3413099076 -0.4970635628 -0.0101040175 0.3456782609
0.2061939186 0.8904870387 -0.3434947718 -0.4791804772 -0.0026755169 0.3257191252
-0.4298071975 1.3182138631 -0.3136367048 -0.4997392463 -0.0013740819 0.3429745353
0.0126999187 0.0696827745 -0.1664826918 -0.4608496562 0.0010647442 0.3502447003
0.0560879890 0.8958459685 -0.0315438928 -0.4766458998 0.0205622067 0.3435809605
-0.0763538165 0.9051197868 -0.1184745772 -0.4845475321 0.0200982001 0.3438759438
-0.4205692339 1.0879954494 0.1578976958 -0.4999304782 -0.0006244255 0.3457024904
0.0388025577 0.0456058516 -0.0101567370 -0.4798301947 -0.0050726549 0.3243157305
-0.2757581289 0.8933890380 -0.0462110997 -0.4845876160 0.0198711969 0.3449733135
-0.4292353978 1.5416884109 0.0176714472 -0.4840515459 0.0056525589 0.3436416697
-0.0833415609 0.5181974129 -0.0163058029 -0.4938974764 -0.0005626329 0.3292979257
-0.0105226172 0.0866186384 -0.0997178335 -0.4607601757 0.0023161160 0.3505906844
-0.1457287533 0.8333450870 0.0714113718 -0.4798232779 -0.0206888751 0.3447303726
-0.3668133090 0.9084805842 0.3093852699 -0.4644504361 0.0147300411 0.3442659077
-0.3378008581 0.8958459685 0.0999188989 -0.4703671029 0.0176079983 0.3442701577
0.1082064741 0.8958459685 -0.0447741628 -0.4791804772 0.0208046268 0.3433178318
-0.0984206694 0.8958459685 0.1807560390 -0.4818738068 0.0205925613 0.3445224113
0.2683246074 0.8541787141 -0.0607929929 -0.4776665392 0.0205255812 0.3436980663
0.0783385528 0.0416672543 -0.4059926324 -0.4774348692 -0.0110739895 0.3440191750
-0.3815521836 1.0757779230 0.1655609288 -0.4584742268 0.0018144423 0.3447799566
-0.4259008091 1.1640460221 -0.2579451694 -0.4997532049 -0.0015976267 0.3453068390
0.0144070261 0.1095664620 -0.1933226954 -0.4707085452 0.0084694736 0.3467416093
-0.3022533984 0.8801413512 0.0447153911 -0.4877233477 0.0186854302 0.3458777221
-0.4172710207 1.0021244466 -0.2545381213 -0.4996732246 -0.0015973142 0.3463194158
-0.3750123413 0.8904393506 0.0201992328 -0.4944183379 -0.0130734552 0.3439288612
0.0833274565 0.8462397480 0.0886928864 -0.4724003399 -0.0187155765 0.3441757814
-0.3958459685 1.3333038260 0.0004125787 -0.4595367626 0.0045693144 0.3450439603
-0.1565026761 0.0763542436 0.0854187152 -0.4669928261 0.0011988502 0.3603840517
-0.0587934021 0.9109732027 -0.0012219235 -0.4842265692 0.0201643677 0.3440531338
0.0668834121 0.0531897085 0.4405182027 -0.4944508801 -0.0070004529 0.3503132221
-0.3810294470 0.0600925142 0.2508594861 -0.4674444367 -0.0029489999 0.3603636972
0.1418938242 0.8750123413 -0.2099842846 -0.4821387064 -0.0202929737 0.3439246529
-0.3958459685 1.3406012831 -0.2259285095 -0.4603846704 0.0062640050 0.3477957075
-0.4152325336 1.4973145975 0.3418443318 -0.4658126636 0.0000615217 0.3595299146
0.0237869501 0.0416672543 -0.2885893724 -0.4946837792 -0.0104491890 0.3393767345
-0.4166795957 1.0385070014 -0.0740338254 -0.4999558119 -0.0005843416 0.3434947718
0.2672598216 0.8506084346 0.2534109179 -0.4644488736 -0.0147316036 0.3440149250
-0.3958459685 0.9219387948 -0.2390699656 -0.4994515131 -0.0023511790 0.3435542101
0.1104747769 0.8750123413 -0.0630391912 -0.4756403231 -0.0193525438 0.3413821587
0.1692049802 0.0832038402 0.0315105173 -0.4791199347 0.0045393974 0.3620806589
-0.4369368814 1.5249747168 -0.2785035010 -0.4999838748 0.0004962987 0.3439371114
-0.4220620049 1.1098778206 0.3144424662 -0.4995031388 -0.0012869140 0.3448656036
-0.4227045556 1.2656922890 -0.0403424336 -0.4998252475 -0.0013316229 0.3458366798
-0.0644516695 0.1918130387 0.0523441445 -0.4800361559 -0.0028039562 0.3644143585
0.0318608140 0.9007457043 0.3523131462 -0.4732837690 0.0199246977 0.3446477047
0.2605566645 0.8541787141 0.2919613783 -0.4706837115 0.0158600987 0.3439896538
-0.3152896240 0.8541787141 0.0903465763 -0.4791804772 -0.0208336272 0.3440149250
-0.0614098349 0.2096738323 0.0523441445 -0.4791804772 -0.0033432763 0.3645627981
-0.4156268725 0.9375132228 -0.2572447220 -0.4985422919 -0.0053570131 0.3423378388
0.2499964739 0.8674510263 0.1440984386 -0.4592307583 0.0033811935 0.3448961457
0.1768597132 0.8648146350 -0.0358081613 -0.4898972533 -0.0175322681 0.3442446990
0.1592658817 0.0893097596 -0.0101567370 -0.4794230639 0.0019958198 0.3265494703
-0.2927287016 0.8541787141 -0.2017109179 -0.4791804772 -0.0208336272 0.3440149250
-0.0484015056 0.0748649101 -0.0309903642 -0.4791804772 -0.0036006966 0.3235214693
0.0989878441 0.0416672543 0.4221817983 -0.4653118649 -0.0107296930 0.3394109850
-0.4684115753 0.0139182380 0.3142735680 -0.4757369703 -0.0164468361 0.3340697430
-0.3648699691 0.9065372026 0.0474939719 -0.4644497694 0.0147307078 0.3440458421
-0.4332629962 1.3544864997 -0.2605777481 -0.4997427880 -0.0001019181 0.3438336724
0.2250163716 0.8913237380 0.2110937169 -0.4653095107 0.0152211313 0.3449365213
-0.1355607349 0.8958459685 0.2700972366 -0.4791804772 0.0208336272 0.3440149250
-0.0914725922 0.8958459685 0.2265532058 -0.4824943364 0.0205171435 0.3445327448
0.1398086698 0.0627480100 -0.0101567370 -0.4794593978 -0.0030287511 0.3255148932
0.0313393483 0.0957288502 0.2322981618 -0.4623593233 0.0054784939 0.3383237197
0.1622297360 0.8750123413 -0.2062905241 -0.4825742542 -0.0202018474 0.3435499601
0.0651998050 0.0215248036 0.4730462865 -0.4871632564 0.0160227468 0.3356875158
-0.0235343632 0.8333451703 -0.0155742301 -0.4785839896 -0.0206554788 0.3435536685
-0.3750123413 0.9399149234 0.1272309716 -0.4592696964 0.0008212407 0.3463259992
-0.4310886322 1.2761691868 -0.1042272305 -0.4995434311 -0.0016013351 0.3407499831
-0.4243608082 1.1459571003 0.0945367604 -0.4998645189 -0.0009774930 0.3423575474
-0.0189855907 0.1159949068 -0.0101567370 -0.4801633452 0.0097246372 0.3264004057
-0.4247504387 1.1400842883 -0.2614529897 -0.4997257045 -0.0017339828 0.3452114210
-0.0124136855 0.8750123413 -0.1542554569 -0.4791804772 -0.0207264173 0.3433840619
-0.3923126478 0.9583468500 -0.1828504435 -0.4797431726 0.0137016724 0.3440149250
-0.3849924404 1.1364493203 0.1027260009 -0.4583938715 0.0010708068 0.3438673812
-0.3678501570 0.8750123413 0.2700388816 -0.4939802068 -0.0140938238 0.3445865372
0.3573192584 0.0882170984 0.0315105173 -0.4778100620 0.0101700184 0.3615553599
-0.2095909457 0.8958459685 0.0078490378 -0.4791804772 0.0208336272 0.3440149250
-0.4375132228 1.5134912007 -0.1941039564 -0.4996479950 0.0025556819 0.3446529548
0.1501545032 0.1097376728 -0.0101567370 -0.4789331820 0.0123935706 0.3276359231
-0.3830690383 0.9947119254 0.2762118645 -0.4665752786 0.0052887621 0.3386446409
-0.0459802839 0.0534536914 -0.0829344718 -0.4980088052 -0.0042738936 0.3388005389
0.0536390795 0.0966551341 -0.3428031162 -0.4813575496 0.0107959439 0.3422414416
-0.2299581288 0.8958459685 -0.0904392860 -0.4792446448 0.0208280229 0.3439998206
-0.2368832265 0.1072726380 -0.1441263349 -0.4682223018 0.0083909517 0.3286809587
-0.4236386522 1.1144726145 0.3608714127 -0.4978145317 -0.0030489388 0.3505471004
0.1128178725 0.8750123413 0.2519483973 -0.4763772710 -0.0187412018 0.3447483936
-0.2982920509 0.0914474565 0.1898951054 -0.4676506271 0.0032682544 0.3601717778
-0.0253068048 0.9166795957 0.2544591619 -0.4808755011 0.0203192449 0.3443142833
-0.4229869971 1.2859988463 0.2606804163 -0.4808368756 -0.0007098850 0.3245712549
-0.4204292319 1.3597762827 0.0371009920 -0.4833200981 0.0049591116 0.3379939859
0.1078021142 0.0615073258 0.4898503152 -0.4759177645 -0.0001012098 0.3441676354
-0.3750123413 0.9893895378 -0.0379031700 -0.4603570242 0.0008216783 0.3513821955
-0.3798917643 1.0251189793 0.0689065240 -0.4658781229 -0.0061034611 0.3343232883
-0.2992438352 0.8816461849 -0.0277539852 -0.4875624496 0.0188329531 0.3451903999
-0.3809080495 1.0547274802 -0.0564518483 -0.4585279359 0.0019726320 0.3449688134
0.0889405773 0.8750123413 0.1919851974 -0.4716855590 -0.0105195025 0.3578837872
0.0576430109 0.0983001781 -0.3247079235 -0.4740487381 0.0096281150 0.3449612300
-0.3629271084 0.9045943835 -0.0658662519 -0.4644497486 0.0147307286 0.3439620492
-0.2383960811 0.0416672543 -0.1448353240 -0.4684240546 -0.0097584293 0.3299630184
-0.3309189694 0.8750123413 0.2564525441 -0.4791804772 0.0208264396 0.3435786896
-0.0213555825 0.5284725578 -0.0106716193 -0.4644866866 -0.0006629260 0.3293211344
-0.4267444460 1.2971310033 -0.0813146365 -0.4998462062 -0.0007163434 0.3464822098
-0.4166795957 1.4708200364 0.2235028711 -0.4585798116 0.0006149045 0.3439353613
-0.0859018887 0.0245964094 0.0315105173 -0.4941475425 -0.0008220949 0.3583893360
-0.0275572324 0.8333450870 -0.0724047400 -0.4787806799 -0.0206935419 0.3428828048
-0.2645549709 0.0416672543 -0.1478334080 -0.4765465442 -0.0086488303 0.3409341315
-0.4166795957 1.5241566011 0.1743704073 -0.4596053678 0.0059189793 0.3436214402
-0.3916418884 1.1670146889 0.1668490929 -0.4584487056 0.0013771236 0.3449576466
-0.2834606959 0.8862347079 -0.3434947718 -0.4845799908 0.0181732772 0.3415635779
-0.0352033403 0.0934210051 -0.1168047829 -0.4971151468 0.0029915422 0.3386371616
-0.0029342393 0.0987363926 0.1380457491 -0.4617402937 0.0044515628 0.3375333335
-0.3801643098 1.0766619146 -0.1211984282 -0.4588794409 0.0018100672 0.3401540372
-0.0550171197 0.1655925855 0.0523441445 -0.4791804772 -0.0030645849 0.3645812567
-0.3943099677 1.3914113747 -0.3434947718 -0.4773273677 0.0001099807 0.3246076096
-0.3958459685 1.3401512976 0.2120222716 -0.4598129332 0.0061034611 0.3455651968
-0.3951042914 1.0869354345 0.3648485521 -0.4728963886 -0.0008918042 0.3540925671
-0.3195129127 0.8541787141 -0.2924190306 -0.4791804772 -0.0208336272 0.3440149250
-0.4214669965 1.1819286076 -0.3434947718 -0.4842523196 -0.0016271271 0.3320623605
-0.0044422606 0.0833602382 -0.1171988926 -0.4607828635 0.0021682389 0.3504976831
-0.1059898178 0.8958459685 -0.0405494990 -0.4824463983 0.0204530593 0.3441573436
0.1170150150 0.1130143231 0.0107489745 -0.4792783536 0.0110535726 0.3443370337
0.0052701472 0.8750123413 0.2336145137 -0.4791804772 -0.0201107836 0.3469331328
-0.4057979630 1.3473022109 0.3430852660 -0.4621904042 0.0032674003 0.3386637870
0.0829921601 0.8958459685 0.1069534564 -0.4791529351 0.0208055643 0.3433916453
-0.4267574461 1.3160827706 -0.0820860223 -0.4997233294 -0.0021773432 0.3445812454
-0.4198032856 1.0485146843 0.3209694333 -0.4988455254 -0.0019677569 0.3469675499
-0.3919075171 1.1469909065 0.2318691766 -0.4599146221 0.0060873359 0.3431727047
-0.0849198331 0.6110720562 0.0315105173 -0.4934422825 0.0009487009 0.3589818652
0.0123727266 0.8750123413 0.0268623685 -0.4791804772 -0.0208336272 0.3440149250
0.0881798583 0.0668709848 -0.3834875859 -0.4617081474 0.0018922142 0.3488969730
-0.3541787141 0.8607742655 0.1753694214 -0.4938062668 -0.0130545800 0.3451017528
-0.4170362465 1.3700403441 -0.0260112315 -0.4804595369 0.0042691644 0.3487925340
-0.3754094928 0.0478786336 0.2258848422 -0.4910632073 -0.0051609686 0.3283342871
-0.3877882715 0.0929547277 -0.2346772162 -0.4799074041 0.0107941731 0.3429173886
-0.2313906490 0.0932644821 0.1197656788 -0.4911855632 0.0026751002 0.3277161117
-0.4141614352 1.1666831218 -0.1613059938 -0.4949698666 0.0048853189 0.3436682951
-0.0833415609 0.6486975868 0.0324353637 -0.4940058321 0.0013598317 0.3584283157
-0.0251643028 0.9166795957 0.3467910683 -0.4812060058 0.0202440355 0.3445126403
-0.2807183239 0.8541787141 -0.0680709288 -0.4782798812 -0.0207574803 0.3438824856
-0.0229529383 0.8333450870 0.1197971584 -0.4768625695 -0.0203424119 0.3456039474
-0.3698728313 0.8750123413 0.2119857503 -0.4928478575 -0.0153829878 0.3441510727
-0.3750123413 0.8957463004 -0.0413546354 -0.4938461632 -0.0132542911 0.3438519852
-0.1714250741 0.8866083799 0.3648485521 -0.4833968075 0.0050983636 0.3499156540
-0.1436676409 0.8958459685 -0.2379687834 -0.4791804772 0.0200648663 0.3389203531
-0.4099879388 1.4606486429 -0.2507260675 -0.4587392514 0.0033180468 0.3425579044
-0.3595515816 0.8750123413 0.0685367687 -0.4928670244 -0.0145635596 0.3440019039
-0.2232089294 0.8601467358 -0.1049926788 -0.4815831152 -0.0119508769 0.3332364604
-0.2263618281 0.8664496581 -0.3434947718 -0.4751498162 -0.0201507009 0.3419576043
-0.0693965725 0.1137294791 0.0523441445 -0.4822130408 -0.0032108995 0.3638520589
-0.3958459685 1.2641165585 -0.1813111927 -0.4592709881 -0.0042250388 0.3426395097
-0.1427661698 0.8564707465 -0.1351585000 -0.4832129507 -0.0104072926 0.3297602031
-0.4166795957 1.0179853995 -0.0755640554 -0.4999788122 -0.0004680066 0.3436935246
-0.4375132228 1.4701521311 0.1382676272 -0.4998511437 -0.0012798931 0.3445800371
-0.0920463920 0.3398736270 0.0315105173 -0.4939019348 -0.0007408854 0.3587363826
-0.0104901375 0.0520538383 0.2083975539 -0.4964001159 -0.0052761786 0.3494766687
0.2499964739 0.8591943266 -0.1909175573 -0.4649907979 0.0121606507 0.3433796868
-0.0162134683 0.0731225313 0.1015277757 -0.4608271350 0.0022159688 0.3372903718
-0.4222520701 1.1443159730 0.2932414380 -0.4999919374 -0.0005507161 0.3434642089
-0.2257177565 0.0677096842 -0.1358991147 -0.4678917971 0.0009549093 0.3288544820
0.1376253473 0.0010119934 -0.4855549004 -0.4649442139 0.0000000000 0.3500629478
-0.3814903077 1.1138154386 0.0783332819 -0.4583881423 0.0010778485 0.3434073122
-0.4283681772 1.2320262309 -0.2850518225 -0.4996078070 -0.0014321035 0.3430495780
-0.3663375523 0.8750123413 -0.1033511556 -0.4916317986 -0.0163144593 0.3431224749
-0.4345779314 0.0880295124 -0.2763105742 -0.4765010436 0.0107221304 0.3378030873
-0.1193609231 0.0820588449 -0.0575309468 -0.4671710786 0.0007881778 0.3289238371
0.0690430467 0.8333450870 0.1671519305 -0.4742915124 -0.0200215324 0.3464955016
0.0258377707 0.0603915601 0.3173811743 -0.4959876101 -0.0016198770 0.3501573033
0.3062053917 0.0965629661 0.0049797890 -0.4779606058 0.0125112598 0.3401181408
0.2342816898 0.8333450870 0.1243769730 -0.4790441836 -0.0208192936 0.3441805315
-0.0046662221 0.8750123413 0.0388998924 -0.4791804772 -0.0208336272 0.3440149250
-0.0833415609 0.2859408663 0.0353386963 -0.4938951847 -0.0008369701 0.3587296325
-0.3750123413 0.9625108046 0.1381016666 -0.4600702910 0.0062819219 0.3475707251
-0.3973720109 1.3631746014 -0.3434947718 -0.4761925392 0.0001773358 0.3254810594
-0.4373095325 1.4583539022 -0.2141998232 -0.4985708548 -0.0062846720 0.3457488452
0.2637556471 0.8471042602 0.3296286387 -0.4644488736 -0.0147316036 0.3440149250
0.2066134662 0.1052231299 0.0261514418 -0.4786811160 0.0106381917 0.3573650299
-0.4246416246 1.1196520834 -0.2920605255 -0.4995944318 -0.0027892268 0.3434417919
0.0581503722 0.8333450870 -0.0314998297 -0.4770329469 -0.0205040600 0.3434677506
0.0477798093 0.0763616395 -0.2673374477 -0.4609647619 0.0041064329 0.3496560045
-0.3750123413 0.9281327572 0.3369759715 -0.4583632044 0.0000000000 0.3446619341
-0.4006927660 0.9758268257 0.0489905139 -0.4850434766 0.0096945951 0.3343203299
0.0432448703 0.8750123413 0.2494679456 -0.4791804772 -0.0207872932 0.3448709162
0.0937610828 0.0902933777 0.4039578537 -0.4640399303 0.0132100822 0.3405293341
0.0110602081 0.8750123413 0.3504561616 -0.4791804772 -0.0190406436 0.3515908235
0.2164642510 0.8541787141 -0.1600524137 -0.4790572463 -0.0208284813 0.3436754410
-0.0423375867 0.6708813581 0.0523441445 -0.4791804772 0.0019088394 0.3645793817
-0.4147599853 1.1834389414 -0.0309903642 -0.4795427531 0.0008412410 0.3612886894
0.1011727499 0.8958460518 -0.0263301734 -0.4791804772 0.0207938766 0.3430594740
-0.3332915029 0.8750123413 0.0928414657 -0.4791804772 0.0208272313 0.3437560671
-0.3866152550 1.1205295541 0.2085909941 -0.4594051566 0.0035822589 0.3474586610
-0.3275837974 0.8541787141 -0.2671646952 -0.4791804772 -0.0208336272 0.3440149250
-0.0665649284 0.5367023822 0.0523441445 -0.4820365383 0.0000794386 0.3635071999
0.1769793607 0.8634577825 -0.2135885854 -0.4891700139 -0.0177195833 0.3442451990
-0.1098609141 0.8750123413 0.1294700657 -0.4791804772 -0.0208336272 0.3440149250
0.0111539177 0.0416672543 0.0107535371 -0.4823071046 -0.0191341657 0.3441676563
-0.0208406377 0.6332338479 -0.0011183179 -0.4583468500 0.0000000000 0.3440149250
0.2228744664 0.8541787141 -0.3107274971 -0.4789601408 -0.0208278563 0.3436341904
0.2024293863 0.8541787141 0.1588984182 -0.4786715325 -0.0207899391 0.3446816427
-0.3091638709 0.8541787141 0.2287956957 -0.4791804772 -0.0208336272 0.3440149250
-0.4166795957 1.1312715806 0.0103710734 -0.4986991275 0.0035806338 0.3464697304
-0.2486928722 0.8958459685 -0.0937702288 -0.4807834790 0.0206936669 0.3436377530
-0.4375132228 1.4386824998 -0.1043135442 -0.4998533313 -0.0005189657 0.3435450225
-0.0101453827 0.8771853095 -0.3434947718 -0.4791804772 -0.0155178855 0.3373069554
-0.4361115989 1.4621772270 -0.3249369684 -0.4999392908 0.0003723386 0.3431069538
-0.0833415609 0.0998633252 -0.0105399299 -0.4938708927 -0.0024337010 0.3294951993
-0.4166795957 1.0944124983 -0.0884395703 -0.4998926860 -0.0007844902 0.3427347611
-0.4230987904 1.2821136665 0.1982264729 -0.4975164441 -0.0072990821 0.3434353960
-0.3881176720 1.2531020073 0.3634343030 -0.4617658566 0.0010322646 0.3547375137
0.0436341467 0.0416672543 -0.3069091933 -0.4767884643 -0.0093641946 0.3446626216
-0.3826556158 1.1580730628 0.3153536249 -0.4602358558 0.0015455426 0.3479847310
0.2109672776 0.8541787141 0.1351796045 -0.4791405183 -0.0208313355 0.3438631937
0.2428155185 0.8750123413 -0.3124412296 -0.4790253500 0.0208227729 0.3435669811
-0.2065369234 0.8750123413 0.0508466859 -0.4738101931 -0.0198942389 0.3447627897
-0.4245270814 1.3679535230 -0.2322608488 -0.4881026030 0.0055663077 0.3507173528
-0.3828617020 1.0710773567 -0.0755726805 -0.4585684990 0.0021034047 0.3447525812
-0.2671739037 0.8541787141 -0.1340243591 -0.4771668446 -0.0206633956 0.3437187958
0.2291628467 0.8752479071 -0.2692408703 -0.4638803864 0.0133419382 0.3434529379
-0.3897786538 1.3049367800 0.3474724321 -0.4618503369 0.0013262270 0.3535349967
-0.0292639232 0.0912462870 -0.1354714628 -0.4970708337 0.0024307635 0.3385795150
-0.0386545764 0.8750123413 0.1372459462 -0.4791804772 -0.0208336272 0.3440149250
0.1245880801 0.0688331375 -0.4881611872 -0.4624209283 0.0012499551 0.3481818379
-0.3804695225 1.0933785462 0.0789122067 -0.4583881006 0.0010805777 0.3434275000
-0.0165850360 0.0959044985 -0.1753193582 -0.4968039758 0.0029879380 0.3384439922
-0.3774322921 1.0746147399 -0.0121640570 -0.4588037731 -0.0008676581 0.3469456121
-0.2430660428 0.8958459685 0.1793951865 -0.4805412464 0.0206595206 0.3440501130
-0.4281229862 1.2464846848 -0.3353876366 -0.4996737454 -0.0018041088 0.3423238178
-0.1563805285 0.8750123413 -0.3392326700 -0.4791804772 -0.0208336272 0.3440149250
-0.3958459685 1.3484458312 -0.2036122155 -0.4589945467 0.0043688741 0.3445734745
-0.4251177355 1.1603387198 0.1312375697 -0.4999129571 -0.0008215533 0.3437914218
0.2291628467 0.8363596087 -0.1188854164 -0.5000103335 0.0000000000 0.3439407572
-0.3750123413 0.9549335935 -0.1145602720 -0.4591142150 0.0044037496 0.3443230126
0.2050394648 0.8958459685 -0.1521295727 -0.4743729927 0.0200411368 0.3440626340
-0.0321642557 0.8750123413 0.3337009462 -0.4791804772 -0.0202838694 0.3462343729
-0.4112353522 1.0442649785 -0.1559921272 -0.4767057340 0.0000000000 0.3250225738
-0.4054428122 1.3635396899 -0.3165488709 -0.4587768977 0.0024650764 0.3412384691
0.0100567356 0.8750123413 0.1169711602 -0.4791804772 -0.0208336272 0.3440149250
-0.3875593516 1.2132058404 -0.0864242502 -0.4586610003 0.0015390425 0.3420083342
0.2291628467 0.8498388821 -0.0672385213 -0.5000084585 0.0000000000 0.3438059637
-0.4253783850 1.2271223700 -0.1053999345 -0.4996558701 -0.0013504357 0.3412063645
-0.3847443952 0.8958459685 -0.3192350130 -0.4931284656 -0.0139781763 0.3432506850
0.0509387914 0.0416672543 -0.3492708533 -0.4827941740 -0.0092434012 0.3425261540
-0.2191673724 0.8696003275 -0.2844641684 -0.4748330617 -0.0201822222 0.3416857463
-0.0041934237 0.0747370124 0.0315105173 -0.4803645147 -0.0015090630 0.3625629574
-0.3890264348 1.1325854533 0.0311140534 -0.4597526407 0.0043251235 0.3425992800
-0.1960557756 0.8958459685 -0.1902725066 -0.4791804772 0.0207488968 0.3427289693
-0.3958459685 1.3535757161 0.1892841593 -0.4611300143 0.0050780716 0.3509336892
0.0833274565 0.8381490506 0.1412807322 -0.4732994359 -0.0195764844 0.3455105711
0.1708217530 0.8708525952 0.1562416307 -0.4882500218 -0.0185520950 0.3443750759
0.1437570172 0.8958459685 -0.1138772832 -0.4791804772 0.0206474579 0.3449315212
0.1160503139 0.0088057492 -0.4506443664 -0.4760277869 0.0000000000 0.3613736698
-0.4156867275 0.9854533573 0.1773459076 -0.4787471586 0.0126877831 0.3567942510
-0.3058285947 0.8783537426 0.0125589792 -0.4879546843 0.0185905539 0.3457330117
-0.1281706098 0.8958459685 -0.1758546574 -0.4803860984 0.0207079379 0.3441468227
-0.4375132228 1.4972538675 0.2466705520 -0.4997777677 0.0017987754 0.3440035290
-0.4369125060 1.3681882972 -0.0241592678 -0.4991325086 0.0014117699 0.3466672332
-0.3235720116 0.0716757609 0.1876888034 -0.4912832521 0.0015369800 0.3279278439
0.2533668756 0.8367154887 0.0925293988 -0.4644488736 -0.0147316036 0.3440149250
-0.3750123413 0.9840398374 -0.0980634560 -0.4610700134 0.0040971620 0.3393256713
-0.1673854129 0.8333450870 -0.1119121722 -0.4800168848 -0.0207261673 0.3427533030
-0.3958459685 0.9162262768 0.0846149538 -0.4999111237 -0.0002026487 0.3447304351
-0.3565776646 0.8982448982 0.2789177360 -0.4644514986 0.0147289786 0.3443443463
0.0864980012 0.8958459685 0.0499407148 -0.4791804772 0.0208016267 0.3432457683
-0.1041751881 0.6158581028 0.0026823607 -0.5000141044 0.0000000000 0.3440149250
-0.0370410537 0.6526845181 0.0477108708 -0.4645329998 0.0008551787 0.3586624024
-0.0208406794 0.7818066101 -0.0061974312 -0.4583468500 0.0000000000 0.3440149250
-0.4241437009 1.2435411433 -0.1191653578 -0.4996494951 -0.0013517899 0.3408606513
-0.2100831193 0.8958459685 0.1660956656 -0.4791804772 0.0208336272 0.3440149250
-0.3867066104 0.9583468500 -0.2005136510 -0.4729338474 0.0182032359 0.3445747037
-0.1965787830 0.8958459685 0.3351279871 -0.4791804772 0.0208336272 0.3440149250
-0.4018390114 0.9617820235 0.2606804163 -0.4762298939 0.0079841751 0.3290957979
-0.4166795957 1.5147038220 0.2637153341 -0.4596685353 0.0057471019 0.3437796300
0.1579217378 0.8958460518 0.2100327019 -0.4791804772 0.0204494968 0.3474843072
0.0346594993 0.8750122580 -0.0953041671 -0.4791804772 -0.0208336272 0.3440149250
-0.0208406794 0.2824176708 -0.0021107485 -0.4583468500 0.0000000000 0.3440149250
-0.1041751881 0.3986145388 0.0062188690 -0.5000141044 0.0000000000 0.3440149250
-0.3958459685 0.9195087814 0.2428870403 -0.4997123501 -0.0012647887 0.3441718438
-0.3750123413 0.9303413300 -0.0664492601 -0.4583532043 0.0000000000 0.3437618172
-0.3908345436 0.8958459685 -0.1569139527 -0.4887049240 -0.0184101763 0.3438871940
-0.3958459685 1.3794090596 -0.0521290165 -0.4584082467 0.0011022239 0.3440525297
-0.3860207674 1.1057518457 -0.0570691487 -0.4585499987 0.0017560873 0.3453765900
-0.2281448740 0.8651114725 -0.2205145164 -0.4752038378 -0.0203017863 0.3423511723
-0.0814352215 0.8750123413 -0.1140546607 -0.4791804772 -0.0208336272 0.3440149250
-0.4016527796 1.4412212231 -0.1032197371 -0.4585202066 0.0019492150 0.3436806702
-0.3980208325 1.4262262199 -0.0527389834 -0.4586893548 0.0006173629 0.3469780293
0.0659055650 0.8958459685 -0.0995413519 -0.4777497695 0.0206898960 0.3432253305
-0.0980749145 0.0172332222 -0.0101567370 -0.4834568500 -0.0015098755 0.3250235738
0.0428515940 0.8958459685 0.2482970541 -0.4733053527 0.0199101350 0.3444908483
0.1929040437 0.8541787141 -0.2219235780 -0.4790302459 -0.0207903766 0.3435082303
0.2499964739 0.8553865645 -0.0779372347 -0.4655104094 0.0139838222 0.3433780201
0.1213456594 0.8750123413 0.1496081622 -0.4782907771 -0.0204576635 0.3435514601
-0.3521965195 0.8541787141 0.2902706669 -0.4876013251 -0.0185439074 0.3468881738
-0.0389063092 0.9166795957 0.0981651866 -0.4832477429 0.0202765360 0.3441566145
-0.4039685206 1.4349372178 0.0726593269 -0.4648542960 -0.0044868966 0.3429264513
-0.1115950010 0.8333450870 -0.1156134744 -0.4795238779 -0.0207166880 0.3425900090
0.2686300284 0.8541787141 0.2706962867 -0.4781446917 0.0205715401 0.3442076985
0.2173298048 0.8541787141 -0.2048985878 -0.4790441419 -0.0208280646 0.3436473781
-0.2133739782 0.8958459685 0.3367124470 -0.4791804772 0.0208336272 0.3440149250
-0.4166795957 1.1219926789 0.2309739139 -0.4996185571 0.0031123147 0.3435575227
-0.0244882516 0.5897560264 -0.0138043093 -0.4644935409 -0.0001212100 0.3293279886
-0.1621516099 0.8750123413 0.2467657617 -0.4791804772 -0.0208336272 0.3440149250
-0.4323530251 1.2978093879 0.0893005408 -0.4998738941 -0.0009794305 0.3422821089
-0.2178107908 0.0416672543 0.1173673533 -0.4822186242 -0.0059168543 0.3389996042
0.0957201105 0.0256706329 -0.5188682661 -0.4803201808 -0.0117383114 0.3414982020
0.0479851455 0.0416672543 -0.3740518903 -0.4961016742 -0.0095534056 0.3382508437
0.0233176935 0.0432524850 0.3098209635 -0.4949495538 -0.0113499101 0.3494992523
0.1731027019 0.8557712158 -0.3212001657 -0.4839620655 -0.0191471867 0.3443540756
0.0775471458 0.0453582231 -0.3529183214 -0.4632440024 -0.0100352457 0.3488134093
-0.1569689535 0.0916080004 -0.0435748750 -0.4898708155 0.0033677350 0.3593917460
-0.0630941711 0.9095396616 0.0779615267 -0.4847279513 0.0200581371 0.3442437615
-0.3647147586 0.8804900019 -0.3434947718 -0.4940213115 -0.0077941724 0.3428267832
0.0098500243 0.0944951244 0.2694180812 -0.4969665614 0.0060911067 0.3505324961
-0.3817036232 1.0248724550 -0.3434947718 -0.4619534217 0.0010562857 0.3364540892
0.0895464192 0.0000000000 0.4953107464 -0.4791804772 -0.0208336272 0.3440149250
0.0326632628 0.9003444278 -0.3432005593 -0.4750737526 0.0203647872 0.3432636019
-0.2480040500 0.0421464903 0.1320071639 -0.4906905145 -0.0062701093 0.3279220522
-0.2038868236 0.8958459685 0.2512180536 -0.4791804772 0.0208336272 0.3440149250
-0.3053285043 0.8786037670 0.3307760299 -0.4878156823 0.0183905511 0.3483034021
-0.1394859986 0.8920534775 0.3648485521 -0.4832767016 0.0127503048 0.3487954091
-0.0215205431 0.1168527523 0.0321903811 -0.4644779157 -0.0012188089 0.3587174865
0.0526879410 0.0918325452 0.2910067815 -0.4627843084 0.0069369103 0.3389460618
-0.4026956068 1.2440180667 0.1921799293 -0.4720733145 -0.0041670171 0.3476901643
-0.4175997336 1.0721734554 -0.0355910332 -0.4999451867 -0.0007439688 0.3450976694
-0.0430941391 0.9162062557 -0.1850879543 -0.4828084867 0.0204643720 0.3435853772
-0.4149932177 0.9583468500 0.2057961422 -0.4802726801 0.0132585412 0.3552502293
-0.3186921095 0.8541787141 0.1574170848 -0.4791804772 -0.0208336272 0.3440149250
-0.4368367341 1.5128698794 0.3440149250 -0.4985219583 0.0000000000 0.3470811349
-0.4135055717 1.2075025517 0.0731777509 -0.4783561322 0.0001648773 0.3239192249
-0.2673866150 0.8958459685 0.2246348454 -0.4845303026 0.0198106336 0.3463291243
-0.2587563891 0.8541787141 0.1713952195 -0.4769355289 -0.0206690832 0.3442220945
-0.4375132228 1.4742846269 0.0676059639 -0.4997477256 -0.0008005113 0.3451137321
-0.3750123413 0.8927347996 -0.3327773915 -0.4972060231 -0.0101107676 0.3429194928
0.2137530877 0.8930577000 0.2700462775 -0.4684079503 0.0175542059 0.3443490547
-0.2195085231 0.8958459685 0.2413277683 -0.4791804772 0.0208336272 0.3440149250
-0.4254061562 0.0416672543 -0.2417447950 -0.4904979493 -0.0091532124 0.3584363575
-0.0281157195 0.9105198838 -0.3434947718 -0.4809372520 0.0205480815 0.3432286430
-0.1138450328 0.8333450870 0.0870038625 -0.4792261445 -0.0206272284 0.3449349171
0.2414159154 0.8750123413 -0.2016453961 -0.4788444516 0.0208142519 0.3439065484
-0.0094251225 0.0886269792 -0.1978220297 -0.4968367679 0.0014337077 0.3383807413
-0.0604159459 0.8363485668 -0.1351585000 -0.4800900734 -0.0188124320 0.3399420342
-0.3246620895 0.8750123413 -0.0573676945 -0.4791804772 0.0208312938 0.3440777175
-0.0876192045 0.8972448632 0.1242854717 -0.4835384137 0.0203295367 0.3443123875
-0.4296512161 1.3329919674 0.1536549901 -0.4998161016 -0.0019076727 0.3447770607
-0.0647694864 0.8050745216 0.0523441654 -0.4809310644 0.0035851547 0.3635991803
-0.3172356514 0.0960617924 -0.1616661239 -0.4901681947 0.0091029826 0.3576716384
0.0713060578 0.0882852660 -0.4348717273 -0.4894713307 0.0128406394 0.3387243503
-0.0519168260 0.1200876312 0.0841174260 -0.4980300139 0.0060977735 0.3498758618
-0.3853530913 1.1172577788 0.3021955435 -0.4594365321 0.0022247814 0.3415152855
-0.1477120521 0.0947877327 0.0581077466 -0.4909476848 0.0015982934 0.3275102338
-0.4338061289 0.0881107636 -0.2566757764 -0.4860418865 0.0115816842 0.3505142458
-0.1511063500 0.8958459685 -0.1449044708 -0.4791804772 0.0204132879 0.3412293232
-0.3750123413 0.8775494604 0.2304949280 -0.4943764624 -0.0140628858 0.3443199293
0.0138854771 0.8333451703 -0.0657404376 -0.4784143414 -0.0206847709 0.3428654712
-0.4166795957 1.0819226138 -0.1402330300 -0.4988272543 -0.0006707178 0.3381725926
-0.0462568503 0.8750123413 0.0716033328 -0.4791804772 -0.0208336272 0.3440149250
0.0607133667 0.0774033209 0.3130766344 -0.4619908181 -0.0000607717 0.3383400949
-0.1952783897 0.8750123413 0.3289820671 -0.4753267562 -0.0200204490 0.3467981517
-0.3302578559 0.0458200213 -0.1712614676 -0.4906891812 -0.0068550967 0.3592434731
-0.4166795957 0.9671109320 -0.1340628388 -0.4940387909 0.0075220019 0.3360383958
-0.3914602400 1.1344841676 0.3648485521 -0.4682499689 -0.0001484813 0.3541730891
-0.4299165949 1.2472143409 -0.2464978204 -0.4998458312 -0.0011490787 0.3455935514
-0.3998369831 1.4382690773 0.0975256984 -0.4585061231 0.0004967778 0.3452987139
-0.4198020564 1.5416884109 0.2320775545 -0.4662122526 0.0080829057 0.3436813578
-0.1031409860 0.8750123413 -0.3035276248 -0.4791804772 -0.0208336272 0.3440149250
0.2198229858 0.8541787141 -0.1012450009 -0.4790063706 -0.0208300646 0.3437802758
-0.4166795957 0.9396146691 -0.1273171603 -0.4987269195 -0.0041455168 0.3445378490
-0.3768429505 1.0169878438 0.3174615713 -0.4592709672 0.0013077684 0.3464703763
-0.4275990413 1.3126108674 -0.0489468049 -0.4998337060 -0.0015854182 0.3450971694
-0.4207139026 1.0460552954 -0.2903440846 -0.4995587229 -0.0027833934 0.3439122777
-0.0522944147 0.8892243543 -0.3434947718 -0.4791804772 0.0075055017 0.3385436186
0.4631065838 0.0416672543 -0.0076427849 -0.4791804772 0.0208336272 0.3440149250
-0.1219824392 0.8958459685 -0.1302288472 -0.4809035015 0.0206470204 0.3441660104
-0.3750123413 0.9914704214 0.1322379589 -0.4590042551 0.0021691973 0.3469740292
-0.4280980901 1.2718702720 0.1202534148 -0.4998737482 -0.0006020710 0.3462879154
0.2441642041 0.8750123413 -0.0212822898 -0.4786272819 0.0207990850 0.3443796176
-0.3958459685 1.2818168290 -0.1895760801 -0.4591216943 -0.0021756349 0.3436074609
0.0078902467 0.9127309358 -0.1371394655 -0.4729153680 0.0198411965 0.3440449254
-0.4375132228 1.4944497030 -0.0239065768 -0.4997452464 0.0004444854 0.3446408713
0.2165773567 0.8541787141 -0.1192960472 -0.4790555379 -0.0208290854 0.3437145666
0.2141136553 0.8541787141 0.2859732105 -0.4791538310 -0.0208244812 0.3445660369
-0.4166795957 1.0920324230 0.2291779094 -0.4995235141 -0.0000238962 0.3440149250
-0.3750123413 0.9775639752 0.2884522038 -0.4608325934 0.0050665090 0.3404113741
-0.0149849509 0.0493780714 -0.1803482832 -0.4976428209 -0.0058284989 0.3384899720
0.2499964739 0.8604757613 0.0757359536 -0.4607702175 0.0074075420 0.3436535240
-0.3224979340 0.0699769453 0.2077310028 -0.4673300601 -0.0015076463 0.3603130298
-0.0209404933 0.0416672543 -0.1269515093 -0.4913754409 -0.0126935957 0.3418007062
-0.4291538966 1.3152481338 0.3155605028 -0.4999907915 0.0000114793 0.3440264043
-0.1041751881 0.3722415002 0.0128032743 -0.4997820594 -0.0001894402 0.3449621050
0.0053025227 0.8750123413 -0.2642401748 -0.4791804772 -0.0202532232 0.3404687083
-0.3878875437 0.8958459685 0.1576110876 -0.4915216929 -0.0155893032 0.3444510769
0.2499964739 0.8724238673 -0.2790174874 -0.4591429446 0.0016899405 0.3436585658
-0.4339479642 1.4772075223 0.3648485521 -0.4939713316 0.0006844263 0.3431265374
-0.4166795957 1.1458539530 -0.0074726158 -0.4995345559 0.0022256772 0.3441871774
-0.2456345582 0.8563667033 0.0649883645 -0.4761284341 -0.0205628942 0.3439133819
0.0750819027 0.0658619081 0.4651136538 -0.4950528052 -0.0000006875 0.3508648341
0.1542507068 0.8958459685 0.1747580377 -0.4791804772 0.0204902265 0.3471659486
-0.1965196988 0.8958459685 -0.0192820949 -0.4791804772 0.0208161269 0.3437492129
0.0958363829 0.0000000000 -0.4618860458 -0.4727583241 -0.0123197779 0.3445884122
-0.0427655303 0.0000000000 -0.0127820865 -0.4791804772 -0.0040858076 0.3325132002
-0.0298815985 0.0554419903 -0.0440607777 -0.4607137376 -0.0035650711 0.3509718564
-0.0735409852 0.0761286154 0.0523441654 -0.4840375040 -0.0033715684 0.3634047193
-0.4166795957 1.5258835838 0.0304464815 -0.4592062788 0.0047348168 0.3434302709
-0.2110895918 0.8958459685 0.0732955442 -0.4791804772 0.0208336272 0.3440149250
-0.0222918248 0.4374121485 -0.0116078825 -0.4644874366 -0.0012772680 0.3293218844
-0.4481429978 0.0784012725 -0.2581241719 -0.4906624516 0.0077749847 0.3569065651
0.1790090352 0.8958459685 0.3313475171 -0.4791804772 0.0208231895 0.3444553270
0.1060593188 0.0017056074 0.4544948582 -0.4771492402 0.0000000000 0.3265630955
0.0363105225 0.0626081955 -0.2343631284 -0.4609343032 0.0013432481 0.3498721742
-0.0483787344 0.0715473216 -0.0753965322 -0.4977078843 -0.0008002405 0.3388007681
0.2807528244 0.0479847810 -0.0101567370 -0.4788836397 -0.0078783403 0.3258516896
0.0426564871 0.1185948185 0.0315105382 -0.4796262335 0.0094030285 0.3624536017
-0.0208406377 0.8222533889 0.0290999833 -0.4583468500 0.0000000000 0.3440149250
-0.0396033398 0.9166795957 -0.2958861628 -0.4818567649 0.0205964363 0.3433112067
-0.0945804069 0.0736855809 -0.0392715851 -0.4669304711 -0.0013670818 0.3289874213
-0.4066937673 1.4118724341 0.2860248571 -0.4595432627 0.0025425984 0.3487793880
-0.4166795957 1.5019849551 0.0103035516 -0.4586187080 0.0019566109 0.3435173138
-0.4166795957 1.1531448058 -0.1211078227 -0.4998259350 -0.0008845750 0.3417300594
-0.4148792369 1.4451324449 0.3612478555 -0.4656992662 0.0040933494 0.3331838764
0.0853350473 0.0471112686 0.0315105173 -0.4800603646 -0.0070648080 0.3620677837
-0.4048759917 1.4481759878 -0.0264310915 -0.4615598537 0.0086376010 0.3506425601
-0.4202916258 1.0686428223 0.1226305942 -0.4998922485 -0.0008697831 0.3433810410
0.1076017572 0.8958459685 0.3541299218 -0.4791804772 0.0208325438 0.3439887371
-0.1033401554 0.8958460518 0.2065587154 -0.4813430702 0.0206471037 0.3444601604
-0.0793282751 0.4645401561 -0.0309903642 -0.4904241983 -0.0007883028 0.3277395079
-0.0495876890 0.1067193385 0.0394238790 -0.4755584678 0.0049439447 0.3417266844
-0.3740677030 0.8750123413 -0.2761059255 -0.4936395353 -0.0148797307 0.3428750339
-0.4283510520 1.2033046591 -0.2701054034 -0.4997283503 -0.0019830696 0.3443684508
-0.3814923910 1.0736747266 0.2805275087 -0.4605202140 -0.0029825837 0.3378589840
-0.0088242182 0.8442180737 0.1773459076 -0.4749780221 -0.0172118053 0.3502210750
-0.0661515059 0.8568705854 0.1773459076 -0.4745380159 -0.0141254492 0.3542841948
-0.1667060283 0.8958459685 -0.1631873537 -0.4791804772 0.0207246673 0.3432928523
0.0645736712 0.1175744291 0.0018708076 -0.4796272543 0.0112893467 0.3368297820
-0.4227148683 1.1146844092 0.1282360691 -0.4999042903 -0.0008401785 0.3436368363
0.2291628467 0.8376001262 -0.3080603345 -0.5000101668 0.0000000000 0.3436443989
-0.3934452680 1.3414627744 -0.3434947718 -0.4752527760 0.0002331075 0.3295470334
-0.4120801766 1.4749966994 -0.2662545365 -0.4585973536 0.0025578694 0.3432731645
-0.4016284667 1.4664327453 0.0617271310 -0.4585802491 -0.0006936556 0.3443384504
-0.3823940704 0.0416672543 0.2437015726 -0.4766524207 -0.0058179154 0.3476935185
-0.1349221217 0.0549621294 0.0486836137 -0.4905806588 -0.0032426291 0.3274485038
-0.4288376630 1.3320044118 0.1346513679 -0.4997567882 -0.0021626347 0.3445073902
0.2374944226 0.0598466774 -0.0101567370 -0.4790714132 -0.0049304029 0.3260015876
0.0017679104 0.8750123413 -0.0918889731 -0.4791804772 -0.0208336272 0.3440149250
0.4920014289 0.0256701329 0.0259508764 -0.4648749004 -0.0114311404 0.3420808768
-0.0410558395 0.0931249384 0.0332112705 -0.4611379102 0.0059986471 0.3371074734
-0.4249796294 1.2915178408 -0.1696719868 -0.4984470823 -0.0036022800 0.3419527709
0.1642291809 0.0665240008 -0.0101567370 -0.4793691882 -0.0026079743 0.3257920846
0.0580194537 0.0416672543 0.4121304898 -0.4934996167 -0.0132394576 0.3496272958
0.1100395833 0.8939756296 -0.3434947718 -0.4791804772 0.0170246776 0.3420237302
-0.3586016515 0.9002690100 -0.3219198217 -0.4644501028 0.0147303744 0.3437721090
-0.0297151795 0.8333450870 0.0793260876 -0.4775185371 -0.0204511843 0.3449784802
0.0651820339 0.8750123413 -0.2382482874 -0.4791804772 -0.0207540219 0.3427362611
-0.4112351439 1.2500176305 -0.2012679741 -0.4883150227 -0.0076298993 0.3471597818
-0.4166795957 1.1033828956 0.2417753371 -0.4997139126 0.0019782154 0.3434194791
-0.4166795957 1.4705778038 -0.0291887346 -0.4603048360 -0.0049099651 0.3449115001
0.0151185153 0.1218748856 0.0097334602 -0.4798806537 0.0106416501 0.3437516296
-0.1667259036 0.8958459685 -0.2627843001 -0.4791804772 0.0205294771 0.3419992507
-0.4166795957 1.1337730326 -0.0290600245 -0.4987003775 -0.0011986002 0.3474745779
-0.4344115541 1.4435111929 0.3345122701 -0.4999874373 0.0005092780 0.3445242030
0.0522296429 0.8750123413 -0.1078878029 -0.4791804772 -0.0208336272 0.3440149250
-0.3958459685 0.9191451929 -0.2637966269 -0.4997458714 -0.0011022447 0.3435134596
-0.4166795957 1.5245520650 -0.1188543326 -0.4587234595 0.0031684405 0.3432466850
-0.4008217678 1.2077093462 0.3648485521 -0.4743615967 -0.0007947820 0.3556602767
-0.3944023440 1.2489975119 0.3039904646 -0.4585446236 0.0020853419 0.3454060904
0.2349516575 0.8750123413 0.3088838878 -0.4793001455 0.0208031476 0.3439541116
-0.4353189836 1.4780554926 -0.2790663214 -0.4999304157 0.0000041459 0.3437186708
0.2496547399 0.8746706073 -0.3326397437 -0.4659151651 -0.0134048141 0.3378055874
-0.3766513436 1.0707099556 -0.2033872749 -0.4604248377 -0.0069974320 0.3449776677
-0.0829557221 0.8750123413 0.0080970830 -0.4791804772 -0.0208336272 0.3440149250
0.1366199165 0.8958459685 -0.2290197405 -0.4791804772 0.0207288757 0.3442393240
-0.0509491248 0.8792272341 0.3648485521 -0.4804378491 -0.0107459641 0.3524770026
-0.4209521143 1.4489618322 0.2606804163 -0.4742755122 0.0004152559 0.3257313546
0.0484068598 0.8750123413 0.1321349157 -0.4791804772 -0.0208336272 0.3440149250
-0.4166795957 1.1508366483 -0.2388765046 -0.4992174473 0.0003774637 0.3468000059
0.1355395263 0.8958459685 -0.1340347759 -0.4791804772 0.0207098546 0.3451506493
-0.3958459685 0.9026057930 0.1929937741 -0.4985124374 -0.0062918179 0.3443121375
-0.1041751881 0.6388502396 -0.0069736088 -0.5000141044 0.0000000000 0.3440149250
0.5000000000 0.0406441566 -0.0044169685 -0.4926848135 -0.0089058964 0.3502555546
-0.0817704346 0.3024717869 -0.0309903642 -0.4935498257 -0.0013889988 0.3299485599
-0.0211178083 0.7422873860 0.0317876671 -0.4645144162 0.0015968975 0.3586809860
0.2084794300 0.8541787141 0.3374804578 -0.4791782063 -0.0208335647 0.3440111957
-0.4023043513 0.0451145946 0.2457021217 -0.4910801034 -0.0061516493 0.3284662682
-0.3847809999 1.1875675413 0.3440397378 -0.4609554285 0.0011989961 0.3516745538
-0.0077179318 0.1129136967 -0.1635655674 -0.4858776967 0.0095732392 0.3418596654
0.0051762709 0.9140879549 -0.0420527910 -0.4735456894 0.0199986362 0.3440606548
-0.3956654659 1.2266570510 -0.3241982496 -0.4588883993 0.0021011546 0.3402919766
-0.4166795957 1.0512480353 -0.0297569718 -0.4949557622 -0.0091387122 0.3531173450
0.0742333282 0.0005429868 0.5039637851 -0.4675002916 -0.0046693784 0.3306622158
0.0865473353 0.0416672543 -0.0092785579 -0.4797502144 -0.0071563093 0.3253177446
-0.2351462853 0.8596193534 0.3290014424 -0.4747749151 -0.0198367381 0.3468497566
-0.4328408653 1.3525457432 0.3501808036 -0.4998239767 -0.0009729304 0.3442131153
-0.2250724349 0.8333450870 -0.0687397508 -0.4805261837 -0.0207288132 0.3433566657
