-0.0921830651 1.2570946317 0.1578044631 -0.5081673677 -0.0127706736 0.6309398002
-0.2698091678 0.0118436275 -0.5577200435 -0.5000000000 0.0000000000 0.6346469461
-0.1538289770 1.2279559903 0.0974260374 -0.5375207506 -0.0002485508 0.5981940179
0.2142264421 0.6989825302 -0.2287557993 -0.5109862771 0.0367319036 0.5937700286
0.4134982367 0.4263674728 0.0376460260 -0.5000000000 0.0123638456 0.6324760689
-0.1185265675 0.7308055743 -0.0865026480 -0.4860633069 0.0352489453 0.5951298655
-0.1656801817 0.7308055743 -0.2646000434 -0.5000000000 -0.0384634513 0.5961834948
-0.2692192923 0.1166017602 0.1397885287 -0.4940259721 0.0000000000 0.5961834948
0.4231228307 0.9722248880 0.0783079712 -0.5363546926 -0.0028432952 0.6018700853
0.2063980913 0.7726782720 0.0961586282 -0.4991731127 0.0000000000 0.6345451333
0.0467498826 0.6923421230 -0.1876852568 -0.5000000000 -0.0384634513 0.5961834948
0.0505459945 0.7700857970 0.0961586282 -0.5000000000 0.0002582821 0.5577619687
-0.2444518299 0.4214635751 -0.4431468842 -0.5000000000 0.0161546495 0.5612952598
0.1660892405 0.6985089682 -0.0252753723 -0.5072319366 0.0370661126 0.5908033042
-0.2692192923 0.0035138286 -0.5749955565 -0.4615365487 0.0000000000 0.5961834948
0.2692690256 0.7806175899 0.0891011618 -0.4960780742 -0.0028811817 0.6332237599
0.2947398692 0.8135858449 0.0576951769 -0.5083924943 0.0013244505 0.5589697595
-0.1572263767 1.1487880532 0.0936008471 -0.4894817461 0.0056870905 0.5597099117
-0.0021789737 0.6774257658 -0.3269393359 -0.5000000000 0.0000000000 0.6346469461
0.1115127187 0.8728078285 0.1227704901 -0.5052901477 0.0102720493 0.5602170908
-0.1255521861 1.1823065278 0.1244353806 -0.5143876770 -0.0065269784 0.6309510700
0.3846593794 0.6367423580 -0.0837515881 -0.4662657839 0.0000000000 0.5961834948
0.1717424832 1.2484340856 0.1728254024 -0.5113960283 0.0163720065 0.5640279726
-0.2325109283 0.7976946315 0.0192317256 -0.5356570040 0.0117699699 0.5997983669
0.2414291411 1.3077573435 0.2115441741 -0.5000000000 -0.0172307415 0.5961834948
0.2692690256 0.8028256559 0.0904140348 -0.4909093556 -0.0023452320 0.6327623908
0.3605001395 0.9231027143 0.0576951769 -0.5000000000 0.0000000000 0.5577200435
-0.1946885859 1.1071691373 0.0805805073 -0.5000000000 -0.0110152401 0.6330074415
-0.0321249245 0.8944952532 0.1279430550 -0.5123169971 0.0026154378 0.6321921317
-0.2469429153 0.7640751904 -0.0689782765 -0.5170983503 0.0318315445 0.5899142984
0.2418182758 0.7033548245 0.0147873123 -0.4883410356 -0.0330721062 0.6116292245
-0.2259981814 1.0674991260 0.0576951769 -0.5033369736 0.0022678436 0.5593797799
0.3079605651 0.6772907976 -0.4614473327 -0.4805434940 -0.0221207539 0.5737683032
0.2866330045 0.7185751968 -0.1434912513 -0.5136210235 0.0347150341 0.6050433585
0.2301828510 0.7112624870 -0.1992209459 -0.5123427677 0.0356881210 0.5980138166
-0.0173736525 1.0577454871 0.1259228007 -0.5060300691 -0.0066474844 0.6334256161
-0.1070441888 1.1621064078 0.1085813614 -0.4889305264 0.0102866654 0.5608880088
-0.2307558411 0.7621912505 -0.1951977073 -0.4615365487 0.0000000000 0.5961834948
0.2408542663 1.3077573435 0.1958114686 -0.5000000000 0.0384634513 0.5961834948
0.0122085110 0.7034953700 -0.0212184014 -0.4923247722 0.0366867091 0.5885082670
0.3578749705 1.2052528612 0.0961586282 -0.4998180679 -0.0001819321 0.6345893278
-0.1922923898 1.1365419057 0.0899855135 -0.4738827781 0.0000000000 0.5961834948
-0.2077733135 0.6283792498 -0.3524387578 -0.5000000000 0.0205706384 0.5642091739
0.2899760938 0.7130491913 -0.2234371886 -0.4824880522 -0.0342120091 0.5961834948
-0.2157330555 0.7308055743 -0.3393848009 -0.5172218949 -0.0330093724 0.6007502989
-0.2763299152 0.0000000000 -0.4075502293 -0.5000000000 0.0384634513 0.5961834948
0.4040863840 0.7502325789 -0.3179763901 -0.4797224147 -0.0318187747 0.6024072659
-0.1538289385 1.2088426167 0.1145615049 -0.5276678375 -0.0036091026 0.6183937532
0.0875152945 0.9513216561 0.1346220795 -0.4988609049 0.0005695668 0.6344910922
0.2403721270 0.6538786717 -0.4628047849 -0.5058500217 0.0020104461 0.6204980886
-0.0575009942 0.6538786717 -0.4748835779 -0.5056083558 -0.0319923218 0.5919497073
0.0758919088 0.7267884899 0.0566353165 -0.5002039717 -0.0264241602 0.6159942493
0.1084962610 1.0362565338 0.1334937157 -0.5038678462 0.0125075451 0.5603903686
-0.1579308348 0.7640735749 0.0099343787 -0.4848465541 0.0305732127 0.5792736923
-0.2096355215 0.7640783444 -0.2603937573 -0.4830713120 0.0332189597 0.5886181955
0.0421511154 0.8528867224 0.1346220795 -0.5068807268 -0.0104843291 0.6322788283
0.2610226155 0.6923421230 -0.2519197974 -0.4872372884 -0.0356276564 0.5961834948
-0.0842595557 0.7308055743 -0.0559188963 -0.4894276665 0.0352976400 0.5856111614
-0.0728392570 1.2806657654 0.1366534497 -0.4886926300 0.0054954656 0.5613379542
-0.1021743697 0.7308055743 -0.2037189388 -0.4935938353 0.0368034456 0.5961834948
0.2421280989 1.2467883884 0.1346220795 -0.5037598408 0.0018799012 0.5586172035
0.3556216276 1.0539753765 0.0846579793 -0.4845434236 -0.0095728222 0.6299385966
0.0438349684 0.6923421230 -0.0142292076 -0.4942652917 0.0373432033 0.5904487865
0.3951640941 1.0627332352 0.0576951769 -0.4878499727 0.0031402331 0.5633260531
-0.2307558411 0.5238520516 -0.0102936658 -0.5298799475 0.0060231842 0.5961834948
-0.1538289385 0.9154819892 0.0595646160 -0.5279211962 0.0020421016 0.6220625895
-0.0550462952 0.9788932580 0.1048120585 -0.5076618426 -0.0043577552 0.6335822778
0.1087887755 0.7135659477 0.0576951769 -0.5000000000 0.0084272268 0.6290324746
0.1488448445 1.1269045418 0.1346220795 -0.5020658335 0.0037939579 0.5580208277
0.0716211964 1.0914508172 0.1346220795 -0.4995628629 0.0008323875 0.5578051632
-0.0502439025 0.7308055743 -0.0094803561 -0.4916290837 0.0358637451 0.5878125785
0.1939187014 0.6849187923 -0.3269393359 -0.5000000000 0.0000000000 0.6346469461
0.2205112547 1.2998366034 0.1449164376 -0.5129083727 0.0124975061 0.5657680592
0.1124963061 0.6923421230 -0.3551315840 -0.5000000000 0.0384634513 0.5961834948
0.2792471372 1.1376979632 0.0961586667 -0.5087149719 0.0087149719 0.5606279958
-0.0427886471 0.6966921855 -0.0085465019 -0.5100635005 -0.0356956213 0.6048683113
-0.2603268886 0.3461710615 -0.4682640179 -0.5190992960 0.0108748100 0.5961834948
-0.1971290534 0.7865764247 -0.0019242880 -0.4966670266 0.0283784497 0.5711379801
0.1866118765 0.8665609024 0.0961586282 -0.5061197274 0.0039237336 0.5588679468
0.0091644750 1.0523536805 0.1346220795 -0.5062517724 -0.0046430001 0.6335374678
-0.0945740686 0.7100141557 -0.2934157841 -0.5172962832 -0.0343527084 0.5961834948
0.1323369466 1.2028709735 0.1537203754 -0.5017550873 -0.0126632067 0.6321888239
0.1308639887 1.3077573435 0.1754719956 -0.5000000000 0.0384634513 0.5961834948
-0.0353057366 0.6898931935 -0.3269393359 -0.5000000000 0.0000000000 0.6346469461
0.3461959281 1.2764579408 0.1725174256 -0.4935825655 -0.0188057045 0.6208385286
0.4375454325 0.2915093431 -0.4787708096 -0.5000000000 -0.0193772329 0.6293235660
0.2453398356 0.7156617058 -0.0728390454 -0.5067564899 0.0362099161 0.5854036895
-0.1345008234 0.7545861800 0.0238769567 -0.4860068426 0.0284137207 0.5773659821
0.0675600714 0.6923421230 -0.2692540441 -0.5000000000 0.0384634513 0.5961834948
0.2307484176 0.6630748214 -0.0961586282 -0.5000000000 0.0000000000 0.6346469461
0.0708576200 0.8368501941 0.1285279303 -0.5015479231 -0.0125579322 0.6323094068
-0.2692192923 0.0382711725 0.1358826806 -0.4615365487 0.0000000000 0.5961834948
-0.2093125824 1.0706622064 0.0576951769 -0.4852918839 0.0000000000 0.5644515321
0.2159235650 0.6594768732 -0.3269393359 -0.5000000000 0.0000000000 0.6346469461
0.2245555327 0.6559184655 -0.4807931410 -0.5100966944 0.0156303542 0.6294840355
-0.2692192923 0.0962570562 0.1605713700 -0.5259492905 0.0000000000 0.5961834948
-0.0611111737 0.7150147121 -0.2806839971 -0.4872495967 0.0359807124 0.5932510798
-0.1538289385 0.7307544564 -0.4100140826 -0.5088436321 -0.0367000944 0.5987065434
0.2044893810 1.2748388218 0.1730855308 -0.4948394357 -0.0087425886 0.6326917719
-0.2375060614 0.3259204390 -0.4638976084 -0.4617094804 0.0000311939 0.5961834948
0.2322974177 1.1144133822 0.1133851772 -0.5169669976 0.0087545123 0.5629796128
-0.1381376966 1.1736018641 0.1060078488 -0.4853595027 0.0096857894 0.5625396678
-0.2307558411 0.5802947047 -0.0185100359 -0.5368328317 -0.0087378576 0.5961834948
-0.0605083745 0.7046907756 -0.1633644704 -0.4846676606 0.0336051712 0.6038496838
0.2430017577 1.0417924630 0.0961586282 -0.5020393322 0.0020393322 0.5578557041
-0.2750359662 0.0689865461 -0.5961834948 -0.5000000000 0.0000000000 0.6346469461
-0.0786843169 1.0672951928 0.1249407134 -0.5080534774 -0.0080534774 0.6329105905
-0.1142526242 0.6804367233 -0.4621177892 -0.5153401860 -0.0076147248 0.5642176744
-0.2640558432 0.3143559409 -0.4913982453 -0.5000000000 0.0143275587 0.5605167595
0.2920393503 1.3073539773 0.1499118014 -0.4852504588 -0.0096189784 0.6302446118
0.3846593794 0.5811422853 -0.3322505231 -0.4907708487 0.0016795451 0.5961834948
0.3583208773 0.8838810715 0.0576951769 -0.5000000000 0.0000000000 0.5577200435
-0.1922923898 0.6702999884 -0.2544194986 -0.5384634513 0.0000000000 0.5961834948
0.3846593794 0.6086036509 -0.3450666604 -0.5348703111 -0.0048447409 0.6058729767
-0.2561366417 0.2871943593 0.0773540776 -0.5000000000 -0.0136241775 0.5602493232
-0.0073340763 0.8645993818 0.0961586282 -0.4914093035 0.0085906965 0.5600513518
-0.2660738667 0.7418938180 -0.1377675436 -0.5347834221 0.0117385838 0.5909020014
0.3209506342 0.7308055743 -0.1437074544 -0.4876226922 -0.0352013660 0.5961834948
0.4921366474 0.0000000000 -0.4710353096 -0.5000000000 0.0384634513 0.5961834948
0.4622632772 0.0000000000 -0.0749367651 -0.5000000000 0.0384634513 0.5961834948
0.2845043602 0.7413832926 0.0251518662 -0.4865816404 -0.0313472128 0.6125561167
0.4231228307 0.7245881112 -0.0214170651 -0.4615365487 0.0000000000 0.5961834948
0.0479570965 1.2057666945 0.1558192875 -0.4972676333 -0.0127415183 0.6321221667
0.2148127020 1.0936852360 0.1205057621 -0.5144002161 0.0090049094 0.5620222960
-0.2307558411 0.9485690192 0.0940067904 -0.4615365487 0.0000000000 0.5961834948
-0.2242137465 0.9336193527 0.0576951769 -0.5000000000 0.0000000000 0.5577200435
0.0209169441 0.9036137836 0.1156676753 -0.4908596608 -0.0059420647 0.5600426975
0.0111438042 0.6923421230 -0.1316200456 -0.4996704836 0.0384270649 0.5958539784
-0.1436862033 0.8899644125 0.0961586282 -0.5130376099 -0.0068574949 0.6309507623
-0.1922923898 1.0343809406 0.0668824415 -0.5337996809 -0.0011308639 0.6040995808
0.2406614875 0.7021979593 -0.3153211812 -0.5094719710 0.0369916473 0.5929002931
0.0052322025 1.1946886436 0.1346220795 -0.4988969067 0.0017552027 0.5581003317
-0.2720113927 0.0000000000 -0.0557829664 -0.5000000000 0.0384634513 0.5961834948
0.0820209443 0.6831520506 -0.3269393359 -0.5000000000 0.0000000000 0.6346469461
-0.2307558411 0.6817038632 -0.1583442207 -0.5366767470 -0.0059010627 0.5961834948
-0.1874022235 0.9021755967 0.0576951769 -0.5000000000 0.0000000000 0.5577200435
0.2572796986 1.2607246199 0.1346220795 -0.5060823409 0.0030411512 0.5591713849
0.2730175197 0.8876124109 0.0961586282 -0.4925290515 0.0072481681 0.6330342505
0.3846593794 1.2304603071 0.0998065788 -0.4615383950 0.0000261551 0.5961834948
0.1900897418 0.9181400060 0.0984110479 -0.5049760936 -0.0033805527 0.5583220350
0.1491783611 0.7182131404 0.0215818040 -0.4935094465 -0.0303397781 0.5970850397
-0.1271902291 0.7792961781 0.0558975875 -0.5161989594 -0.0184561871 0.6253979092
0.1649716849 1.2234947684 0.1546568451 -0.5085522330 0.0165993255 0.5634978693
-0.1884416598 0.7308055743 -0.4365369401 -0.5015720397 -0.0293156502 0.6181343172
0.3942871274 0.7677392572 -0.3765602266 -0.5283699878 0.0217260035 0.5879571626
0.0624573176 0.6923421230 -0.3582623551 -0.5000000000 -0.0384634513 0.5961834948
-0.2868627467 0.0000000000 -0.5021971670 -0.5000000000 0.0384634513 0.5961834948
0.0740838573 1.0008527732 0.1346220795 -0.5008434266 0.0000000000 0.6345201321
-0.0129292391 1.1189279913 0.1346220795 -0.5021629922 -0.0075479908 0.6337097072
-0.3075810462 0.0000000000 -0.2117092208 -0.5000000000 -0.0384634513 0.5961834948
0.0128400424 0.8556040114 0.1217979033 -0.5070081562 -0.0110195095 0.6322854825
-0.2692192923 0.7419072033 -0.2773268686 -0.5244923719 0.0074068683 0.5908731153
0.0950807861 0.6923421230 -0.3403380407 -0.5000000000 -0.0384634513 0.5961834948
-0.1340921108 0.7308055743 -0.2739383155 -0.5088265543 -0.0363797707 0.5961834948
0.3736772179 0.7308055743 -0.1179353266 -0.5000000000 0.0384634513 0.5961834948
-0.0611602915 0.7754782574 0.0899493963 -0.4972231311 -0.0248702753 0.5703392096
0.3789710965 0.7308055743 -0.0724209477 -0.5000000000 0.0372453138 0.5886769677
-0.2307558411 0.7689644335 -0.3223161444 -0.5383684850 -0.0002096643 0.5962533829
-0.0491798111 1.1360201490 0.1346220795 -0.4913790713 0.0074250231 0.5596934494
0.0644078377 0.6923421999 -0.4787474623 -0.5000000000 0.0384634513 0.5961834948
0.3259238431 1.0889439232 0.0961586282 -0.5085003843 0.0021251057 0.5614274202
0.1090248257 0.9194198773 0.1222884661 -0.5035229060 -0.0183200265 0.5634265966
0.4231228307 0.7374230188 0.0130841507 -0.5384634513 0.0000000000 0.5961834948
0.3181482256 1.3075237549 0.1346221179 -0.5043475624 0.0197760604 0.5643456038
0.3066179983 1.1716065341 0.1050100684 -0.5097422153 0.0073765591 0.5603790604
0.3942972433 0.7692690256 -0.3006108342 -0.5122205693 0.0355560759 0.5961834948
0.0636131058 0.6845026947 -0.0961586282 -0.5000000000 0.0000000000 0.5577200435
0.3935060886 0.7044733032 -0.4423296897 -0.4960436109 0.0000000000 0.5586540131
0.3057989961 0.8695424353 0.0961586282 -0.4909996293 -0.0090003707 0.6314227858
0.2229241054 1.2721484572 0.1425035483 -0.5145979567 0.0070197337 0.5614041114
0.1477920229 1.2299716674 0.1722267188 -0.5064400126 0.0203298187 0.5643336032
0.2422726830 0.7038093087 -0.0170820418 -0.4890866111 -0.0348358863 0.6059979060
-0.2398378696 0.7193808523 -0.0036176799 -0.4868402686 -0.0291791819 0.6091409854
-0.2307558411 0.5870312320 -0.0503908521 -0.5255220769 -0.0031878893 0.6072648921
0.4231228307 0.7677918752 -0.1483331460 -0.5080869791 0.0000000000 0.5961834948
-0.1211118499 0.8553489987 0.0904122655 -0.5144820279 -0.0106594532 0.6294660346
0.4272298426 0.3112580176 -0.4924308351 -0.5000000000 0.0121632203 0.5596938725
0.4228067765 1.0394613855 0.0624035265 -0.4635641880 0.0089645227 0.5988944758
-0.1538289385 1.2951341772 0.1268111141 -0.4769723933 0.0052073359 0.5684001901
-0.1224216074 0.8370188564 0.0576951769 -0.4866836455 0.0059636427 0.5623543894
-0.1720021115 1.1648677375 0.0961586282 -0.4944776869 0.0050408661 0.5590521482
-0.2972129152 0.0000000000 0.1161490839 -0.5000000000 -0.0384634513 0.5961834948
-0.1829076538 0.7692690256 -0.0061383822 -0.4790488427 0.0247824632 0.5764685528
-0.2038338868 0.6099276399 -0.0174025193 -0.5000000000 0.0169617666 0.6306854799
0.0839132308 0.6934824874 0.0203720516 -0.4996246736 -0.0351640564 0.6103190824
-0.2778185661 0.0000000000 -0.3889076099 -0.5000000000 0.0384634513 0.5961834948
-0.2496140097 0.7692690256 -0.2252952041 -0.5168072589 0.0319998991 0.5994748893
0.2607055612 0.6923421230 -0.1104648397 -0.5088779030 0.0354693793 0.5916296145
0.0559661486 0.9806692310 0.1057001027 -0.4968888837 0.0082102929 0.5591658462
-0.1922923898 0.6617581790 -0.1491771879 -0.5384634513 0.0000000000 0.5961834948
-0.1044671760 1.3077573435 0.1584406871 -0.5000000000 0.0384634513 0.5961834948
-0.2550420104 0.4028802279 -0.4371715101 -0.5364587362 0.0119302087 0.5961834948
0.4231228307 0.7583745992 0.0069419606 -0.4615365487 0.0000000000 0.5961834948
-0.0094312959 0.9127136207 0.1210714825 -0.5116310400 0.0070232339 0.6317403400
-0.0636006821 1.3047513478 0.1412727564 -0.4904256777 0.0169484198 0.5647853180
0.3607142271 0.7308055743 -0.2014747503 -0.4912694504 -0.0354698793 0.5961834948
0.3928063615 1.0966213051 0.0961586282 -0.5120812931 -0.0006485323 0.6249508101
0.2210397425 1.2420043812 0.1346220795 -0.5080670166 0.0060269536 0.5604856811
0.1498918196 0.9185528342 0.1346220795 -0.4926186329 0.0029382615 0.6336503196
-0.2925871083 0.0000000000 -0.5248235230 -0.5000000000 -0.0384634513 0.5961834948
0.2458869397 0.8893896146 0.0961586282 -0.5025213562 0.0012606781 0.5580649838
0.2891241284 0.7121972258 -0.0432459968 -0.4883016875 -0.0345124086 0.6072992784
-0.1922923898 1.0993204393 0.0577621418 -0.4732489389 0.0000000000 0.5701880482
-0.1127153554 1.2424840589 0.1346220795 -0.4948781684 0.0051218316 0.5588314450
-0.1703966855 0.7308055743 -0.2862193878 -0.5000000000 -0.0384634513 0.5961834948
0.1243408182 0.7214781874 0.0340006909 -0.4958590248 -0.0290186354 0.6073970140
0.1226736968 1.0122972654 0.1215141199 -0.5041266668 0.0123886546 0.5602603237
0.2056407459 1.0664961146 0.1213234566 -0.5085600795 0.0076834206 0.5599324613
-0.0283215046 1.1232946315 0.1346220795 -0.4930985799 0.0075024500 0.5594508604
0.0063722592 1.2268949375 0.1711177790 -0.5055415064 -0.0091743024 0.6327275814
0.1565033023 0.8703387442 0.1319974874 -0.4943958367 -0.0070811983 0.6333271882
0.1498692416 0.7144317215 0.0576951769 -0.4954560817 -0.0092996163 0.6198488640
0.0207150109 0.6923421230 -0.0355830773 -0.4938535405 0.0372773154 0.5900370353
0.2273013231 1.0321502527 0.0961586282 -0.5024176587 0.0024176587 0.5579052066
0.4165346569 0.9843548373 0.0576951769 -0.5000000000 0.0000000000 0.6184664876
0.3461960051 1.2966990243 0.1679183892 -0.4724567072 0.0070223492 0.6115372968
0.3588440571 1.2491112346 0.0961585897 -0.5046973875 0.0000000000 0.5586246654
0.2725793056 0.6956524030 -0.2282540820 -0.4837722314 -0.0348551565 0.5961834948
-0.1838488545 1.2682660718 0.0961586282 -0.4923921217 0.0000000000 0.5625221285
0.1524790637 0.8407140786 0.1291402684 -0.4920913375 -0.0120842933 0.6318116128
0.2464514678 1.1188610264 0.1267991520 -0.4909861671 -0.0063828943 0.6330089800
-0.2162551199 0.9763366309 0.0576951769 -0.5000000000 0.0000000000 0.5577200435
-0.1048328865 0.7231797720 -0.0268575280 -0.5118282421 -0.0347463433 0.6076425647
0.2242831345 0.6923421230 -0.3784398586 -0.5038551533 0.0380954714 0.5942559374
-0.2286075804 0.7692690256 -0.2394991028 -0.4912698351 0.0367037868 0.5918183931
0.3729595668 0.7308055743 -0.2104077330 -0.4812492598 -0.0307671839 0.5961834948
0.1337645176 0.8001189059 0.1062157053 -0.4940718206 -0.0126670915 0.6318151899
0.3908186473 0.7369648421 -0.4118174800 -0.5217304268 0.0283501022 0.5836952584
-0.2025804014 0.7410935859 -0.3280146970 -0.4764581754 0.0300486482 0.5929300638
0.1762884016 0.9809997859 0.0961586282 -0.5049412842 0.0079632037 0.5595909443
0.0713877232 0.6923421230 -0.0476992183 -0.5000000000 -0.0384634513 0.5961834948
-0.2862982571 0.0000000000 0.0458861281 -0.5000000000 0.0384634513 0.5961834948
0.4782522646 0.0000000000 -0.0344211349 -0.5000000000 0.0384634513 0.5961834948
0.0980508185 0.6923421230 -0.0093019241 -0.5000000000 -0.0379538875 0.5993235741
-0.0067191995 0.6923421230 -0.1303903306 -0.5000000000 -0.0384634513 0.5961834948
-0.1922923898 0.7525471940 -0.2090930137 -0.4686971356 0.0129733759 0.5969239932
-0.2692192923 0.2051627414 0.1059235754 -0.4688502586 0.0000000000 0.5961834948
0.3934135071 0.9572164877 0.0576951769 -0.5000000000 0.0000000000 0.5577200435
0.4130526376 1.0314519872 0.0961586282 -0.4838550817 0.0015386150 0.6185948401
0.3787390465 0.7308055743 -0.0269359549 -0.4907257311 -0.0355269976 0.6054577637
0.1177009110 0.6923421230 -0.0140495833 -0.5000000000 -0.0381975150 0.5978222302
-0.0855054253 0.7009455124 -0.0791266273 -0.5159733328 -0.0344879459 0.5987248135
-0.2692192923 0.1599463773 0.1197778797 -0.5148598159 0.0000000000 0.5961834948
0.0541158258 0.7031468526 0.0576951769 -0.5038046123 -0.0054205388 0.6208009883
0.4216461803 0.5364503704 -0.0050519435 -0.5000000000 0.0200306115 0.6289443933
0.1865369112 0.8961864142 0.1289002565 -0.4880069805 0.0022932294 0.6323733330
-0.2692192923 0.2073961986 0.1323666596 -0.5384634513 0.0000000000 0.5961834948
-0.2383438723 0.4373961751 0.0348888889 -0.5000000000 0.0116990049 0.6327000416
-0.1091842567 0.7246243438 -0.1317095500 -0.4862199301 0.0350817062 0.6024222666
0.1306267077 0.9248452625 0.1060621592 -0.5051177160 -0.0182877172 0.5631911233
0.2259842961 1.1782675192 0.1394434346 -0.4913714170 -0.0067244883 0.6330259809
0.2654788755 0.6923421230 -0.0704826590 -0.4882346841 -0.0350623975 0.6039250721
0.0140046003 1.2548489815 0.1730855308 -0.5040448165 -0.0051273319 0.6337299005
-0.2692192923 0.1408266573 0.1520959485 -0.5344314046 0.0000000000 0.5961834948
-0.3075669302 0.0000000000 -0.4921377436 -0.5000000000 0.0384634513 0.5961834948
0.3846593794 1.0774877381 0.0900611711 -0.5321435216 -0.0056372034 0.6096741273
0.3750070532 0.7585174140 -0.2104497735 -0.5278156525 0.0254326109 0.6026046988
0.1407760201 0.6993417019 0.0506955211 -0.4905945323 -0.0326737018 0.5872689361
0.3385164693 0.9527513811 0.0576951769 -0.5045181862 -0.0015060749 0.5593752412
0.4229782466 0.5919028204 -0.3732401769 -0.5000000000 0.0161747659 0.5613554936
0.3115423586 1.2288555735 0.1298246486 -0.5200874220 0.0098018336 0.5650094830
-0.1035257061 1.2438110480 0.1464618990 -0.5099914969 -0.0104937911 0.6313950536
0.4594773694 0.1316168146 -0.5523112746 -0.5000000000 0.0121632203 0.5596938725
-0.1158408185 1.2139867571 0.1341467097 -0.5120389064 -0.0075034501 0.6319084638
0.3583178002 1.2806824970 0.1225002074 -0.4711665276 0.0227289380 0.6022880292
-0.2181022118 0.6538786717 -0.1627760181 -0.5171760465 -0.0312693627 0.5961834948
-0.1526890741 0.7308055743 -0.3465921594 -0.5025312797 -0.0375599063 0.5994534651
0.1907694294 0.6923421230 0.0167401787 -0.4927353695 -0.0299552974 0.6165793168
-0.0597156812 1.3077573435 0.1738785702 -0.5000000000 0.0384634513 0.5961834948
-0.0256385250 0.8605167172 0.0961586282 -0.4950342915 0.0049657085 0.5589897990
0.3824520389 0.7550999363 -0.2783505734 -0.5201406939 0.0307524524 0.5887272009
-0.0079479914 0.7119290586 -0.0228629062 -0.4908785079 0.0360017904 0.5870620027
-0.0226622616 0.6894064386 -0.0961586282 -0.5000000000 0.0000000000 0.5577200435
-0.2475907936 0.7524340730 -0.3059734471 -0.5246001849 0.0272800490 0.5888764007
-0.2307558411 0.4529555258 -0.4263783195 -0.4616445541 0.0015195371 0.5961834948
0.2551295916 1.0961605129 0.1224600900 -0.4905132205 -0.0064956692 0.6328693192
0.2538211420 0.7153576137 -0.2649039816 -0.5124610812 0.0361493747 0.5927868259
-0.0176929760 0.6923421230 -0.0077873103 -0.5071342779 -0.0364721599 0.6027307050
0.3164621033 0.6653501653 -0.0961586282 -0.5000000000 0.0000000000 0.5577200435
0.3940252298 0.5038383640 -0.4019595282 -0.5015288068 -0.0120698310 0.6318834240
0.1478407176 0.9208177545 0.1014826622 -0.5070483505 -0.0174732151 0.5630473085
-0.0452114599 1.3077573435 0.1825021144 -0.5000000000 -0.0384634513 0.5961834948
-0.0547466264 0.6923421230 -0.1305254142 -0.4922375755 0.0356518499 0.5982119418
0.3301509379 0.7308055743 -0.2504578785 -0.5026289000 0.0381919378 0.5948690448
0.1735115327 0.8113999669 0.0998260798 -0.4911599450 -0.0109463136 0.6319219644
0.4231228307 0.7321413715 -0.2701428575 -0.4615365487 0.0000000000 0.5961834948
-0.2057822914 0.7442954375 -0.2059700123 -0.5270925396 -0.0270925396 0.5949035850
-0.2406494485 0.7685456050 -0.1631919234 -0.5300952659 0.0218728570 0.5884305323
-0.0659174512 0.7198210665 -0.2632233980 -0.4857553301 0.0353757593 0.5938639179
0.0200961725 1.2354020144 0.1592650742 -0.4890940730 0.0176126067 0.5639705467
0.0005535083 0.6923421230 -0.0086006200 -0.5050501358 -0.0369984553 0.6009396160
0.2523601078 0.6923421230 -0.3164335826 -0.4903605206 -0.0361878766 0.5961834948
-0.0497889183 1.2943629851 0.1481785998 -0.4874438756 0.0067733753 0.5623199646
-0.2015780823 0.7308055743 -0.0505427828 -0.5041636686 -0.0367684824 0.6000066080
-0.2738874860 0.0000000000 -0.2547795165 -0.5000000000 0.0384634513 0.5961834948
-0.1697004586 1.1335044470 0.0859591210 -0.4899652317 0.0074586786 0.5602145907
-0.0939136512 1.2758133703 0.1560739155 -0.5179021211 0.0000000000 0.6301796085
0.2507225263 0.7072669806 -0.1588201290 -0.5133067387 0.0343634782 0.6066550156
0.4231228307 0.7318462414 -0.3551486618 -0.5384634513 0.0000000000 0.5961834948
0.2739431426 0.6970162401 -0.3709246771 -0.4817123213 -0.0338297593 0.5961834948
0.3846593794 0.7905154668 0.0087938604 -0.4768586569 -0.0231413431 0.6147742270
-0.1415158646 1.1319149833 0.1084717021 -0.5161879204 -0.0060121067 0.6302488428
-0.1458881205 0.7770002562 0.0349038512 -0.4871394758 0.0218691645 0.5681537932
-0.2523552998 0.7476695668 -0.1753162955 -0.5292024907 0.0226329717 0.5970343833
0.3859430202 0.7320892151 -0.3259154773 -0.4805101846 -0.0324977700 0.6026670480
-0.2869823295 0.0000000000 0.1406417635 -0.5000000000 -0.0384634513 0.5961834948
-0.2091228421 0.7476359882 -0.3691037404 -0.4739656284 0.0281049746 0.5951481741
-0.1188005811 0.9088456976 0.0927235343 -0.4797775328 0.0042566348 0.5645524987
-0.2692192923 0.7080543275 -0.0897571560 -0.5339131865 -0.0136507558 0.5961834948
-0.1922923898 0.7959833541 0.0348291167 -0.5235092461 -0.0144563343 0.6143112040
-0.1733629099 1.2649400603 0.1107343146 -0.5151428685 -0.0151428685 0.6264573465
0.3908773425 0.7523632618 -0.0361374895 -0.5047483900 0.0312650548 0.5758399062
-0.1687277563 0.7371890456 -0.0128482928 -0.5000000000 -0.0336690205 0.6139284927
0.4216655274 0.7308055743 -0.1515315742 -0.4960587271 -0.0331204933 0.5842266310
-0.2692192923 0.0154443834 0.1676639150 -0.4615365487 0.0000000000 0.5961834948
-0.2032706665 0.7308055743 -0.1597590219 -0.5134362451 -0.0329175216 0.5859937188
0.3668821492 0.6924062416 -0.4423296897 -0.5000000000 0.0000000000 0.6346469461
0.0383470801 0.6721773510 -0.4807931410 -0.4999798067 0.0111765174 0.6312620470
0.3846594563 0.6595076055 -0.2912752161 -0.5384634513 0.0000000000 0.5961834948
0.0722434581 0.6923421230 -0.1303853688 -0.5000000000 0.0384634513 0.5961834948
-0.2130530761 0.9909894365 0.0576951769 -0.5000000000 0.0000000000 0.5577200435
0.3995648130 0.5466064524 -0.3883390432 -0.5000000000 0.0139451550 0.5603713677
0.2508129539 0.7215775769 -0.0561384841 -0.5084456123 0.0356878902 0.5846956158
-0.3060928184 0.0000000000 -0.0927694597 -0.5000000000 0.0384634513 0.5961834948
-0.2532820382 0.7683244017 -0.1505593720 -0.5289581324 0.0239325363 0.5917708523
0.3811611285 0.7879476083 0.0379103468 -0.4905969555 -0.0202300445 0.6247668778
0.2537847555 0.8044504290 0.0698973607 -0.5162421924 0.0044977621 0.5624465094
0.0134697276 1.0262601521 0.1034768768 -0.4912546805 0.0099529565 0.5602127444
0.0259621950 0.9907738489 0.1283590372 -0.5092776152 -0.0022998067 0.6333109566
-0.0936169441 0.7090570312 -0.3800761707 -0.5147344251 -0.0352837162 0.5994345411
-0.0976990317 0.8954891103 0.0961586282 -0.4906993067 0.0000000000 0.5599156527
-0.2719002333 0.0000000000 -0.1654550359 -0.5000000000 -0.0384634513 0.5961834948
-0.3076827436 0.0009598170 0.1402893228 -0.5384634513 0.0000000000 0.5961834948
0.3867944087 0.9047388780 0.0576951769 -0.5000000000 0.0000000000 0.6346469461
0.0945621065 0.9544311569 0.0961586282 -0.5015715012 -0.0028933747 0.5588322912
0.4231228307 0.7683234401 -0.0576199809 -0.4615365487 0.0000000000 0.5961834948
0.3347537437 0.7308055743 -0.0677229833 -0.5047140037 0.0373670506 0.5959540603
-0.0385542827 0.6923421230 -0.1670887325 -0.5000517333 -0.0384512199 0.5961834948
0.1439486779 0.6923421230 -0.0487252693 -0.5000000000 -0.0384634513 0.5961834948
0.4615862820 0.0624718760 0.1730933773 -0.4615365487 0.0000000000 0.5961834948
0.4231228307 0.9951524512 0.0737259357 -0.5321470602 -0.0121711822 0.6081742834
0.2635794734 0.6701529811 -0.3269392589 -0.5000000000 0.0000000000 0.5577200435
0.1807092753 0.6923421230 -0.2632072433 -0.5000000000 -0.0384634513 0.5961834948
-0.1721259253 1.0819211509 0.0778616414 -0.4784755450 0.0084539973 0.5671520511
-0.0110417222 0.8188936473 0.1073197602 -0.5074682945 -0.0134631695 0.6314070542
0.4830586575 0.0000000000 0.0172498194 -0.5000000000 -0.0384634513 0.5961834948
0.1004177823 0.6923421999 -0.0605384337 -0.5016551592 0.0383165978 0.5953559152
-0.1323910647 0.7213064480 -0.4014267710 -0.4865347919 0.0357568936 0.5917702753
0.4231228307 0.7492072587 -0.1994144170 -0.4615365487 0.0000000000 0.5961834948
-0.2307558411 0.3693210205 0.0480535820 -0.4616124371 -0.0008458113 0.5963956977
0.4617850995 0.0000000000 -0.0168840704 -0.5000000000 0.0384634513 0.5961834948
-0.0440362861 1.2784974653 0.1730855308 -0.5040277772 -0.0113037929 0.6318924630
0.3846593794 0.6512733114 -0.0628232781 -0.4705371502 0.0000000000 0.5744541065
0.2637691367 0.7308056512 0.0200976149 -0.4902451687 -0.0304438986 0.6168887168
0.0503556388 0.6613184263 -0.0961586282 -0.5000000000 0.0000000000 0.6346469461
-0.1949552530 0.5745453418 -0.3322649853 -0.4655972507 0.0000000000 0.5789821009
-0.0164600686 0.8076246253 0.0961586282 -0.5027813691 -0.0041633224 0.6334362320
0.4619131059 0.0000000000 -0.4412577133 -0.5000000000 0.0384634513 0.5961834948
-0.2104210990 0.5617579367 -0.0500982607 -0.5000000000 -0.0131583082 0.5601060468
0.4727078350 0.0000000000 -0.1488221318 -0.5000000000 0.0384634513 0.5961834948
0.2468592188 0.6755062858 -0.0961586282 -0.5000000000 0.0000000000 0.6346469461
-0.0901764653 0.8102528714 0.0602156100 -0.4848236683 -0.0007371136 0.5614809229
-0.0784437280 0.7308056512 -0.2290602760 -0.4835865299 0.0343677091 0.5948160807
0.2909312182 0.7140043157 -0.4548931991 -0.5018952096 0.0262598828 0.5711905211
0.2646666428 0.6574610807 -0.0961586282 -0.5000000000 0.0000000000 0.6346469461
0.2394060020 0.6923421230 -0.1284940440 -0.4961537703 -0.0375554830 0.5961834948
0.2957733052 0.9994912824 0.0961586282 -0.4976462676 -0.0018612849 0.6342394258
-0.2967931251 0.0109027730 -0.5961834948 -0.5000000000 -0.0194883538 0.5657923681
-0.2307558411 0.7510457347 -0.2282796987 -0.4668740065 -0.0128857947 0.5961834948
0.0043171955 1.2746618899 0.1730855308 -0.5035687929 -0.0071375473 0.6336704745
-0.0689549099 0.6923421230 -0.2525227889 -0.5129089112 -0.0355902315 0.5961834948
-0.1263256477 1.1647768483 0.1015953216 -0.4867403791 0.0107760744 0.5620778372
0.4615862820 0.0400139515 -0.5872890140 -0.4615365487 0.0000000000 0.5961834948
0.1256037656 1.3077573435 0.1962307587 -0.5000000000 0.0384634513 0.5961834948
0.0954702670 0.7981425769 0.0961586282 -0.5000000000 0.0091306079 0.5592017326
0.1260936746 1.2867198742 0.1730855308 -0.5000000000 0.0000000000 0.5577200435
-0.2858134637 0.0373541269 -0.5577200435 -0.5000000000 0.0000000000 0.6346469461
0.0827367107 0.9995805176 0.1151557268 -0.5003629796 0.0079627806 0.5592488888
0.1832975963 1.0638894465 0.1215348517 -0.5086647386 0.0086647386 0.5600986618
0.3893304963 0.7308055743 -0.1282701482 -0.4985686981 -0.0382880195 0.5966987127
0.0449949107 0.7942718844 0.1026652210 -0.5068816499 -0.0112882537 0.6319009634
0.0606801907 1.3077573435 0.2114934023 -0.5000000000 -0.0384634513 0.5961834948
-0.2661885262 0.3111461658 0.0693701037 -0.5000000000 -0.0142444392 0.5604851426
-0.0115355544 1.1845546780 0.1499476493 -0.5043805255 -0.0078365436 0.6333640361
0.1727498794 0.6798631178 -0.4807931410 -0.5026959033 0.0054048842 0.6329777092
-0.1431124825 0.8404282567 0.0576951769 -0.4960218406 0.0008206947 0.5589283344
0.2776083634 0.9807958527 0.0961586282 -0.4951342965 -0.0043961802 0.6338876391
-0.2064239002 0.6538786717 -0.1163778260 -0.5000000000 -0.0384634513 0.5961834948
0.3262059340 0.7140398174 -0.4206319953 -0.4926373262 -0.0346814555 0.6080270453
-0.0825298927 0.6979699798 -0.1569915381 -0.5175800281 -0.0341948928 0.5961834948
0.2551308994 0.6923420461 -0.4416154234 -0.5134164749 0.0344225580 0.5961834948
0.0834509770 0.8904040112 0.1346221179 -0.5010276280 0.0061324204 0.5603638673
0.2044679568 0.6603052990 -0.0961586282 -0.5000000000 0.0000000000 0.6346469461
0.3643167908 0.6615959017 -0.0961586282 -0.5000000000 0.0000000000 0.6346469461
-0.0828515626 0.7693606455 0.0960669313 -0.4999750372 -0.0329235219 0.5780606705
0.4426490325 0.2443893844 0.1255496283 -0.5000000000 0.0176889566 0.6303033070
-0.0101000600 0.6923421230 -0.4472398954 -0.5000000000 -0.0384634513 0.5961834948
0.4615862820 0.1050906109 0.1735005899 -0.5384634513 0.0000000000 0.5961834948
0.4162769518 0.4339003859 0.0138305340 -0.5022243799 -0.0167627952 0.5617590136
-0.2692192923 0.1612359415 -0.5426196772 -0.5384634513 0.0000000000 0.5961834948
-0.1152602127 0.7308055743 -0.2756484774 -0.4947331227 0.0379162702 0.5935500562
-0.2692192923 0.0290794077 -0.5797572549 -0.4615365487 0.0000000000 0.5961834948
-0.2269493441 0.7308055743 -0.0440336129 -0.5127225173 -0.0328031698 0.6039079559
-0.1922923898 0.6828706520 -0.2172843826 -0.5384634513 0.0000000000 0.5961834948
-0.2307558411 0.9608238979 0.0849961885 -0.5384634513 0.0000000000 0.5961834948
0.0035265023 1.0924984462 0.1346220795 -0.5020621025 -0.0061099962 0.6340504934
0.2231618480 1.3077573435 0.2014612111 -0.5000000000 -0.0384634513 0.5961834948
-0.0945872616 0.7011847551 -0.4481602874 -0.4924768951 0.0323257614 0.5855917373
0.2093872014 0.7174644878 -0.0325728122 -0.5097154832 0.0355045349 0.5854420376
-0.2307558411 0.8344408820 0.0255606173 -0.4819160622 0.0000000000 0.5961834948
0.3438550425 0.7284646886 -0.4341818230 -0.4859693792 -0.0349473149 0.5983291015
0.4231228307 0.7631914156 -0.2529212703 -0.4615365487 0.0000000000 0.5961834948
-0.1538289385 0.9305625853 0.0841739553 -0.5271977756 0.0000000000 0.6233812705
0.1653901673 0.9330655175 0.1231106224 -0.4891278439 0.0051884503 0.6323139070
0.4229543223 0.3619505001 0.0537503654 -0.5000000000 0.0099259552 0.6332973405
-0.1929214211 0.6981587200 -0.4423296897 -0.4997186783 0.0000000000 0.6345805197
0.3942547797 0.8549521328 0.0576951769 -0.5000000000 0.0000000000 0.5577200435
-0.3076128171 0.0000000000 -0.4226062858 -0.5000000000 -0.0384634513 0.5961834948
-0.1848441732 0.7308055743 -0.4139229309 -0.5030407281 -0.0363326915 0.6010686608
-0.2300306127 0.6350891604 -0.3457288472 -0.5000000000 0.0271977756 0.5689857192
0.3846594563 0.6585492117 -0.2070563740 -0.5384634513 0.0000000000 0.5961834948
0.2632886128 0.6986815152 -0.0898193129 -0.5076399953 0.0358310511 0.5845622630
-0.2699410205 0.0000000000 -0.1962597217 -0.5000000000 -0.0384634513 0.5961834948
0.5000000000 0.0000000000 -0.4952830539 -0.5000000000 -0.0384634513 0.5961834948
0.4643177255 0.0000000000 -0.4236550687 -0.5000000000 -0.0384634513 0.5961834948
-0.2580031576 0.7308055743 -0.1753163725 -0.4976158814 -0.0329556774 0.5789250981
0.2387206602 0.9793092018 0.1050201073 -0.4935287551 -0.0064712449 0.6334903886
-0.0224666750 0.7308055743 0.0375943311 -0.5051381017 -0.0319235491 0.6050350504
-0.1548048332 1.0215517641 0.0791971308 -0.5132367737 -0.0140929701 0.6286418013
0.1725162909 0.9077288728 0.1313783797 -0.4895960595 0.0030830379 0.6328638190
0.2435954796 1.1119283355 0.1008445920 -0.5170237312 0.0099317247 0.5634175577
0.3186644051 0.8333479815 0.0576951769 -0.5043694096 0.0008398110 0.5586503590
0.0023112496 0.6923421230 -0.3492661000 -0.5000000000 -0.0384634513 0.5961834948
0.3867638687 0.5549824074 -0.3855470197 -0.5000000000 0.0137282596 0.5602889021
-0.1352599766 0.7308055743 -0.1451729503 -0.5088437860 -0.0362069160 0.5961834948
-0.1173477781 0.7308055743 -0.2518655255 -0.4966971434 0.0381223189 0.5945320665
0.4674363421 0.0000000000 -0.3078915425 -0.5000000000 0.0384634513 0.5961834948
-0.0589740290 0.7128775673 -0.2163670293 -0.4850019080 0.0351584792 0.5961834948
-0.1427536569 0.7252679912 -0.4296797529 -0.4844641505 0.0350410503 0.5947129601
0.3908437639 0.7308055743 -0.1025874479 -0.4961888105 -0.0379161548 0.5987818548
0.3076988598 0.7307719572 -0.2784193845 -0.4826054042 -0.0343008212 0.5961834948
0.3123834005 1.0425811561 0.0961586282 -0.4878101246 -0.0103706311 0.6309338768
0.3488882159 0.7308055743 -0.1808900727 -0.5064447436 0.0359419797 0.5983317555
-0.1849748336 1.0633726131 0.0930153950 -0.5166675981 -0.0079237402 0.6292654477
-0.0781464055 0.6597622720 -0.0961586282 -0.5000000000 0.0000000000 0.5577200435
0.0800934639 0.6923421230 -0.2064434204 -0.5000000000 0.0384634513 0.5961834948
0.1589104989 1.1872736594 0.1346220795 -0.5017532410 0.0050483280 0.5581572191
0.2450965927 0.7096816776 -0.2476995106 -0.5126212430 0.0361913383 0.5937929913
-0.2692192923 0.7387914714 -0.3042899018 -0.5254623816 0.0223354954 0.5883912996
-0.2328956782 0.7308055743 -0.3866825377 -0.5000000000 -0.0384634513 0.5961834948
0.1426742684 0.8731000353 0.1230626969 -0.5102215083 0.0052568383 0.5602042055
0.4983293785 0.0000000000 -0.2669575068 -0.5000000000 0.0384634513 0.5961834948
-0.0269223196 1.2903692480 0.1730855308 -0.5024086967 -0.0068039538 0.6329772861
0.0732528929 0.6933922522 0.0576952154 -0.5008376186 -0.0019303268 0.6318218441
-0.2102758995 0.8361558134 0.0576951769 -0.5040988577 -0.0040988577 0.6328045468
-0.2012653745 0.5884961894 -0.3541590741 -0.4628775385 -0.0099899968 0.5961834948
-0.1922923898 1.1208704341 0.0907402818 -0.5232255396 -0.0010326283 0.6239269130
0.3948568481 0.7692690256 -0.2784892341 -0.5097396767 0.0366444377 0.5961834948
-0.2291311833 0.7166483702 -0.4423296897 -0.4776303875 0.0000000000 0.6265090414
-0.0561908136 0.6923420461 -0.4779144594 -0.4990896855 0.0216559231 0.5682847228
0.0102739532 0.9202789970 0.1233587501 -0.5104387884 0.0084454969 0.6319631588
-0.1990553030 0.6285150258 -0.0323315309 -0.5000000000 0.0206059478 0.6281323914
-0.1129946001 0.7284347641 -0.3553502103 -0.5148875481 -0.0352889473 0.5990555607
0.2288098597 0.6923421230 -0.1130634304 -0.5000000000 -0.0384634513 0.5961834948
-0.1547999868 0.7308055743 -0.2522491215 -0.5000000000 -0.0384634513 0.5961834948
-0.1922923898 0.7482086321 -0.0365405864 -0.4829472289 0.0295313917 0.5846043036
0.2037863460 0.7164053966 0.0192316872 -0.4960752664 -0.0246327250 0.6229536723
0.1482330833 1.3077573435 0.1744658686 -0.5000000000 0.0384634513 0.5961834948
0.3268277342 0.9123628725 0.0576951769 -0.5162072675 -0.0037984197 0.5630305384
-0.0314457754 0.8925308862 0.0996549944 -0.4923013094 0.0040466243 0.5593781645
0.1571455265 0.6923421230 -0.2470628635 -0.5008400033 0.0383465993 0.5959734844
0.1194348819 0.8615024970 0.1133805616 -0.5064045493 0.0118506278 0.5606316499
0.0172734936 1.0784345160 0.1346220795 -0.4952858425 0.0069052665 0.5588474842
0.1970855128 0.6601480604 -0.3269393359 -0.5000000000 0.0000000000 0.5577200435
-0.1095618140 0.6696772266 -0.0961586282 -0.5000000000 0.0000000000 0.6346469461
0.2575868292 0.6923421230 -0.3601119086 -0.4870955121 -0.0351468633 0.5961834948
0.2718716550 0.6949448294 -0.3158155519 -0.4822733107 -0.0341256586 0.5961834948
-0.2045912706 0.5623100026 -0.0330973767 -0.4666622652 -0.0048869738 0.6116474177
0.0375297318 0.6923421230 -0.1175667313 -0.4999473820 0.0384576433 0.5961308768
0.2452664858 0.7144491840 -0.2289695791 -0.5129437206 0.0360524468 0.5935797884
0.2617696142 0.6923421230 -0.2724538186 -0.4864815200 -0.0353497580 0.5961834948
-0.0038092087 1.0209126169 0.0961586282 -0.4936457994 0.0085336167 0.5595384801
-0.0880208966 1.1121708860 0.1026369119 -0.4864391333 0.0095993620 0.5615956209
0.0938037996 0.9353600931 0.1139588211 -0.5016067722 -0.0138906908 0.5619050978
0.1485825237 1.2768457678 0.1730855308 -0.5000000000 0.0000000000 0.6346469461
0.4048153433 0.5800203449 -0.0340986188 -0.5000000000 0.0184695339 0.6298503229
0.3313953459 0.7246144587 -0.4100572771 -0.4934673290 -0.0363224602 0.6043708251
0.2737259780 0.6967990754 -0.3538251729 -0.4815429667 -0.0337404472 0.5961834948
0.4122744066 0.7308055743 -0.0963914859 -0.4944456853 -0.0373741663 0.6005575585
-0.3068061616 0.0375694068 0.0961586282 -0.5000000000 0.0000000000 0.5961660324
0.2038968130 0.9264586504 0.0961586667 -0.4878651658 0.0078204274 0.6307888312
-0.0987524687 0.7141926327 -0.0564213059 -0.5145952258 -0.0345835276 0.6015766092
-0.1538289385 1.2612419918 0.1023722064 -0.4673500301 0.0018525152 0.5773704054
0.3733472015 0.9571474458 0.0576951769 -0.4949410561 0.0000000000 0.6334526944
0.2596180072 1.1236098011 0.1202159015 -0.4907645792 -0.0065729807 0.6329110136
0.2230504194 0.6538786717 -0.4515046460 -0.5000000000 -0.0091749178 0.5961834948
0.2652013233 0.7089065237 -0.3322740242 -0.5113080624 0.0360828329 0.5896098602
0.1031918433 0.6923421230 -0.0987721043 -0.5000000000 -0.0384634513 0.5961834948
0.2013510710 0.6923421230 -0.1365030961 -0.5021488376 0.0378100726 0.5978948107
-0.1673577651 0.7308055743 -0.0343779404 -0.5000000000 -0.0367357884 0.6048391945
-0.2695965419 0.0000000000 -0.3753678596 -0.5000000000 -0.0384634513 0.5961834948
0.0927368234 1.0579644211 0.1346220795 -0.4988033251 -0.0005983374 0.6345327096
0.2570688035 0.6923421230 -0.1960905594 -0.4886985534 -0.0359002084 0.5961834948
0.1808333584 0.6923421230 -0.3372970433 -0.5000000000 -0.0384634513 0.5961834948
0.3846593794 0.7447125351 -0.2343691938 -0.4661183535 -0.0110614347 0.5961834948
0.4187788454 0.4371262002 -0.4195909050 -0.5000000000 -0.0110044319 0.6330105570
0.1584833238 0.6923421230 -0.3537989408 -0.5006608021 0.0383638309 0.5960733740
0.0696847539 1.2274601195 0.1697151324 -0.4980577880 0.0139355007 0.5608295059
-0.2541989300 0.7819163468 0.0168586461 -0.5330861454 0.0185853473 0.5953924939
0.1409796456 0.6574131552 -0.0961586282 -0.5000000000 0.0000000000 0.5577200435
0.3341591372 0.7121683782 -0.4423296897 -0.4943806821 0.0122961115 0.5615208479
-0.2654612208 0.3606633591 -0.4735469729 -0.5000000000 0.0153445708 0.5609195488
0.1811207957 0.6923421230 -0.1865258145 -0.5000000000 -0.0384634513 0.5961834948
-0.2307558411 0.6772031009 -0.2756057830 -0.5384634513 0.0000000000 0.5961834948
-0.1895652541 0.7308055743 -0.2180579211 -0.4815122344 0.0332914633 0.5961834948
0.0736602593 0.9831613164 0.1346220795 -0.5009679712 0.0000000000 0.6345014004
-0.2108701983 0.7308054974 -0.0630597129 -0.5038552302 -0.0379888508 0.5961834948
-0.1978410503 0.5891911086 -0.3380365416 -0.4655972507 0.0000000000 0.5789821009
-0.0437459255 0.6976494254 -0.1804195109 -0.4895793664 0.0363673855 0.6003863961
0.1788854153 0.6923421230 -0.2380876864 -0.5000000000 -0.0384634513 0.5961834948
-0.1754360900 0.7308055743 -0.3626447654 -0.5033058182 -0.0381361273 0.5961834948
0.3881667846 0.4986586448 -0.0185486532 -0.5004667924 -0.0153229543 0.5609476656
0.4668950075 0.0000000000 0.1074563054 -0.5000000000 0.0384634513 0.5961834948
0.0730833460 0.6923421230 -0.3046047252 -0.5000000000 -0.0384634513 0.5961834948
-0.0819677109 0.6974077980 -0.3142760523 -0.5176971109 -0.0341412748 0.5961834948
0.3004727312 0.7235458286 -0.3524668746 -0.4825196307 -0.0342555882 0.5961834948
-0.1606445467 1.3009417353 0.1550462106 -0.5219388603 0.0237384498 0.6153399090
0.1898877702 0.6923421230 -0.0537048631 -0.4974601045 -0.0382380939 0.5974534426
-0.1922923898 0.7346691895 -0.2626819480 -0.4734105623 0.0258243227 0.5961834948
0.0147982552 0.9838626590 0.0961586282 -0.4946317330 0.0076777664 0.5591346139
0.1675426589 0.6923421230 -0.3075240626 -0.5000000000 -0.0384634513 0.5961834948
0.1570840619 1.2625075162 0.1730855692 -0.5026076297 0.0046174989 0.5594118584
0.4635744193 0.0000000000 0.1544320646 -0.5000000000 0.0384634513 0.5961834948
0.3340809410 0.9668605827 0.0698101640 -0.4790023404 0.0018282448 0.6271362649
0.3459231069 0.7308055743 -0.2986447749 -0.5001220061 0.0384346422 0.5961834948
0.3100071669 0.7308055743 -0.0783986296 -0.5117708931 0.0358647067 0.5936714468
0.1321982859 0.6923421230 -0.4469521504 -0.5000000000 0.0384634513 0.5961834948
-0.0851391379 1.0267211366 0.0961585897 -0.4982838762 0.0034322476 0.5580245587
-0.2307558411 0.5846305741 -0.3583075497 -0.5384634513 0.0000000000 0.5961834948
0.1352942475 0.8846487250 0.1346220795 -0.4967970330 -0.0032040824 0.6342926977
0.1277062163 0.6923421230 -0.3534590393 -0.5000000000 -0.0384634513 0.5961834948
0.3458174478 0.9020743224 0.0961586282 -0.4750895689 -0.0010722841 0.6225446904
-0.2521521359 0.7692690256 -0.0339789975 -0.5168674542 0.0317749263 0.5944455238
-0.1538289385 1.0257051245 0.0941041029 -0.5168150285 -0.0005491042 0.6297735499
-0.2272259347 1.0174579451 0.0576951769 -0.4981838712 0.0000000000 0.5582230686
-0.1478997590 0.6672499905 -0.3269393359 -0.5000000000 0.0000000000 0.5577200435
-0.2736470894 0.0000000000 -0.5133746844 -0.5000000000 -0.0384634513 0.5961834948
0.3846593794 0.6889828790 -0.2238640175 -0.5384634513 0.0000000000 0.5961834948
-0.1855515545 0.7308055743 -0.0340365773 -0.5000000000 -0.0372493524 0.6036649823
0.4558073023 0.2116419482 -0.5256361018 -0.5000000000 0.0121632203 0.5596938725
-0.0571875171 0.6923421230 -0.2662857041 -0.5079290482 -0.0366991328 0.5961834948
0.4319920025 0.3195637383 -0.4670047630 -0.4622891246 0.0069899245 0.5961834948
-0.2307558411 0.5922766082 -0.3340574206 -0.5347784988 0.0000000000 0.6117932326
0.4626889906 0.0000000000 -0.1855947682 -0.5000000000 0.0384634513 0.5961834948
0.3846593794 1.1899191371 0.0777782911 -0.5265133185 0.0003612487 0.5780186299
0.4040518438 0.7308055743 -0.0657755403 -0.4961139221 -0.0370884983 0.6041320440
-0.0976750305 0.7131151176 -0.1929669425 -0.5165589389 -0.0347012642 0.5961834948
0.3153877806 0.8093485188 0.0593112188 -0.4869443123 -0.0162344227 0.6284059434
0.4177313703 0.5111602281 -0.0246231091 -0.4728022244 0.0000000000 0.5689857192
-0.1922923898 0.6846882808 -0.1343424117 -0.4615365487 0.0000000000 0.5961834948
0.0869224189 1.2545205806 0.1730855308 -0.5000000000 -0.0046717323 0.6338888315
-0.2703046540 0.0544466692 -0.5961834948 -0.5000000000 0.0000000000 0.6346469461
-0.1535821570 1.1129846188 0.0964053712 -0.5173043606 -0.0062130397 0.6297264322
0.3846593794 0.6722787406 -0.2584916627 -0.5384634513 0.0000000000 0.5961834948
0.3443828380 0.9249359978 0.0869686327 -0.4711221023 0.0096259787 0.6190400161
0.0819977894 0.8089997706 0.0974259220 -0.5002462046 0.0118578205 0.5596251767
0.1581176133 1.3077573435 0.1873756645 -0.5000000000 -0.0384634513 0.5961834948
-0.0369965899 0.7837463609 0.0961586282 -0.5001169674 -0.0001169674 0.6346277144
0.1123615686 0.7122777683 0.0391674094 -0.4980908281 -0.0263323095 0.6239045273
0.3846593794 0.7447009961 -0.2629123441 -0.4658684565 -0.0095634756 0.5993713072
0.1073895906 0.6923421230 -0.2283186237 -0.5000000000 0.0384634513 0.5961834948
0.1159538626 0.6635031888 -0.4807931410 -0.5000000000 0.0044169504 0.6336042404
0.2609772286 0.6923421230 -0.4041975626 -0.5134931710 0.0352781390 0.5961834948
-0.2307558411 0.7466403618 -0.0613120491 -0.4639647464 0.0029953413 0.5954346499
0.3825531208 0.7308055743 -0.2448403299 -0.4860618838 -0.0326900872 0.5961834948
0.4231228307 0.7217733943 -0.0687810744 -0.4615365487 0.0000000000 0.5961834948
-0.2376524148 0.4724385717 -0.0014394947 -0.5378610752 0.0065412484 0.5961834948
-0.1402456861 0.8702567785 0.0576951769 -0.4805284547 0.0108375390 0.5650550622
0.0095016841 1.3004494800 0.1730855308 -0.5007880007 -0.0015760399 0.6344313200
-0.2441542766 0.3161526071 -0.4907992924 -0.5000000000 0.0143740995 0.5605344527
0.1655063654 0.9563013268 0.1229943858 -0.4891828851 0.0001484689 0.6326363461
-0.2105376817 0.7561146406 -0.1548402388 -0.4765195631 0.0177918848 0.6183601361
0.2653964099 1.0773906949 0.0961585897 -0.5020799496 0.0008752358 0.5584069239
-0.2658495094 0.7692690256 -0.2198942047 -0.5271506195 0.0240212331 0.6024899623
0.0038356331 0.6923421230 -0.1708894600 -0.5000000000 -0.0384634513 0.5961834948
-0.1946400450 0.7692690256 -0.1806922552 -0.4792566223 0.0237833366 0.6100124133
0.1475058163 0.8551996451 0.1051623452 -0.5107220332 0.0098900688 0.5609944756
0.1746898221 0.8683718771 0.1183346156 -0.4932720500 -0.0069773470 0.6330326735
-0.2196517504 0.6136393244 -0.0186397731 -0.5000000000 0.0171238516 0.6306183611
-0.0022997874 0.6923421230 -0.2122334007 -0.4943973368 0.0376787584 0.5961834948
0.3236627691 1.0190367159 0.0802283744 -0.4848151679 -0.0092010730 0.6297705113
0.0976746074 0.8577036927 0.1346220795 -0.4978625860 -0.0084536896 0.6330522514
-0.2470273810 0.7308055743 -0.1927752022 -0.4991994217 -0.0339522269 0.5905229825
0.4231228307 0.8027341129 0.0759971640 -0.5384634513 0.0000000000 0.5961834948
-0.1306295925 0.7972423398 0.0576951769 -0.5149963996 -0.0144036009 0.6279932306
-0.0634579827 1.2413660033 0.1451576419 -0.5074139841 -0.0092634222 0.6326306151
0.3511295966 0.7687631158 -0.0192317256 -0.5193584627 0.0215648417 0.5724122742
