0.4886351687 0.0894399386 -0.1362651120 -0.5000000000 0.0196090365 0.2022617616
0.3665984791 0.1879936155 -0.0340908480 -0.4999949922 0.0155827491 0.2064112981
0.4047107119 0.2526994831 -0.1744760256 -0.4995692491 0.0208650636 0.2097231148
0.4405555636 0.2489648065 -0.1690125477 -0.5010798676 0.0208866512 0.2095868113
0.4276092227 0.2373540570 -0.1699525359 -0.4999679961 0.0188357759 0.2050865200
0.3814765668 0.1882727283 -0.0280895297 -0.4999943074 0.0155809125 0.2063910296
0.4052396651 0.3007053061 -0.1949956808 -0.5000000000 0.0203877329 0.2099208463
0.4191008191 0.1903699342 0.0170002314 -0.5000001206 0.0233152112 0.2066069868
0.4810083875 0.1849254563 -0.1010792680 -0.5006375914 0.0157551810 0.2068799712
0.3417835911 0.1241189383 0.0102780260 -0.5027503615 0.0195153984 0.2033969366
0.4618763626 0.1871063198 -0.0531674177 -0.4999944903 0.0233190050 0.2062274382
0.4952586698 0.2786232893 -0.1518608377 -0.5022074511 0.0203524411 0.2091639787
0.4885199858 0.1836153242 -0.0588567205 -0.4962361133 0.0202373828 0.2059170841
0.4835501343 0.2929011203 -0.1784655738 -0.5001223074 0.0179021885 0.2026013686
0.3374331753 0.1703930962 -0.0077292909 -0.5038840657 0.0194407370 0.2059349557
0.4713271941 0.1902734090 0.0117061737 -0.4999574591 0.0233149894 0.2065964070
0.4835845117 0.0234401489 0.0085549250 -0.5027489413 0.0193078420 0.2033983568
0.3587269042 0.1888051835 -0.0187060561 -0.5000664319 0.0233343318 0.2061791619
0.3429420734 0.0818940018 0.0091195592 -0.5027503615 0.0194158148 0.2033969366
0.4363807120 0.1854702772 -0.0883424874 -0.4999953969 0.0155999164 0.2065978311
0.4015598601 0.1899997747 0.0090416760 -0.5000002724 0.0233156587 0.2065638389
0.3482489249 0.1367272753 0.0151991305 -0.4961089499 0.0194552506 0.2061472981
0.4659140625 0.2451100171 -0.1609155331 -0.4985520858 0.0178680718 0.2029042868
0.4605936156 0.1855288492 -0.0870831296 -0.5000021206 0.0233210672 0.2060426872
0.4716714937 0.2984273531 -0.1818807796 -0.4983906578 0.0180992780 0.2028809561
0.3463157501 0.1457524999 0.0154858425 -0.5000000000 0.0195392428 0.2100343365
0.4178022784 0.1722931115 -0.1440472122 -0.4999985447 0.0177057216 0.2085569826
0.4002256385 0.1888200239 -0.0163229397 -0.5000015681 0.0233203863 0.2063662436
0.3977601874 0.1864662849 -0.0669284122 -0.5000044514 0.0233064875 0.2057473448
0.3372912142 0.0457785820 -0.1362651120 -0.5000000000 0.0192694646 0.2022615242
0.3471007772 0.2844403003 -0.1653357155 -0.4978198252 0.0206335928 0.2091177296
0.4767391351 0.1832099857 -0.1371039290 -0.5000162218 0.0232964252 0.2055592982
0.3904894023 0.1638029180 -0.1440472122 -0.5000000000 0.0195282973 0.2023119094
0.3665447437 0.1750972551 -0.0044780851 -0.5002705875 0.0233312851 0.2062106210
0.3633102383 0.2867559849 -0.1761571344 -0.4983672064 0.0208790208 0.2093680487
0.4074134158 0.1895625841 -0.0003577937 -0.4999995486 0.0155987219 0.2058139168
0.3839243253 0.1701556954 -0.1440472122 -0.4999993230 0.0181273169 0.2089137491
0.4393745793 0.1733210297 -0.0873129934 -0.5026658635 0.0201601960 0.2034814346
0.3458209953 0.1204873240 0.0077037423 -0.5000000000 0.0194870949 0.2022602596
0.4448113997 0.1848629816 -0.1013993185 -0.5000042840 0.0233285147 0.2058155121
0.4854740484 0.3164987439 -0.1760140449 -0.5023042449 0.0211049119 0.2087902550
0.4014846383 0.1721040843 0.0232679427 -0.5000000000 0.0196333751 0.2098815545
0.4903262813 0.2828515456 -0.1745807883 -0.4995544748 0.0176465815 0.2028285358
0.3691101208 0.2836037090 -0.1825966395 -0.5013352917 0.0179833636 0.2028229794
0.4924958803 0.0506251145 -0.1362651120 -0.5000000000 0.0196193595 0.2022607344
0.4633941678 0.2761611029 -0.1723844111 -0.5014856535 0.0209003788 0.2094342549
0.4051510192 0.2823070087 -0.1889501406 -0.5005119494 0.0180342430 0.2025690884
0.3836709245 0.2421860175 -0.1686736762 -0.5008823151 0.0177978305 0.2027411273
0.3404668247 0.1040221081 -0.1309171749 -0.4961089499 0.0194552506 0.2061472981
0.4508099437 0.2775335619 -0.1782355933 -0.5013709181 0.0209743944 0.2094535623
0.4647624128 0.1835769856 -0.1290483580 -0.5000029300 0.0233234291 0.2058151697
0.3907302194 0.3076409590 -0.1949511788 -0.4990190001 0.0209212737 0.2094005428
0.3956444990 0.1866675728 -0.0626004360 -0.4999954202 0.0155917491 0.2065092008
0.3326847828 0.2421760408 -0.1452707334 -0.5030959724 0.0204314528 0.2079274808
0.4280662772 0.1727087340 -0.0486656595 -0.5026552526 0.0189958654 0.2087904651
0.3558437645 0.1891633352 -0.0120838312 -0.4998824592 0.0155987608 0.2061057456
0.4115037811 0.1838262035 -0.1236899695 -0.5000023619 0.0232764291 0.2055099908
0.4837392354 0.1823777757 0.0196090404 -0.4999142335 0.0216743982 0.2079144769
0.3658551329 0.1863935223 -0.0684924976 -0.4999965214 0.0155935117 0.2065288584
0.4595432539 0.2686544306 -0.1744758778 -0.4986389107 0.0178966321 0.2028546137
0.4583499194 0.2726573095 -0.1733138624 -0.5014073072 0.0209327368 0.2094565156
0.3311637752 0.2719172590 -0.1624815796 -0.5032580385 0.0184871456 0.2042591466
0.4088166336 0.1673151549 -0.0674613109 -0.4998203852 0.0233362968 0.2061155510
0.4461290571 0.1870406700 -0.0545790946 -0.5000014981 0.0233192384 0.2062189129
0.4460939092 0.1884860084 -0.0235040711 -0.4999991089 0.0156017374 0.2059709557
0.3372991130 0.2407315935 -0.1443829943 -0.5000000000 0.0216887211 0.2092999825
0.4484898934 0.2798567873 -0.1834947405 -0.4987742025 0.0179138850 0.2027951351
0.4276770282 0.1781881108 0.0232679427 -0.5000000000 0.0180701574 0.2034754618
0.3705474164 0.2792436434 -0.1763595663 -0.4984954204 0.0209160247 0.2094171849
0.3394620622 0.2641032911 -0.1689624971 -0.5004102723 0.0177680912 0.2027555864
0.3528959088 0.2498738765 -0.1582655218 -0.5017529803 0.0180170718 0.2029858743
0.4208857994 0.2521512653 -0.1737351736 -0.5003111323 0.0208668302 0.2097508424
0.3794567655 0.1766472822 -0.1440472122 -0.5000000000 0.0220050946 0.2041991816
0.3477268005 0.2927107390 -0.1693870107 -0.4978412610 0.0207040403 0.2091026946
0.3904803790 0.1741567922 -0.0384187308 -0.5024973577 0.0208457329 0.2036762906
0.4187273639 0.1838122774 -0.1239896271 -0.5000025525 0.0232837131 0.2055479635
0.3963227713 0.2413847647 -0.1709830689 -0.5006847742 0.0177842819 0.2027039444
0.4759142091 0.2773214529 -0.1669627036 -0.5020147352 0.0207720286 0.2091920409
0.4023325993 0.3207047084 -0.2055531853 -0.5001338171 0.0189822117 0.2023168161
0.3684834439 0.1712061895 -0.0049223107 -0.4976357707 0.0178586671 0.2084466286
0.3357578564 0.1756461267 -0.1293008988 -0.5027513538 0.0194494373 0.2088986518
0.4273995185 0.2996108588 -0.1980282290 -0.5000000000 0.0177929745 0.2036852050
0.3371266928 0.2935859218 -0.1800625814 -0.5017780076 0.0181240328 0.2031879949
0.4578991646 0.1714647147 0.0232679427 -0.4996928444 0.0195065229 0.2099763015
0.4844629902 0.2891002842 -0.1766556557 -0.5003048249 0.0178833636 0.2026284191
0.4118935048 0.1855456663 -0.0867214642 -0.5000039883 0.0233057287 0.2057158157
0.3813287886 0.3229571595 -0.2029071818 -0.4999841401 0.0195824801 0.2060566639
0.3287936743 0.2757293714 -0.1553988295 -0.5030658284 0.0202526046 0.2081228193
0.4086097192 0.2609158790 -0.1782682197 -0.4997592179 0.0209501687 0.2097049552
0.4919427636 0.2453741961 -0.1536680865 -0.4989953425 0.0177436554 0.2041097497
0.3419102331 0.1773803444 -0.0883167170 -0.4964797125 0.0186428577 0.2063855043
0.4934117051 0.1404280375 -0.1296769377 -0.4972487046 0.0194726085 0.2088985935
0.3404668247 0.2129736319 -0.1366088785 -0.4961089499 0.0194552506 0.2061472981
0.4783917730 0.2690638664 -0.1659750695 -0.5001054864 0.0180448967 0.2029863257
0.4526061458 0.3223680623 -0.1986481395 -0.5013119609 0.0210946239 0.2094164456
0.4347004048 0.2741797140 -0.1828037601 -0.5006627392 0.0209307212 0.2096727957
0.4122331156 0.1852064251 -0.0940153116 -0.5000036809 0.0233003785 0.2056774927
0.3436855986 0.1770890331 -0.1202719738 -0.5035495482 0.0207233049 0.2058845160
0.3490189871 0.3013360531 -0.1741296444 -0.4978899497 0.0207732076 0.2091085001
0.3863099203 0.2924454939 -0.1882215182 -0.4991240157 0.0210337951 0.2095905389
0.3716924785 0.3210834165 -0.1998033845 -0.5011287586 0.0180675426 0.2027098510
0.3673390316 0.1850495185 -0.0973887509 -0.4999977432 0.0156025623 0.2066276404
0.3844413447 0.1903746696 0.0171019396 -0.5000001167 0.0233152034 0.2066075393
0.3752940267 0.3169001641 -0.1997255751 -0.5009143462 0.0180156126 0.2026520261
0.3500197768 0.1853439154 -0.0869739156 -0.4995276654 0.0156542822 0.2065613836
0.3978118411 0.1835242035 -0.1301829104 -0.4999983191 0.0156129047 0.2067402085
0.4187870331 0.2879377085 -0.1905441794 -0.5003996575 0.0202807018 0.2071913408
0.4925116741 0.2714098894 -0.1679377229 -0.4981315566 0.0180058539 0.2031372440
0.3326847245 0.1706255709 -0.1330684275 -0.5038177466 0.0194552506 0.2058367767
0.3380367005 0.1759672122 -0.0185922546 -0.4961148760 0.0194687720 0.2063595432
0.4592906236 0.1712062050 -0.0979441244 -0.4979858290 0.0171499123 0.2080715430
0.4812784147 0.0491602509 0.0108609909 -0.5027512059 0.0194379043 0.2033960922
0.4139450687 0.1859800943 -0.0773812747 -0.4999955486 0.0155964261 0.2065600101
0.3365757746 0.2141030481 -0.1354109175 -0.5020852138 0.0218570207 0.2074385975
0.3692104594 0.1828936511 -0.1437398698 -0.4999997237 0.0156170720 0.2067860801
0.3484933607 0.1890399266 -0.0122426405 -0.4994132569 0.0158083133 0.2057673954
0.4289820397 0.1833221257 -0.1345276297 -0.4999976304 0.0156143483 0.2067555548
0.3445409215 0.1861715729 -0.0681758322 -0.4985158523 0.0161639319 0.2059947067
0.4311432067 0.2596128130 -0.1769329553 -0.5005171128 0.0209127951 0.2097046634
0.4883585539 0.1703133725 -0.0617620937 -0.5038773225 0.0193703206 0.2063651230
0.3851370139 0.2401852745 -0.1646878401 -0.4996985175 0.0199226669 0.2075688349
0.4961088293 0.0121336133 -0.1328041591 -0.4961089499 0.0194552506 0.2061472981
0.3913057213 0.2673665786 -0.1758811383 -0.5009108987 0.0212187990 0.2089455157
0.4652208291 0.1750972551 -0.0038924159 -0.5001864513 0.0155695507 0.2061472981
0.4984903893 0.3120013515 -0.1833562230 -0.4977204283 0.0184637371 0.2032797848
0.3797125437 0.2468252231 -0.1702378238 -0.5009292100 0.0178098422 0.2027479211
0.4693271049 0.3175930706 -0.1882506738 -0.5016285835 0.0209609936 0.2093409203
0.4598427869 0.2615376027 -0.1709870455 -0.4986347006 0.0178797683 0.2028641779
0.4571107523 0.1700517032 -0.0111200220 -0.4973681637 0.0199499470 0.2034508471
0.4547625619 0.1893599305 -0.0047148010 -0.5000144124 0.0155996129 0.2058428040
0.3884783909 0.1902263428 0.0232679427 -0.5000000000 0.0156819670 0.2055776445
0.4622346777 0.1898060861 0.0048774819 -0.5001059261 0.0156003250 0.2057735939
0.3368009769 0.1437276364 -0.1362651120 -0.5000000000 0.0193949977 0.2022579600
0.3503287496 0.1862333044 -0.0691863847 -0.4995874125 0.0156565234 0.2065171424
0.4961088293 0.1569310161 -0.1326617817 -0.4961089499 0.0194552506 0.2061472981
0.3722975446 0.1851267442 -0.0957282141 -0.5000024669 0.0232574797 0.2054489947
0.4642285335 0.2822017092 -0.1785925738 -0.4984486656 0.0179898967 0.2029012790
0.4806146872 0.1880536583 -0.0353866261 -0.5000000000 0.0155713211 0.2062737417
0.3375330391 0.1529586858 -0.1362651120 -0.5000000000 0.0194140015 0.2022572402
0.4961088293 0.1727707496 -0.1346073962 -0.4961089499 0.0194552506 0.2061472981
0.4600946468 0.1782923365 -0.1440472122 -0.4999975603 0.0165222937 0.2075549516
0.3378103698 0.2700891114 -0.1700658200 -0.5016442177 0.0179833441 0.2033265047
0.3473327460 0.1633739803 0.0077037423 -0.5000000000 0.0195756124 0.2022602596
0.3647227167 0.1873435883 -0.0480664417 -0.5000043346 0.0232868454 0.2056700491
0.4757366255 0.1678300926 -0.1440472122 -0.5000000000 0.0186079588 0.2093992354
0.4484771307 0.1848143551 -0.1024445129 -0.4999969144 0.0156092121 0.2065577961
0.3588454100 0.1673151394 0.0033805171 -0.4987156461 0.0165609202 0.2075680878
0.4498132551 0.1698398005 -0.0294433000 -0.5025486456 0.0208435033 0.2087218503
0.4883267290 0.2433920524 -0.1524826509 -0.5038910501 0.0194552506 0.2061472981
0.4462338508 0.1862105962 -0.0724254621 -0.5000018405 0.0233202423 0.2061221580
0.3654351874 0.1866264872 -0.0634841986 -0.5000036809 0.0232755380 0.2055890102
0.3482489249 0.0946554438 0.0144098621 -0.4961089499 0.0194552506 0.2061472981
0.3582807758 0.1865536506 -0.0661370932 -0.4999821051 0.0155741032 0.2062394771
0.3529194808 0.1833378612 -0.1344182639 -0.4999914241 0.0156284650 0.2067934537
0.3527905236 0.1838790595 -0.1230532303 -0.5000183074 0.0232179816 0.2052675978
0.3381203542 0.1891839811 -0.0125863487 -0.5006509377 0.0229016237 0.2067336988
0.3404668247 0.1971307661 -0.1323542331 -0.4961089499 0.0194552506 0.2061472981
0.3979815882 0.1893938488 -0.0039857077 -0.5000005253 0.0233163902 0.2064932086
0.4081586064 0.2834126156 -0.1870360553 -0.4995790273 0.0210899624 0.2096249319
0.4961088293 0.0577800164 -0.1359062638 -0.4961089499 0.0194552506 0.2061472981
0.4011884244 0.2756547411 -0.1860155846 -0.5001311751 0.0185886203 0.2024050456
0.3837186599 0.1892532962 -0.0070073027 -0.4999933191 0.0155743211 0.2063190140
0.4918998959 0.1879200980 0.0019828986 -0.4962012767 0.0202093283 0.2059168701
0.3404668247 0.1122508658 0.0151106363 -0.5027437117 0.0194185580 0.2084945663
0.4335440002 0.1899438020 0.0078381625 -0.4999997043 0.0155976557 0.2057583137
0.3429825637 0.1814695501 -0.1076178975 -0.5034714548 0.0210191220 0.2058738584
0.4607173472 0.2582963113 -0.1656622641 -0.5014323072 0.0208741025 0.2094699203
0.4805446288 0.1479178071 0.0118357846 -0.5038655054 0.0194479043 0.2062550257
0.3753262680 0.1698081274 -0.1023229799 -0.5026314160 0.0202315851 0.2088288503
0.4653385645 0.2604564861 -0.1649376182 -0.5016037119 0.0208303983 0.2094013600
0.4546831806 0.2666428978 -0.1751380295 -0.4987044282 0.0178691963 0.2028409094
0.4961088293 0.1451505778 -0.1356452599 -0.4961089499 0.0194552506 0.2061472981
0.3521399750 0.1645130463 -0.1405519714 -0.4971326813 0.0194552506 0.2086188075
0.4809401696 0.1889624753 -0.0163015661 -0.5000037276 0.0155694378 0.2061801852
0.3642053432 0.2786943555 -0.1789533792 -0.5016876496 0.0179969900 0.2029693218
0.3538522239 0.1857803667 -0.0831258810 -0.4999457393 0.0156087141 0.2064727455
0.3327825688 0.1918701208 -0.1322761864 -0.5027513888 0.0194552506 0.2088986869
0.4868179510 0.1807419510 -0.0894939620 -0.4962523506 0.0202269470 0.2059180219
0.3703864553 0.1750972551 -0.0085012986 -0.5002531751 0.0233321956 0.2062148117
0.4081320072 0.1837245537 -0.1258752416 -0.4999978405 0.0156115857 0.2067256521
0.4889067990 0.2430860329 -0.1563207983 -0.4997289261 0.0171323754 0.2031185086
0.4542651378 0.1837886471 -0.1244974986 -0.5000035447 0.0233203007 0.2057401036
0.3358198408 0.1557212653 -0.1292390039 -0.5027513071 0.0194417214 0.2088986052
0.4250847561 0.1857420399 -0.0824997371 -0.5000045486 0.0233227559 0.2058114382
0.4747847618 0.1836564837 -0.1277273737 -0.5000381323 0.0233169505 0.2057488701
0.3994871016 0.1726095667 -0.1440472122 -0.4999988794 0.0176432586 0.2085039048
0.3295820244 0.2485161724 -0.1447919242 -0.5027512059 0.0200734723 0.2082373562
0.3657491524 0.1750972551 -0.0083062597 -0.5000256926 0.0233410672 0.2063282669
0.3922767017 0.3124635654 -0.2019429679 -0.5009015680 0.0180174142 0.2026494970
0.3813057497 0.1724171115 -0.0954261869 -0.5027308829 0.0193752467 0.2088823950
0.3408648597 0.3283997658 -0.1899761600 -0.4992096460 0.0193992272 0.2051488624
0.4368244629 0.1750972551 -0.0769404304 -0.5000436303 0.0233434135 0.2062259012
0.3857883912 0.1776421770 0.0232679427 -0.5000000000 0.0207320403 0.2089144651
0.4445721857 0.1845989972 -0.1070750221 -0.4999959844 0.0156057997 0.2066619829
0.4779220182 0.1864424016 -0.0692232835 -0.5001680583 0.0233221178 0.2060377884
0.3855586208 0.1876670824 -0.0411109717 -0.4999947626 0.0155849981 0.2064355977
0.4844357995 0.1766595740 -0.1335969022 -0.5038910501 0.0194552506 0.2061472981
0.4218723946 0.2666870846 -0.1845105458 -0.4996376498 0.0180461924 0.2025646565
0.3438938165 0.1677555829 0.0154858425 -0.5002075019 0.0196458459 0.2099824727
0.3419035249 0.2749491575 -0.1570608215 -0.4977046734 0.0205841376 0.2090568386
0.4562377952 0.1776892470 -0.1440472122 -0.5000018872 0.0222749312 0.2047154850
0.4399395131 0.1673151394 -0.0835853673 -0.4998664786 0.0155707413 0.2060348818
0.3956816663 0.1844257482 0.0232679427 -0.5000000000 0.0220777950 0.2077298816
0.4434312208 0.2926766884 -0.1916688485 -0.4988407044 0.0179470912 0.2027567810
0.3404668247 0.0899955028 0.0123866172 -0.5038071279 0.0194311183 0.2065012436
0.4348376732 0.2607757896 -0.1786673520 -0.4995096966 0.0177962041 0.2027086020
0.4808798467 0.2557591248 -0.1537018686 -0.5021960776 0.0205393166 0.2091595312
0.4048147936 0.1720776796 -0.0629111947 -0.4974957435 0.0178701768 0.2036713334
0.3584090210 0.2848790940 -0.1770130798 -0.5016857352 0.0180811301 0.2029242479
0.4871561377 0.1694598589 -0.0834054063 -0.5038790735 0.0193760366 0.2063651502
0.4884431570 0.1873648140 -0.0602390667 -0.4963028915 0.0205491687 0.2059121230
0.4402402951 0.1852825263 -0.0923788527 -0.5000045486 0.0233308065 0.2058401386
0.4276358842 0.3155490787 -0.2039294618 -0.4998924786 0.0184658071 0.2024091701
0.3584863828 0.1894692378 -0.0048413107 -0.4999128016 0.0155743172 0.2060286444
0.3841390179 0.2822943006 -0.1860930398 -0.5008497548 0.0179168539 0.2026787149
0.3710345681 0.1712062050 -0.1057804581 -0.5004258677 0.0158727607 0.2065601152
0.4735657814 0.1906335218 0.0187901728 -0.4999846459 0.0233149972 0.2066204264
0.4609041954 0.1750972551 -0.1036539369 -0.4998611673 0.0233409622 0.2060425549
0.3681686501 0.3152924094 -0.1956434667 -0.5013501905 0.0180893908 0.2027826059
0.3442764740 0.1652036532 -0.1309084472 -0.4962160861 0.0192316319 0.2063692475
0.4659045644 0.1750972551 -0.1091584421 -0.4998622724 0.0233407209 0.2060304148
0.4725732484 0.2586912451 -0.1638600931 -0.4985102220 0.0179371963 0.2028927109
0.4465079131 0.1698659834 -0.1440472122 -0.4999989416 0.0181845036 0.2089623795
0.3450623922 0.0786497493 0.0077037423 -0.5000000000 0.0194007447 0.2022602596
0.3924686511 0.1892614324 -0.0068325400 -0.4999970272 0.0155897685 0.2060363020
0.4875134412 0.1762538075 -0.0769759051 -0.4961528137 0.0197859626 0.2059249168
0.4829368153 0.1882785337 -0.0306647745 -0.5002441517 0.0156386129 0.2064502436
0.4693614823 0.1862619659 -0.0718787890 -0.4999821634 0.0233198532 0.2061297923
0.3612219817 0.2744694260 -0.1750134964 -0.5017178013 0.0180129823 0.2029738238
0.4866829355 0.1762472433 -0.0919240862 -0.5038275560 0.0189798771 0.2063850879
0.3326847245 0.0994272020 -0.1327915132 -0.5038469762 0.0194552506 0.2059605977
0.4883267290 0.1420952747 0.0143830099 -0.4961089499 0.0194552506 0.2061472981
0.4937901486 0.2272673617 -0.1464899823 -0.4976312532 0.0184404725 0.2033624580
0.4583259350 0.2878057824 -0.1840013358 -0.4986557939 0.0179401301 0.2028275086
0.4961088293 0.2229037319 -0.1396606952 -0.4961089499 0.0194552506 0.2061472981
0.3491056719 0.1867415222 -0.0570617947 -0.4986470391 0.0160717413 0.2061118000
0.3880470485 0.1730851737 -0.1440472122 -0.5000000000 0.0213182075 0.2036757848
0.3608128456 0.1858536001 -0.0801006635 -0.4999783658 0.0233227248 0.2058156911
0.3907522466 0.1687744466 -0.0362589450 -0.5026236028 0.0181283208 0.2036088237
0.3979884753 0.1717942633 -0.0787434341 -0.5026405289 0.0189255074 0.2087738892
0.3482489249 0.1187027872 0.0124647495 -0.4961089499 0.0194552506 0.2061472981
0.4343134126 0.1863951837 -0.0684566338 -0.5000017626 0.0233200166 0.2061436755
0.4827918853 0.0930170121 0.0093475942 -0.5027507273 0.0194412000 0.2033965708
0.3404668247 0.2067261696 -0.1364905205 -0.4961089499 0.0194552506 0.2061472981
0.3765320655 0.2620601396 -0.1711689638 -0.4988149223 0.0208937095 0.2095491109
0.4168132474 0.1854588765 -0.0885875457 -0.5000040467 0.0233093902 0.2057325238
0.3477700261 0.3088513324 -0.1763393795 -0.4978345722 0.0208494488 0.2090337374
0.4054422449 0.1840361451 -0.1191761296 -0.5000023852 0.0232736470 0.2055016133
0.3637588569 0.1851303395 -0.0956512375 -0.5000022257 0.0232486548 0.2054025822
0.3499802321 0.1668875091 -0.1425801735 -0.5022336379 0.0195363673 0.2037973100
0.4604910787 0.1741847572 -0.0084587850 -0.4973124361 0.0189404880 0.2034571817
0.4286053783 0.2570480741 -0.1758338193 -0.5005661984 0.0208921376 0.2097118463
0.3505216523 0.2678589405 -0.1609987432 -0.4979842532 0.0205546279 0.2092665779
0.3917775539 0.1750972551 -0.0835010561 -0.5005533579 0.0160158736 0.2067401579
0.3949259699 0.1880722263 0.0232679427 -0.5000000000 0.0228011957 0.2070931112
0.4253607794 0.1867949580 -0.0598617204 -0.5000018677 0.0233206314 0.2061703370
0.3471988589 0.1168332816 0.0077037423 -0.5000000000 0.0194795541 0.2022602596
0.3854922395 0.2665667071 -0.1793176904 -0.5008295369 0.0178700017 0.2026945981
0.3365757746 0.2269102022 -0.1470665504 -0.5038910501 0.0194552506 0.2061472981
0.3808962595 0.1873413354 -0.0481148308 -0.4999952023 0.0155871771 0.2064594576
0.4221540016 0.1869204716 -0.0571631137 -0.5000029144 0.0233249699 0.2061031580
0.3404668247 0.0689263613 -0.1300491750 -0.4961089499 0.0194552506 0.2061472981
0.4261794680 0.1888095920 -0.0165470408 -0.4999992412 0.0156008308 0.2059237573
0.4743577541 0.1891918176 -0.0114856095 -0.5000309766 0.0155887919 0.2058648623
0.4082219566 0.1897351211 0.0033516922 -0.4999996187 0.0155982394 0.2057887495
0.4580496160 0.1890219227 -0.0119819324 -0.4999862335 0.0233165225 0.2064516638
0.4815528349 0.1808836902 0.0154858425 -0.5012891749 0.0195329665 0.2097319903
0.3459870614 0.2852319734 -0.1749737766 -0.4991857355 0.0179225037 0.2026919483
0.3411310853 0.1668832912 -0.0742917848 -0.4961148526 0.0194717253 0.2063599012
0.3469923609 0.2746142042 -0.1697575282 -0.4991018211 0.0178689706 0.2027513841
0.4449464113 0.1694141586 -0.0338845718 -0.5025265055 0.0209140286 0.2086926013
0.4825969671 0.1863679464 -0.0686399178 -0.5000860856 0.0232837637 0.2058616989
0.4810155743 0.1851285107 -0.0968149728 -0.5005835097 0.0157409125 0.2068417027
0.3977880902 0.2594414473 -0.1796790912 -0.5006864085 0.0178364570 0.2026832324
0.3499827263 0.3043482084 -0.1762007142 -0.4979280547 0.0207939197 0.2091277530
0.3433492524 0.1692251586 -0.1142183014 -0.4962686269 0.0191130288 0.2063725549
0.4518296089 0.1896140316 0.0007483929 -0.5000004319 0.0233161256 0.2065188778
0.4024122764 0.1848537948 -0.1015966142 -0.5000030700 0.0232842345 0.2055818507
0.4978219691 0.2532838294 -0.1411010180 -0.4975843232 0.0204314995 0.2089622666
0.3336164598 0.2821779621 -0.1534503044 -0.4976887668 0.0207215422 0.2089815974
0.3587376474 0.3060405078 -0.1869216428 -0.5016488325 0.0181224920 0.2028866137
0.4520030953 0.1684542482 -0.0989597818 -0.5024469569 0.0177433636 0.2037099404
0.4392975754 0.2836573821 -0.1859970632 -0.5009259454 0.0209792154 0.2095941809
0.4957711172 0.3287194584 -0.1873350241 -0.4993412841 0.0191013168 0.2042255940
0.3500138975 0.1892616386 -0.0079195204 -0.4994674670 0.0157739086 0.2058019868
0.3896765931 0.2962496491 -0.1904071482 -0.4991335643 0.0210403360 0.2095914105
0.3997161600 0.1860663044 -0.0755278352 -0.4999958716 0.0155958075 0.2065534459
0.4659036734 0.1840012463 -0.1199263630 -0.4999972685 0.0156143016 0.2066251424
0.3370640547 0.1852189387 -0.0010848754 -0.5038535560 0.0195981455 0.2059304810
0.4771016059 0.3241062605 -0.1860521293 -0.5019412760 0.0209071259 0.2091693872
0.4981208524 0.2787041532 -0.1689665049 -0.4977379691 0.0181671885 0.2034890572
0.3326847245 0.0626796422 -0.1326887972 -0.5038578205 0.0194552506 0.2060065355
0.4883267290 0.1878968840 -0.1309736379 -0.5037432019 0.0194552506 0.2067735860
0.4330669419 0.1845971879 -0.1071137925 -0.4999963113 0.0156057802 0.2066619323
0.3866070215 0.3141347598 -0.1985827698 -0.4990821908 0.0211102309 0.2095458969
0.4811847260 0.0891514990 0.0109547107 -0.5027505016 0.0194924529 0.2033967965
0.3705708678 0.1718296485 -0.0185091923 -0.5027261748 0.0196630638 0.2034211233
0.4961088293 0.0845052583 -0.1333873769 -0.4961089499 0.0194552506 0.2061472981
0.4737136802 0.1715753256 0.0047638593 -0.4974184011 0.0181808927 0.2035370844
0.3953536313 0.1849041567 -0.1005138906 -0.5000029144 0.0232777326 0.2055490958
0.4891341998 0.1900178253 -0.1362651120 -0.5000000000 0.0194555657 0.2022562519
0.4867672467 0.1889374208 -0.0177388305 -0.5018947235 0.0169077139 0.2062936444
0.3671195335 0.2681637303 -0.1696092714 -0.4984675838 0.0208470636 0.2094324806
0.4812988388 0.1266280431 0.0108405668 -0.5027499063 0.0195366513 0.2033973918
0.3438667426 0.3104572738 -0.1871804210 -0.4991771985 0.0181056243 0.2026271507
0.4909469661 0.1906614556 0.0116912126 -0.5025935133 0.0185397526 0.2040680766
0.4162093681 0.3157225962 -0.2000014506 -0.5000057821 0.0208015617 0.2097674805
0.3493503489 0.1845393279 -0.1030656140 -0.4994764670 0.0156607413 0.2066417027
0.3590817719 0.2532895726 -0.1603042336 -0.4983175800 0.0206505656 0.2094390409
0.4570244838 0.2538277865 -0.1682551315 -0.4986725371 0.0178470873 0.2028641117
0.3468508161 0.3084546009 -0.1858720243 -0.4984639729 0.0182811457 0.2029738082
0.4571574215 0.3135537676 -0.1962719569 -0.4986095605 0.0180189784 0.2028159405
0.3330813937 0.0196813751 -0.1362650808 -0.5013245173 0.0193818809 0.2025187499
0.3327379813 0.2237564750 -0.1423527727 -0.5001161945 0.0181716943 0.2024922285
0.4872547564 0.3060455545 -0.1700925982 -0.5023073655 0.0209699313 0.2088591966
0.4362034240 0.3039482746 -0.1939137898 -0.5002143463 0.0206121220 0.2096847062
0.4216314024 0.3068837801 -0.2014310574 -0.4998842763 0.0182003285 0.2024964114
0.4160611113 0.1885186193 -0.0228031879 -0.5000008872 0.0233174485 0.2063911891
0.4278297947 0.1860578569 -0.0757093683 -0.5000049261 0.0233309194 0.2058639090
0.4090624351 0.2746712898 -0.1867298102 -0.5003633852 0.0179819511 0.2025793374
0.3439931472 0.1145964920 0.0080684543 -0.5027500619 0.0194213790 0.2033972362
0.3561102275 0.1750972551 -0.1159968420 -0.4999031284 0.0155707763 0.2062626522
0.4869900716 0.1728284616 -0.1349284545 -0.5026857818 0.0199960054 0.2034615163
0.4035983035 0.1898082845 0.0049247426 -0.4999996498 0.0155980331 0.2057780802
0.3451710420 0.0320079611 0.0154858425 -0.5000000000 0.0193044763 0.2100343365
0.3404668247 0.2297691941 -0.1472935620 -0.4968931015 0.0191615152 0.2045876135
0.3382222997 0.3284062094 -0.1769909320 -0.4976861404 0.0211136589 0.2087924340
0.3482489249 0.1686684388 0.0144913484 -0.4988681285 0.0178420757 0.2074673368
0.3357438447 0.2307128049 -0.1400892205 -0.5000685603 0.0209899508 0.2096828774
0.4870619704 0.0896510981 0.0077037267 -0.5000000000 0.0194234490 0.2022602596
0.3551985622 0.3117546278 -0.1884629889 -0.5016504512 0.0181187527 0.2028882712
0.4355484241 0.2775364412 -0.1841350167 -0.5006995680 0.0209447251 0.2096586323
0.4878402271 0.1903417630 0.0018025406 -0.4982353504 0.0218207133 0.2061421658
0.4768388822 0.1712062050 -0.0007927898 -0.5016030232 0.0167146167 0.2076861539
0.3866652082 0.1870517712 -0.0543402969 -0.5000046848 0.0233047793 0.2057558468
0.3741928401 0.1867607440 -0.0605973195 -0.5000040584 0.0232869077 0.2056529557
0.4415583689 0.2544936697 -0.1712752712 -0.5011029882 0.0209086628 0.2095714378
0.4124638977 0.2876695217 -0.1899992572 -0.4998597121 0.0211690480 0.2096227179
0.3326847245 0.2250654476 -0.1383350222 -0.5024113849 0.0202589664 0.2080048193
0.3404668247 0.0389170653 0.0127673876 -0.5037667700 0.0194195113 0.2066714537
0.4052959492 0.1718417614 -0.0421967070 -0.4974660626 0.0209791842 0.2086354885
0.3747562875 0.1885623780 -0.0218621764 -0.5000057665 0.0233177676 0.2058694693
0.4961088293 0.1683334544 -0.1358041704 -0.4961089499 0.0194552506 0.2061472981
0.4863345386 0.1690373181 -0.0981936963 -0.5038790890 0.0193709588 0.2063656210
0.4045889376 0.1743238661 -0.0721429991 -0.5025360620 0.0186150250 0.2087275818
0.3372191947 0.1779815388 -0.0038777816 -0.4961148721 0.0194692467 0.2063592669
0.4870470093 0.2766806125 -0.1576758020 -0.5023216845 0.0206705578 0.2089977024
0.4058301865 0.2644750381 -0.1817156940 -0.5005188754 0.0179007177 0.2026257304
0.3408388558 0.0638043892 0.0112227613 -0.5027507662 0.0194686864 0.2033965319
0.3937780595 0.1673151549 -0.0337628130 -0.5000370467 0.0156403561 0.2063143953
0.4871993012 0.1550287128 0.0154858425 -0.5000000000 0.0195583867 0.2100343365
0.4785612827 0.2505223316 -0.1533344990 -0.5021209297 0.0205734061 0.2092007296
0.4102535128 0.1848381217 -0.1019339099 -0.4999967315 0.0156040993 0.2066438622
0.4132030883 0.1901727436 0.0127606794 -0.4999997977 0.0155970137 0.2057249168
0.3774263961 0.3237349415 -0.1999340342 -0.4987284321 0.0211163943 0.2094103055
0.3430184275 0.1045387812 0.0090432051 -0.5027506728 0.0194458070 0.2033966253
0.3891266826 0.1902203739 0.0137850061 -0.5000001829 0.0233153902 0.2065895548
0.3635506390 0.3234359727 -0.1969151980 -0.5016091477 0.0181619550 0.2028498355
0.3491693217 0.1832983047 -0.1320695094 -0.4994083191 0.0156713327 0.2067727144
0.4124286915 0.1861488608 -0.0737528004 -0.4999954319 0.0155952861 0.2065475860
0.4883267290 0.0684817427 0.0116583060 -0.4961089499 0.0194552506 0.2061472981
0.3951257014 0.1857246585 -0.0828733986 -0.5000036809 0.0232912851 0.2056450413
0.4999998794 0.2656491625 -0.1504144605 -0.4962085219 0.0195356474 0.2064114615
0.4177771033 0.1864397596 -0.0674985366 -0.4999950078 0.0155933405 0.2065262980
0.4957913040 0.0931421094 -0.1320565366 -0.4972496735 0.0195346124 0.2088976246
0.4856128033 0.1876822809 -0.0985768286 -0.4967381599 0.0211069585 0.2059477300
0.3498327496 0.1901281094 0.0089766059 -0.5002986770 0.0231988610 0.2063945782
0.3602039157 0.2702669946 -0.1679810070 -0.4983211014 0.0207501882 0.2093988736
0.4864842740 0.1673151549 -0.1274288796 -0.4998030234 0.0155702938 0.2061133993
0.3401508442 0.2107988695 -0.1401561310 -0.5000000000 0.0194552506 0.2022562480
0.4744563144 0.1833997289 -0.1331194548 -0.5000255331 0.0233166431 0.2057238935
0.4961088293 0.2416723094 -0.1516585576 -0.4967067747 0.0189641300 0.2045843566
0.3441453807 0.1809714723 -0.1285495098 -0.4972521171 0.0169430252 0.2064317339
0.4819537220 0.1852747481 -0.0910502692 -0.5000591479 0.0232859777 0.2057460063
0.3401753033 0.1818184839 -0.0570878297 -0.4963691522 0.0188822701 0.2063791035
0.4794589402 0.1745501190 0.0105091622 -0.4972780937 0.0192284023 0.2034217031
0.4129455903 0.3001858821 -0.1987519254 -0.5000171517 0.0173410757 0.2028995203
0.3388483229 0.1689545555 -0.0332022178 -0.4961147865 0.0194846008 0.2063574343
0.4715294743 0.1855492266 -0.0875689778 -0.5000215914 0.0156106596 0.2063960296
0.4712987544 0.2871952222 -0.1773155856 -0.4984134944 0.0180413714 0.2028942051
0.4993831168 0.2814087287 -0.1545947168 -0.4974841365 0.0205370209 0.2088328620
0.3735209802 0.2432438889 -0.1675561043 -0.5011235446 0.0178114103 0.2028196915
0.3485594424 0.2510779113 -0.1522184097 -0.4979147240 0.0204319158 0.2092674339
0.3287936743 0.2809074447 -0.1637471981 -0.5033890229 0.0187783051 0.2046701348
0.4074834197 0.2514288024 -0.1766979281 -0.5004760778 0.0178043908 0.2026628238
0.3708701673 0.1882393897 -0.0288067047 -0.4999946381 0.0155811071 0.2063933097
0.3359229108 0.1986935013 -0.1293857743 -0.5025722565 0.0203986007 0.2088940254
0.4517844260 0.2538057748 -0.1671254468 -0.5013426263 0.0209087056 0.2094959358
0.3576418071 0.1834045499 -0.1327555326 -0.4999674981 0.0233007910 0.2056272476
0.4096984973 0.1743877805 -0.0576368491 -0.5025108168 0.0208538457 0.2036583723
0.4304369072 0.1750972551 -0.0781566209 -0.5023595250 0.0212187601 0.2038262595
0.4228614840 0.1747195704 0.0232679427 -0.5000000000 0.0187582584 0.2028697693
0.4334291753 0.1792433869 -0.1440472122 -0.5000014942 0.0225602619 0.2048681698
0.3404668831 0.1270283349 0.0124857378 -0.5037966221 0.0194280949 0.2065455549
0.3554793326 0.1673151549 0.0056096686 -0.4994263775 0.0160885039 0.2069388427
0.3365757746 0.1743773447 0.0120820958 -0.5038721124 0.0196090716 0.2061472981
0.4754691508 0.1712062050 -0.1118000799 -0.4995962063 0.0159501382 0.2065394498
0.4451790961 0.2509266312 -0.1718440921 -0.4988425099 0.0178044687 0.2028223179
0.3832300802 0.2912459260 -0.1899347203 -0.5008631244 0.0179434648 0.2026701896
0.4092284429 0.2996108588 -0.1960141904 -0.5000490545 0.0193399354 0.2073584730
0.4155131036 0.1730440881 -0.0612188331 -0.5027349802 0.0193768420 0.2088802160
0.4656074049 0.3043521851 -0.1840919116 -0.5015563072 0.0209566706 0.2093765156
0.3368748952 0.1709913646 0.0023197935 -0.4961147320 0.0194949315 0.2063554187
0.4839824261 0.1543212576 0.0081569796 -0.5027507934 0.0194829159 0.2033965046
0.4698301087 0.1888048722 -0.0186340989 -0.4999664669 0.0233167209 0.2064259673
0.4926788063 0.3005522128 -0.1633473499 -0.5022854744 0.0207921687 0.2089588425
0.4708400385 0.1846501334 -0.1062199677 -0.5000203502 0.0156130254 0.2065288661
0.3855859321 0.1883033625 -0.0274309967 -0.4999941634 0.0155807180 0.2063888428
0.3484500805 0.1750972551 0.0037700618 -0.5022148674 0.0217223826 0.2040012478
0.4883267290 0.1867471020 0.0140821695 -0.4961089499 0.0194552506 0.2061472981
0.4143153761 0.2824514601 -0.1882076855 -0.5000107938 0.0211509858 0.2096460175
0.3645415689 0.1857283239 -0.0827942546 -0.4999971829 0.0155979864 0.2065777183
0.4474547923 0.1882571874 -0.0284236931 -0.5000009922 0.0233177637 0.2063607183
0.3396114435 0.1480539510 -0.1284830117 -0.5000000000 0.0194074412 0.2100371614
0.3442432873 0.1838199973 0.0078183181 -0.5027510113 0.0195123868 0.2033962867
0.4409853028 0.1849932150 -0.0985994200 -0.4999957160 0.0156031382 0.2066329595
0.4883267290 0.0314412336 0.0087965281 -0.4961089499 0.0194552506 0.2061472981
0.4019206694 0.2843416233 -0.1893567281 -0.5000384047 0.0189380989 0.2023159289
0.4240803477 0.1842523941 -0.1145268033 -0.4999968911 0.0156080759 0.2066871229
0.4999998794 0.3215168367 -0.1858323044 -0.4969203934 0.0188614530 0.2041679404
0.3375803620 0.1612601907 -0.1362651120 -0.5000000000 0.0194230833 0.2022570223
0.3407217702 0.1203565652 0.0154858425 -0.5022260425 0.0194318381 0.2090534767
0.3427896026 0.1872911175 -0.0463447220 -0.4987726072 0.0160264455 0.2059195121
0.3716388637 0.2503952149 -0.1637917273 -0.4985786733 0.0208240247 0.2094982393
0.4340333504 0.1885086893 -0.0230167988 -0.4999991167 0.0156016752 0.2059676522
0.3729030270 0.1859408219 -0.0782256443 -0.4999967471 0.0155965779 0.2065622358
0.4569886239 0.1869005222 -0.0575921098 -0.4999984591 0.0156061810 0.2062022319
0.3482489249 0.0658140621 0.0149554068 -0.4961089499 0.0194552506 0.2061472981
0.4499486831 0.3038921657 -0.1944539337 -0.4987593659 0.0179702897 0.2027738471
0.3576735113 0.1758804107 0.0199243828 -0.4995825681 0.0182070717 0.2031721623
0.4874466474 0.1688860691 -0.0781767493 -0.5038843653 0.0194182817 0.2063629634
0.3409656729 0.1668162756 -0.0697042640 -0.5038255637 0.0190122467 0.2060209051
0.4883266707 0.0689450967 0.0077663220 -0.4961089499 0.0194552506 0.2061472981
0.4724295053 0.1901113817 0.0079363804 -0.5000445953 0.0155988503 0.2057233293
0.3420990385 0.1750972551 -0.1272800625 -0.4999895953 0.0155845351 0.2065208622
0.4961088293 0.0905842264 -0.1350439915 -0.4961089499 0.0194552506 0.2061472981
0.4199231303 0.1890115609 -0.0122046717 -0.4999993230 0.0156002666 0.2058942942
0.3785326878 0.3150697013 -0.1995893456 -0.5008911633 0.0180110212 0.2026468277
0.4644610354 0.1750972551 -0.0076882170 -0.5003436537 0.0155820098 0.2061472981
0.3686598369 0.2434204064 -0.1660079333 -0.5014609298 0.0178429006 0.2029502829
0.3825118507 0.1736298273 -0.0197031766 -0.4973183933 0.0202595579 0.2087712822
0.4657839769 0.2862788954 -0.1796917098 -0.4984060508 0.0180159278 0.2029096759
0.4848268267 0.1825322309 -0.1253342378 -0.4963590549 0.0206294294 0.2059124654
0.4188671849 0.2500817870 -0.1771589008 -0.4999758755 0.0178376632 0.2026389950
0.4646040043 0.1699807071 -0.1440472122 -0.5000008521 0.0207506551 0.2033834813
0.4934516623 0.3251226300 -0.1732519091 -0.5022916028 0.0210715656 0.2088333950
0.3800023413 0.2745077179 -0.1821327874 -0.5008927976 0.0178910757 0.2027015553
0.4870819198 0.1884697555 -0.0700689293 -0.4967479420 0.0210067095 0.2059557534
0.4751026450 0.2861740122 -0.1714136680 -0.5019430854 0.0208074800 0.2092219164
0.4411922756 0.2641356919 -0.1797075931 -0.4989192453 0.0178415270 0.2027814541
0.3326847245 0.2840338334 -0.1696145554 -0.5031341864 0.0186308538 0.2040346096
0.4827456363 0.1743373447 0.0060136685 -0.5026779724 0.0191044218 0.2088160371
0.4589301100 0.2539498293 -0.1645204082 -0.5013903111 0.0208784761 0.2094883522
0.4039037198 0.1750972551 -0.0650475447 -0.5000931984 0.0155666557 0.2061472981
0.4170746053 0.2740588930 -0.1882252302 -0.4999258210 0.0180381535 0.2025393686
0.3752101940 0.2926014667 -0.1847079038 -0.4986779340 0.0209937134 0.2094520136
0.3946570711 0.1882343275 -0.0289153273 -0.4999939728 0.0155812043 0.2063940607
0.4883267874 0.1318844899 0.0099848548 -0.4961089499 0.0194552506 0.2061472981
0.4487042319 0.1845010633 -0.1091804071 -0.4999959611 0.0156064689 0.2066692474
0.3699921013 0.3006378898 -0.1902312844 -0.5012563851 0.0180263636 0.2027738549
0.3680920587 0.3239781049 -0.1954657313 -0.4983572298 0.0210518224 0.2092893600
0.4844356789 0.1875593354 -0.1030103378 -0.5031412642 0.0202809781 0.2061992164
0.3547222121 0.1884439150 -0.0269915337 -0.4997203891 0.0156244767 0.2062248078
0.4872709043 0.0369599800 0.0154858425 -0.5000000000 0.0193146981 0.2100343365
0.4839438346 0.1088244460 0.0081956021 -0.5027500697 0.0194180560 0.2033972284
0.4944826116 0.0315737238 -0.1362651120 -0.5000000000 0.0195545268 0.2022584581
0.4557048653 0.1901525413 0.0123261736 -0.4999816926 0.0233150672 0.2065839634
0.4927424561 0.0593023002 -0.1362651120 -0.5000000000 0.0195973906 0.2022600690
0.4264100128 0.1673151549 -0.0717682676 -0.5007032917 0.0161274144 0.2053303604
0.4472927029 0.2985498083 -0.1927952374 -0.4987872959 0.0179660484 0.2027663374
0.3351491094 0.1010477933 -0.1299096769 -0.5027511787 0.0194205541 0.2088984767
0.4999998794 0.3304078395 -0.1871186700 -0.4962246075 0.0193800521 0.2058697028
0.4337209924 0.1728040725 -0.0352288907 -0.4974001482 0.0182441067 0.2035388509
0.4170822629 0.2461437407 -0.1753413524 -0.5001148677 0.0177769512 0.2026634191
0.3327009346 0.0529941220 -0.1362651120 -0.5018532293 0.0194203712 0.2029023335
0.4160620646 0.1852086936 -0.0939665645 -0.5000037899 0.0233044019 0.2056987651
0.3891068500 0.1872140669 -0.0508511417 -0.4999950895 0.0155880565 0.2064689401
0.3376132531 0.2808090050 -0.1747414809 -0.5016117196 0.0180332274 0.2032152206
0.3417352642 0.0346722410 0.0103262945 -0.5027505405 0.0193953051 0.2033967576
0.3818785785 0.1740956677 -0.0298169614 -0.5024862837 0.0208662737 0.2036900143
0.4879068458 0.1758236636 -0.0698927737 -0.5038352447 0.0190463401 0.2063814420
0.3326847245 0.2566851597 -0.1436190761 -0.5029430424 0.0202319820 0.2085504807
0.4602592305 0.3204633271 -0.1979088010 -0.4984657550 0.0180806282 0.2028559483
0.4883267290 0.0870223942 0.0113952710 -0.4961089499 0.0194552506 0.2061472981
0.4299609773 0.2905408755 -0.1943882684 -0.5006349338 0.0182831379 0.2036085358
0.3975022731 0.1673151394 -0.0427686135 -0.5006863929 0.0160862043 0.2054200414
0.4584831529 0.1882530901 -0.0285118176 -0.5000181051 0.0156027997 0.2060040685
0.3576848537 0.1673151549 -0.1184347756 -0.4996932685 0.0233301256 0.2061570685
0.4566966862 0.2574307627 -0.1671357464 -0.5013677275 0.0209034839 0.2094877335
0.3388014786 0.1902273506 0.0035636844 -0.4995037627 0.0156961382 0.2056586795
0.3326847245 0.1114971616 -0.1358342754 -0.5028205211 0.0194399977 0.2039456408
0.3404704473 0.1723068858 -0.0623996695 -0.5037561435 0.0199329120 0.2059153292
0.4999998794 0.3104014917 -0.1714553801 -0.4961089499 0.0194552506 0.2061472981
0.3614363163 0.1707741195 -0.1440472122 -0.5000000000 0.0208725695 0.2033362167
0.4501002006 0.2512299035 -0.1695959718 -0.4987654865 0.0178223714 0.2028406331
0.4492601968 0.1885805025 -0.0214727523 -0.4999991479 0.0156014728 0.2059571736
0.4873405502 0.1871830319 0.0193768770 -0.4998920739 0.0205784956 0.2096299553
0.3362188252 0.0839246864 -0.1288399300 -0.5027511397 0.0194139237 0.2088984378
0.4808650023 0.3269682913 -0.1942706497 -0.5025510425 0.0187530094 0.2035660805
0.3482489249 0.1318797312 0.0140131306 -0.4961089499 0.0194552506 0.2061472981
0.3883694415 0.1826835149 -0.1440472122 -0.5000007782 0.0231974953 0.2052359208
0.4279525184 0.1750972551 -0.0751889676 -0.5021092877 0.0214399896 0.2041091155
0.3730695678 0.2900899689 -0.1871762342 -0.5010813695 0.0179615543 0.2027358588
0.3741982447 0.1738977923 -0.0221366549 -0.5024935172 0.0208026356 0.2036829287
0.4805446288 0.1131227996 0.0152880137 -0.5026368051 0.0194211689 0.2086620682
0.3657617360 0.1906433622 0.0222405421 -0.4999699261 0.0155668425 0.2061586055
0.4902159078 0.1673151549 -0.1355663844 -0.5006091361 0.0161288619 0.2052452321
0.3623339154 0.1861248453 -0.0742692829 -0.4999933346 0.0232898844 0.2056500608
0.4684118754 0.1743573214 -0.0083201079 -0.5027255366 0.0193317175 0.2088695857
0.3641147985 0.1832917600 -0.1351804623 -0.5000005058 0.0232181295 0.2051867379
0.3771458008 0.1868683705 -0.0582835066 -0.5000042412 0.0232917910 0.2056819013
0.3373806305 0.1073865357 -0.1362651120 -0.5000000000 0.0193526319 0.2022590573
0.4521729046 0.2634009099 -0.1713573529 -0.5013572800 0.0209329080 0.2094785350
0.4503236791 0.1839014253 -0.1220724522 -0.4999964786 0.0156105078 0.2067133330
0.3326847245 0.0279647709 -0.1362483104 -0.5000623735 0.0192807253 0.2056228624
0.4193109358 0.1673151549 -0.0639589456 -0.5002699533 0.0158250409 0.2057207106
0.4051226418 0.1891468293 -0.0092965203 -0.4999993774 0.0155998892 0.2058745627
0.3774946179 0.1738746950 -0.0992373771 -0.5024963382 0.0184600289 0.2086960176
0.4953637009 0.2863068604 -0.1733649246 -0.4985086539 0.0180331885 0.2028763802
0.3715463034 0.2663704231 -0.1710075280 -0.4985396811 0.0208795033 0.2094551537
0.3692628874 0.1772337841 0.0232679427 -0.4995277977 0.0182499200 0.2035344074
0.4594945691 0.1875502069 -0.0436235823 -0.5000064436 0.0156045273 0.2061071113
0.3820710648 0.1885098022 -0.0229925303 -0.4999940661 0.0155793172 0.2063736171
0.4919889582 0.2307464080 -0.1401036173 -0.5000000000 0.0214000636 0.2093776245
0.3568815970 0.1712062050 0.0066507074 -0.4974133816 0.0180724258 0.2086627180
0.4777016836 0.1829941803 -0.1416360257 -0.4995099339 0.0231829311 0.2051831542
0.4296520630 0.3228799455 -0.2061472981 -0.4999255953 0.0188319238 0.2026161701
0.3410143616 0.1738246600 0.0154858425 -0.5014951866 0.0194917525 0.2096847296
0.4743736646 0.1742727183 -0.1137054688 -0.4974081132 0.0208482387 0.2086753134
0.4810219867 0.3039816092 -0.1742535860 -0.5022141787 0.0208025656 0.2090379437
0.3803721740 0.2836540553 -0.1827317990 -0.4989737550 0.0209923399 0.2095592276
0.4689126847 0.1837976121 -0.1243044208 -0.5000028366 0.0233231606 0.2058408896
0.4847035699 0.0573261565 0.0154858425 -0.5000000000 0.0193567331 0.2100343365
0.4897893748 0.1063922362 -0.1362651120 -0.5000000000 0.0195201299 0.2022578239
0.3743919179 0.2720237726 -0.1749576559 -0.4986796772 0.0209164839 0.2094913444
0.4839588580 0.0579260592 0.0081805515 -0.5027492137 0.0193431572 0.2033980844
0.4694674006 0.1809008498 0.0213290091 -0.4997620623 0.0213783826 0.2083334613
0.4897609351 0.1650168089 -0.1284830117 -0.5019687935 0.0194660871 0.2089235157
0.4397426298 0.1750972551 -0.0298986306 -0.5001787315 0.0155707958 0.2061472981
0.3399641749 0.0256658880 -0.1362651120 -0.5000000000 0.0188611028 0.2046550181
0.4443281662 0.2546008059 -0.1739267689 -0.4988532336 0.0178146360 0.2028138938
0.3714458443 0.2860884246 -0.1846880711 -0.5011849648 0.0179677138 0.2027715631
0.3505796600 0.1729128896 0.0130921113 -0.4973150743 0.0202088808 0.2087808386
0.4248761219 0.1829953398 -0.1415535588 -0.4999980545 0.0156165351 0.2067795042
0.4940027011 0.2316213534 -0.1481433051 -0.4977815100 0.0185509822 0.2032324619
0.4830218970 0.1857640087 -0.0799860137 -0.5003925252 0.0156596829 0.2066817572
0.4918934835 0.2582757976 -0.1621317859 -0.4984123621 0.0176011029 0.2032179949
0.3365757746 0.1814794061 0.0115155317 -0.4964407125 0.0183595075 0.2061472981
0.4081048710 0.1902159809 0.0136905898 -0.4999998171 0.0155968931 0.2057186055
0.4747607190 0.2523011524 -0.1571735102 -0.5020006651 0.0206866823 0.2092425001
0.4883267290 0.2311766530 -0.1441162044 -0.5038910501 0.0194552506 0.2061472981
0.4717206571 0.1750972551 0.0026090308 -0.5001953580 0.0155697802 0.2061472981
0.4319805413 0.1673151394 -0.0445843526 -0.4998592802 0.0233380828 0.2060890607
0.3709574436 0.1673151394 -0.0150826285 -0.5000113346 0.0155992510 0.2060683954
0.3623732189 0.2446565736 -0.1577798837 -0.4983975527 0.0206613360 0.2094751382
0.3434003730 0.1841321334 0.0154858425 -0.5004281945 0.0196510677 0.2099307257
0.3404668247 0.0695231745 0.0154630448 -0.5029828051 0.0193826747 0.2083753017
0.4171536909 0.1829419040 -0.1427024808 -0.4999983230 0.0156168775 0.2067833058
0.4723738166 0.1849070983 -0.1013351045 -0.4999906693 0.0233217248 0.2059703954
0.4938643626 0.1421122630 -0.1362651120 -0.5000000000 0.0194671144 0.2022563102
0.4856503247 0.1783265232 -0.1105101501 -0.5038084470 0.0188274958 0.2063929751
0.4133646408 0.1786763753 0.0232679427 -0.5000000000 0.0179732897 0.2035607303
0.4883267290 0.0647530544 0.0100570688 -0.4961089499 0.0194552506 0.2061472981
0.3482489249 0.1059164464 0.0101418548 -0.4961089499 0.0194552506 0.2061472981
0.3353788214 0.2829214561 -0.1725163994 -0.5025233149 0.0180795970 0.2037685007
0.3608437755 0.1847350789 -0.1041492832 -0.4999908093 0.0232681100 0.2054937923
0.4690931166 0.2906843190 -0.1765514884 -0.5016579998 0.0208840053 0.2093556946
0.4104842948 0.1673151549 -0.0612845296 -0.4999839844 0.0233412229 0.2061334926
0.3686724244 0.1819897446 0.0232679427 -0.5000035525 0.0214936978 0.2078867687
0.3933752736 0.2689470493 -0.1825288924 -0.5007983890 0.0178785815 0.2026866370
0.4780522205 0.1838663669 -0.1233198412 -0.5001136926 0.0156375273 0.2067533719
0.3422113731 0.1532528181 0.0154858425 -0.5009599065 0.0195185852 0.2098093443
0.4006138758 0.1890247126 -0.0119221620 -0.4999993268 0.0156002316 0.2058923798
0.3287936743 0.3038899984 -0.1709203724 -0.5038580735 0.0195429821 0.2062726288
0.4242717640 0.1750972551 -0.0656614551 -0.5000153658 0.0233434641 0.2062446055
0.4412365674 0.2684496563 -0.1816543633 -0.4989131713 0.0178566632 0.2027762440
0.4067001124 0.1882703664 -0.0281406620 -0.5000018755 0.0233213707 0.2062963292
0.3673238331 0.1640651359 -0.1440472122 -0.5000000000 0.0195788615 0.2023504386
0.3326847245 0.0570816779 -0.1345160499 -0.5030017039 0.0194409043 0.2045741465
0.4852763364 0.1854276041 -0.1172420948 -0.4963911405 0.0208041609 0.2059094654
0.3457807423 0.0631324865 0.0077037423 -0.5000000000 0.0193687175 0.2022602596
0.3824763449 0.1750972551 -0.0880841567 -0.4999852412 0.0155781771 0.2063674420
0.3404668247 0.1255408487 -0.1290227977 -0.4961089499 0.0194552506 0.2061472981
0.3973452303 0.1900405374 0.0099182556 -0.5000002568 0.0233156081 0.2065685938
0.4909167443 0.3127629817 -0.1882284676 -0.4995643969 0.0181596009 0.2025937188
0.4647329615 0.1673151549 -0.1098645004 -0.5005081361 0.0160339047 0.2053981776
0.3589429586 0.3158697207 -0.1916707201 -0.5016330893 0.0181379044 0.2028716876
0.3462136294 0.3277791161 -0.1918381481 -0.4980034088 0.0191213635 0.2044695318
0.3353589887 0.1353228825 -0.1362651120 -0.5004612140 0.0194380910 0.2023472869
0.4013530664 0.1677453416 -0.0758091154 -0.5024876962 0.0210376550 0.2086413328
0.4993376343 0.2773629237 -0.1527350127 -0.4974544128 0.0205042466 0.2088174456
0.4883266707 0.0591954753 -0.1329453458 -0.5038910501 0.0194552506 0.2061472981
0.3656383003 0.2413659320 -0.1622273462 -0.5008414046 0.0187267059 0.2049936834
0.3695701402 0.1877984871 -0.0382857541 -0.5000048988 0.0232995342 0.2057505316
0.3547010759 0.1750972551 0.0079771391 -0.5003284552 0.0233282735 0.2061948973
0.4829521927 0.1637709297 0.0154858425 -0.5006634163 0.0195786397 0.2098773404
0.3444617192 0.1750206481 -0.1322702175 -0.5021929375 0.0172761224 0.2084549243
0.4670567511 0.2869508136 -0.1756787376 -0.5015907663 0.0208945578 0.2093849242
0.3393608910 0.1802517993 -0.0424277108 -0.5037053069 0.0201381065 0.2059086094
0.4131744696 0.1904026502 0.0232679427 -0.5000000000 0.0156469864 0.2056084343
0.4352694903 0.3060905895 -0.1990754740 -0.4994039106 0.0174364882 0.2029774969
