0.3603614332 0.1239970935 -0.1793314109 -0.5000626893 0.0003515230 0.3341692952
0.2662443235 0.2548816109 -0.2500387535 -0.4998483049 0.0003303757 0.3342365214
0.4167525805 0.1129553609 -0.2562371391 -0.5000000000 0.0000000000 0.3345725414
0.3570387342 0.0978535434 -0.0889822318 -0.5000468665 -0.0001578581 0.3342084185
0.3055431322 0.0875273601 -0.2086920839 -0.5000938436 -0.0003468713 0.3341670567
0.3966171206 0.1424691892 -0.3167768965 -0.5000000000 0.0000000000 0.3338431468
0.3404059180 0.1604668268 -0.1377357034 -0.5000000000 0.0003646973 0.3342078441
0.4582818661 0.2319711435 -0.1347006841 -0.5003631824 -0.0000004431 0.3342410458
0.3618251197 0.1604668268 -0.2278416764 -0.5000000000 0.0003646973 0.3342078441
0.2309074133 0.0837321282 -0.2085953001 -0.5003120409 0.0001712199 0.3341584878
0.2270174567 0.1177997205 -0.2148008977 -0.5003632159 0.0000015164 0.3341750440
0.4793699373 0.1801939165 -0.3045139932 -0.4996368209 0.0000000343 0.3341746012
0.4982391067 0.1263860568 -0.0989178746 -0.4996368271 0.0000000004 0.3341745330
0.2222849392 0.2504442302 -0.1505116848 -0.5003508035 0.0000497794 0.3341783350
0.3937400540 0.0875273601 -0.1818537970 -0.4999913968 -0.0003474727 0.3341600852
0.3570387342 0.1054265444 -0.2049606138 -0.5000984807 0.0000058494 0.3341455801
0.3537084669 0.1239970935 -0.2264635997 -0.5000000000 -0.0003646973 0.3342078441
0.4390254727 0.1488639582 -0.2529239671 -0.4998187607 0.0000122199 0.3338935501
0.2826067330 0.0875273601 -0.2244767293 -0.5001009953 -0.0003470701 0.3341719061
0.4613752934 0.1389684489 -0.1008116118 -0.4996369923 -0.0000086947 0.3341747088
0.4485127675 0.2343957667 -0.2425041831 -0.5003632054 -0.0000001838 0.3342407960
0.3696036080 0.1101319390 -0.2562371391 -0.5000000000 0.0000000000 0.3345725414
0.4999098942 0.1913769069 -0.0807061578 -0.4996368278 0.0000000000 0.3341745261
0.4779407975 0.2036538336 -0.3203640814 -0.4996366407 -0.0000000813 0.3341767241
0.2690352019 0.2075499561 -0.2734321378 -0.4996367935 0.0000001185 0.3342407850
0.2908865912 0.1239970935 -0.1764129862 -0.5001086539 0.0003387728 0.3341655892
0.3117300766 0.2341558553 -0.3294847645 -0.4999998687 -0.0000541061 0.3338471858
0.4266340438 0.2336132611 -0.3294090381 -0.4999999836 -0.0000547498 0.3338472832
0.2679828685 0.0924615812 -0.3163780088 -0.4999578275 -0.0001344314 0.3338718226
0.4521454950 0.1590723227 -0.1759833362 -0.4996970525 0.0001985671 0.3341803933
0.4799509063 0.1962116619 -0.2980886513 -0.4996368224 0.0000000660 0.3341745852
0.2321194353 0.1089512807 -0.2710264796 -0.5003631904 0.0000009672 0.3341747456
0.2847110436 0.1239970935 -0.1811198166 -0.5001105379 0.0003373673 0.3341615308
0.3344468208 0.1604668268 -0.2054029074 -0.5000000000 0.0003646973 0.3342078441
0.3626392777 0.2589569880 -0.3019957475 -0.5000000000 0.0003644059 0.3342224192
0.4748359730 0.2523858025 -0.3335491008 -0.4996359941 0.0000006072 0.3342057187
0.2259264811 0.0803123339 -0.0847844729 -0.4996484106 -0.0000495434 0.3341611071
0.2304781638 0.1363653057 -0.2520777555 -0.5003632130 0.0000012276 0.3341750038
0.4008150575 0.1457515210 -0.2562371391 -0.5000000000 0.0000000000 0.3345725414
0.4803112411 0.2130899544 -0.2940510262 -0.4996368238 0.0000001039 0.3341745691
0.2337411189 0.1068805146 -0.2888892143 -0.5003631827 0.0000008067 0.3341746585
0.4470288698 0.1411075177 -0.3170847434 -0.5000450354 -0.0000080026 0.3338460487
0.4460412665 0.1663606377 -0.2697870342 -0.5003632057 -0.0000001393 0.3342407938
0.4846267072 0.2285980495 -0.2471151205 -0.4996368260 0.0000000718 0.3341745480
0.4139153133 0.2224743218 -0.2832970402 -0.5000000000 0.0001429376 0.3345433631
0.2348217215 0.0926116370 -0.3009437255 -0.5003631663 0.0000004559 0.3341744677
0.2370163610 0.1987284830 -0.3221686476 -0.5003631999 -0.0000002053 0.3341749433
0.3351598325 0.0875273601 -0.1906919196 -0.5000874468 -0.0003453914 0.3341578944
0.3817644300 0.1574504389 -0.3177155290 -0.4999997505 -0.0000548972 0.3338473025
0.4235377671 0.2467986146 -0.3312488632 -0.4999999909 -0.0000506240 0.3338466789
0.2605063058 0.2574686604 -0.2559165155 -0.4999908935 0.0003640376 0.3342251395
0.3570387342 0.1040776942 -0.1275832987 -0.5000727414 -0.0000326306 0.3341936796
0.3782770118 0.1604668268 -0.0878168652 -0.5000000000 0.0003646973 0.3342078441
0.2826021028 0.1239970935 -0.2147476533 -0.5000000000 -0.0003646973 0.3342078441
0.3656458940 0.1604668381 -0.2092790186 -0.5000000000 0.0003646973 0.3342078441
0.3375904655 0.1604668268 -0.1302385732 -0.5000000000 0.0003646973 0.3342078441
0.4280380753 0.1299068084 -0.0592456873 -0.4999997571 -0.0000192516 0.3345719714
0.2279220772 0.1800092082 -0.2226804881 -0.5003631827 -0.0000000004 0.3341746399
0.2148067740 0.2307104181 -0.0795107412 -0.5003646973 0.0000000000 0.3342078441
0.3577554855 0.2157246166 -0.3266366793 -0.4999998220 -0.0000550142 0.3338473204
0.3565280153 0.1791548719 -0.3210546555 -0.4999997582 -0.0000547899 0.3338472861
0.4050105014 0.0864332681 -0.3037229847 -0.5000000000 -0.0003646973 0.3342078441
0.2599711909 0.1934755861 -0.1751281316 -0.4996368147 0.0000002509 0.3342410177
0.2260887966 0.2018952999 -0.2018185274 -0.5003624362 0.0000036907 0.3341735921
0.4453309258 0.0875273601 -0.2468822430 -0.4998912976 -0.0003392353 0.3341349874
0.3564327454 0.0864332681 -0.2616624573 -0.5000000000 -0.0003646973 0.3342078441
0.4410626494 0.1602600263 -0.2573312311 -0.5000000000 0.0000791408 0.3345634043
0.4438251248 0.1516536568 -0.2942451724 -0.5003632097 -0.0000000850 0.3342407507
0.3911445235 0.0875273601 -0.1890855507 -0.5000011419 -0.0003457823 0.3341548087
0.4630645117 0.2581692513 -0.2656284069 -0.4999998355 0.0003643253 0.3342243073
0.3570387342 0.1016387472 -0.1987377431 -0.5001020000 -0.0000661663 0.3341481526
0.2632158042 0.1587427727 -0.2102905727 -0.4996368100 0.0000002877 0.3342409637
0.2613341761 0.2301121977 -0.3303028405 -0.4999541222 -0.0000553100 0.3338502985
0.4865059313 0.2217346434 -0.2267812408 -0.4996368256 0.0000000226 0.3341745516
0.4000146111 0.1604668268 -0.1539165655 -0.5000000000 0.0003646973 0.3342078441
0.2670799399 0.1521695507 -0.2521902540 -0.4996368016 0.0000002582 0.3342408737
0.4757046222 0.0804925958 -0.2961019144 -0.4996631061 -0.0001326765 0.3342077989
0.4397106157 0.1947472186 -0.2714313331 -0.5000000000 0.0001429132 0.3345433733
0.2811169586 0.0875273601 -0.1483588932 -0.5001097655 -0.0003443509 0.3341862748
0.3376900982 0.1396931911 -0.2562371391 -0.5000000000 0.0000000000 0.3345725414
0.3090504950 0.1239970935 -0.1803722586 -0.5000000000 -0.0003646973 0.3342078441
0.3629577646 0.1860953174 -0.3221224371 -0.4999997301 -0.0000546911 0.3338472711
0.4622697636 0.1329363853 -0.0875171653 -0.4996370798 -0.0000150314 0.3341751753
0.3466800301 0.1239970935 -0.1342350630 -0.5000913501 0.0003515347 0.3342020290
0.3462746424 0.1029509475 -0.0746178670 -0.5000002881 0.0000000000 0.3345725403
0.4913784161 0.1507446735 -0.1736988138 -0.4996368245 0.0000000026 0.3341745629
0.4668167272 0.1089875856 -0.3193297779 -0.5000264821 -0.0000020547 0.3338441880
0.2326458694 0.0857038734 -0.1417582365 -0.5000045996 -0.0003646018 0.3342074885
0.2651079386 0.1811557656 -0.2308251427 -0.4996368041 0.0000002188 0.3342409010
0.2664085977 0.2212979369 -0.2449576542 -0.4996367983 0.0000001189 0.3342408397
0.3587841351 0.2424308385 -0.3306393573 -0.4999999431 -0.0000518042 0.3338468506
0.4554658790 0.1763826021 -0.3222880910 -0.5000450314 -0.0000558286 0.3338502700
0.2824664099 0.0875273601 -0.1118644965 -0.5001119781 -0.0003435854 0.3341934218
0.4542960160 0.0938311772 -0.1737916796 -0.4998716368 -0.0002210350 0.3341645527
0.3368659676 0.0864332681 -0.2957135332 -0.5000000000 -0.0003646973 0.3342078441
0.3965812384 0.1604668268 -0.0994551266 -0.5000000000 0.0003646973 0.3342078441
0.3699148827 0.0934115882 -0.2562371391 -0.5000000000 0.0000000000 0.3345725414
0.3356835507 0.0875273601 -0.1526139031 -0.5000708913 -0.0003526984 0.3341809608
0.2310380315 0.1329976763 -0.2588482510 -0.5003632156 0.0000015033 0.3341750370
0.2693759481 0.0896086546 -0.2562371391 -0.5000000000 0.0000000000 0.3345725414
0.4235108779 0.1604668268 -0.1559825011 -0.5000000000 0.0003646973 0.3342078441
0.4648741085 0.2491455969 -0.0860998231 -0.5003631083 0.0000005237 0.3342405155
0.4572193820 0.0949377233 -0.1418732730 -0.4998652097 -0.0001999406 0.3341768773
0.4778698346 0.2550707933 -0.1967081346 -0.4999804307 0.0003638501 0.3342225917
0.4727695030 0.0489125868 -0.3134351880 -0.4997811098 -0.0001915715 0.3343454521
0.3731128403 0.0864332681 -0.2744383497 -0.5000000000 -0.0003646973 0.3342078441
0.3325545971 0.1189522323 -0.3167768965 -0.5000000000 0.0000000000 0.3338431468
0.2854396370 0.1142652016 -0.3167768965 -0.5000000000 0.0000000000 0.3338431468
0.2189110880 0.2490667764 -0.0844532982 -0.5000379128 0.0003423633 0.3343264120
0.4899478518 0.2138958987 -0.1895013557 -0.4996368253 -0.0000000558 0.3341745534
0.3003123612 0.0875273601 -0.1391475700 -0.5000921258 -0.0003490715 0.3341904356
0.3692885044 0.2596446464 -0.3188439007 -0.5000000000 0.0003644059 0.3342224214
0.2164554357 0.1610090760 -0.0976942333 -0.5003631736 0.0000000000 0.3341745399
0.3901704541 0.0864332681 -0.2634773962 -0.5000000000 -0.0003646973 0.3342078441
0.4106091755 0.0875273601 -0.1646342240 -0.4999502141 -0.0003482721 0.3341707788
0.2533728048 0.0931691505 -0.1005945385 -0.4996368406 0.0000000339 0.3342412996
0.4353787667 0.2554994640 -0.3292532671 -0.5000000000 0.0002129603 0.3339124655
0.4521467415 0.1096989948 -0.2027548003 -0.5003632112 -0.0000000109 0.3342407343
0.2956550799 0.0875273601 -0.2128999486 -0.5000951948 -0.0003477156 0.3341712241
0.4098432753 0.0958301230 -0.2562371391 -0.4999665401 -0.0001804125 0.3341217726
0.2531806618 0.2051996572 -0.0984818585 -0.4996368617 0.0000001947 0.3342415272
0.4093849106 0.0857038734 -0.1212929375 -0.4999996885 0.0002593104 0.3343878853
0.4765372113 0.2488096808 -0.0806406706 -0.4999888844 0.0003227506 0.3343725144
0.3394694223 0.1239970935 -0.2083563683 -0.5000000000 -0.0003646973 0.3342078441
0.4847172583 0.2168475342 -0.2462220748 -0.4996368249 0.0000000398 0.3341745589
0.2524918686 0.2128816291 -0.0909039713 -0.4996368647 0.0000001947 0.3342415607
0.2221122065 0.1752602410 -0.1593527461 -0.5003631780 -0.0000000004 0.3341745892
0.3863820895 0.1080870388 -0.3167769410 -0.5000000000 0.0000000000 0.3338431468
0.3202879986 0.1434336648 -0.3167768965 -0.5000000000 0.0000000000 0.3338431468
0.3947749359 0.0875273601 -0.2452495189 -0.5000163727 -0.0003352743 0.3341214163
0.4786461520 0.1805103665 -0.3123636226 -0.4996368209 0.0000000470 0.3341746019
0.2870426670 0.1037919396 -0.3167768965 -0.5000000000 0.0000000000 0.3338431468
0.2636015143 0.2145039578 -0.2145112587 -0.4996368052 0.0000001652 0.3342409134
0.2652655349 0.0875273601 -0.1404923024 -0.5001258224 -0.0003399789 0.3341857974
0.4636258928 0.2180949042 -0.3293915869 -0.5000297761 -0.0000557976 0.3338486738
0.2673929953 0.2463276955 -0.2556494476 -0.4996367946 0.0000000547 0.3342407971
0.3480093588 0.1304946670 -0.2562371391 -0.5000000000 0.0000000000 0.3345725414
0.2678667638 0.1548958993 -0.2607253828 -0.4996367997 0.0000002436 0.3342408525
0.4897007726 0.2013812422 -0.0750742284 -0.4999629340 0.0000004406 0.3345705812
0.3343714058 0.2595714797 -0.3170507758 -0.5000000000 0.0003644059 0.3342224214
0.2533137731 0.1540200378 -0.1007255126 -0.5003625551 0.0000207352 0.3341750545
0.3209937095 0.0864332681 -0.2724084743 -0.5000000000 -0.0003646973 0.3342078441
0.2354786398 0.0857038734 -0.0921778299 -0.4999527772 -0.0003613830 0.3342121158
0.2933859608 0.2336575128 -0.2880828469 -0.5000000000 0.0001431663 0.3345432654
0.2342673301 0.1281040118 -0.2944278325 -0.5003631999 0.0000011689 0.3341748554
0.3853826441 0.1239970935 -0.0690407403 -0.5000000000 -0.0003646973 0.3342078441
0.2249591787 0.2504506408 -0.1012938387 -0.5000304683 0.0003631135 0.3342216877
0.3991497904 0.1239970935 -0.2227157915 -0.5000000000 -0.0003646973 0.3342078441
0.2600725155 0.2250778432 -0.1762480445 -0.4996368125 0.0000001827 0.3342409922
0.2541826893 0.1296502249 -0.1096741312 -0.5003626390 -0.0000193326 0.3341750079
0.2664768002 0.1728278826 -0.2456649230 -0.4996368016 0.0000002210 0.3342408733
0.3879412238 0.1239970935 -0.2304897390 -0.5000000000 -0.0003646973 0.3342078441
0.4016589544 0.1239970935 -0.1913799565 -0.5000000000 -0.0003646973 0.3342078441
0.4318002631 0.1239970935 -0.1522967962 -0.5000000000 -0.0003646973 0.3342078441
0.2700051757 0.1063868913 -0.0746178670 -0.5000013403 0.0000000000 0.3345725363
0.2243203796 0.1912624047 -0.1834219685 -0.5003631798 -0.0000000004 0.3341746085
0.2481694572 0.2590213174 -0.2843356176 -0.5000014409 0.0003643345 0.3342240235
0.4560486288 0.2532537173 -0.1832429146 -0.5002166313 0.0002714869 0.3342400582
0.3346067318 0.0875273601 -0.2090522403 -0.5000954147 -0.0003419183 0.3341469776
0.2691128427 0.1561676208 -0.2742389059 -0.4996367968 0.0000002268 0.3342408208
0.2348918386 0.2501167724 -0.3014981173 -0.5003631703 -0.0000010879 0.3341745235
0.4669409347 0.0785257590 -0.1202050337 -0.4999986488 -0.0002499679 0.3344653839
0.4535608339 0.1779761719 -0.1868060589 -0.5003631893 -0.0000003348 0.3342409739
0.4561441660 0.1727174654 -0.1587841976 -0.5003632210 0.0000000959 0.3342406242
0.2726088084 0.1720642531 -0.3149352906 -0.4996361473 -0.0000009234 0.3342323824
0.3143506264 0.1225562895 -0.2562371391 -0.5000000000 0.0000000000 0.3345725414
0.3483193873 0.0864332736 -0.2853202380 -0.5000000000 -0.0003646973 0.3342078441
0.4814387219 0.2075096665 -0.2818615787 -0.4996368235 0.0000000704 0.3341745724
0.3241479497 0.0875273601 -0.2425154020 -0.5001094774 -0.0003371765 0.3341335381
0.2280309700 0.1150138283 -0.2259816846 -0.5003632097 0.0000013880 0.3341749739
0.3767318559 0.1239970935 -0.0687814631 -0.5000000000 -0.0003646973 0.3342078441
0.3961021279 0.1604668268 -0.1875568672 -0.5000000000 0.0003646973 0.3342078441
0.3507811833 0.0875273601 -0.1785113762 -0.5000829030 -0.0003451321 0.3341547143
0.4775462726 0.2538126054 -0.3250986022 -0.4996364354 -0.0000001072 0.3341791286
0.3727955109 0.1405176110 -0.3167768965 -0.5000000000 0.0000000000 0.3338431468
0.4190051383 0.0875273601 -0.2555982955 -0.4999593049 -0.0003359322 0.3341227763
0.4915594292 0.1700361253 -0.1717272578 -0.4996368245 0.0000000026 0.3341745622
0.2290029916 0.1667111556 -0.2344626784 -0.5003631835 -0.0000000004 0.3341746490
0.2235395655 0.2308629837 -0.1757528628 -0.5003632003 -0.0000011342 0.3341748598
0.2873022112 0.0875273601 -0.2153615217 -0.5000973414 -0.0003480146 0.3341742362
0.2347414100 0.2408925167 -0.0746178670 -0.5000277659 0.0000771094 0.3345630925
0.2572797676 0.0925246085 -0.1443519862 -0.5001391904 -0.0002484486 0.3341846815
0.3990278980 0.0875273601 -0.1757738311 -0.4999753118 -0.0003492356 0.3341655111
0.4939409134 0.1800366316 -0.1457684827 -0.4996368253 0.0000000018 0.3341745520
0.4326347219 0.1617599841 -0.3182610615 -0.4999996185 -0.0000551375 0.3338473393
0.4916142764 0.2468328495 -0.1711701505 -0.4996368286 0.0000000022 0.3341745203
0.4181945416 0.1050719864 -0.2562371391 -0.4999354460 -0.0000119967 0.3341209046
0.3163224494 0.0895878978 -0.3140817778 -0.5000002305 -0.0002200730 0.3339173959
0.2286821009 0.2466423316 -0.2329587913 -0.5003631849 -0.0000011962 0.3341746887
0.3991791726 0.1316125544 -0.0590324874 -0.4999996637 -0.0000300959 0.3345712942
0.2329343953 0.0845662475 -0.2237298387 -0.5002913768 0.0001982812 0.3341775640
0.4690049112 0.0725933726 -0.3110176881 -0.5002120482 -0.0001641138 0.3344298686
0.4847467299 0.2001612290 -0.2460304220 -0.4996368235 -0.0000000040 0.3341745742
0.4874605908 0.1303259857 -0.2160255185 -0.4996380404 0.0000231966 0.3341818642
0.4556212492 0.1660678824 -0.1645361492 -0.5003632199 0.0000000842 0.3342406359
0.2595934053 0.2522914674 -0.1866771326 -0.4998220543 0.0002926667 0.3342370881
0.3915943408 0.2533861382 -0.3303099634 -0.5000000000 0.0001630978 0.3338816490
0.4676397003 0.0196402614 -0.3212036599 -0.5002709993 0.0000491080 0.3339870326
0.2806937635 0.0864332681 -0.2833541131 -0.5000000000 -0.0003646973 0.3342078441
0.2663501889 0.1810717586 -0.3221085473 -0.4999447228 -0.0000556772 0.3338518185
0.4586676652 0.1274175332 -0.1310248629 -0.5003632145 0.0000000390 0.3342406975
0.4924365369 0.1361309592 -0.1621665961 -0.4996368249 0.0000000022 0.3341745582
0.4510501565 0.2566223372 -0.2439830060 -0.5001335832 0.0003344767 0.3342349652
0.3374655457 0.1239970935 -0.1685343753 -0.5000782480 0.0003516911 0.3341770797
0.3570387342 0.1131733580 -0.0978639832 -0.5000564905 0.0001447148 0.3342090443
0.4600593203 0.1286598280 -0.1157172353 -0.5003632148 0.0000000460 0.3342406939
0.3710712121 0.0875273656 -0.1110952575 -0.5000185365 -0.0003585536 0.3341961869
0.4248361111 0.1239970935 -0.0694387374 -0.5000000000 -0.0003646973 0.3342078441
0.4815932019 0.1725323677 -0.2803590275 -0.4996368205 0.0000000058 0.3341746052
0.4378175018 0.1604668268 -0.1903022474 -0.5000000000 0.0003646973 0.3342078441
0.4639848918 0.1660635086 -0.0757119590 -0.5001946255 0.0000002783 0.3344920648
0.4526595972 0.1628518726 -0.1971141455 -0.5003632192 0.0000000686 0.3342406446
0.3570387342 0.1172503153 -0.1897271102 -0.5000801703 0.0002263042 0.3341601523
0.4466790416 0.0875273656 -0.1972147130 -0.4998873840 -0.0003388965 0.3341538208
0.4442370118 0.1285166114 -0.2897039069 -0.5003632068 -0.0000001028 0.3342407817
0.3903138042 0.0875273601 -0.2093435263 -0.5000120740 -0.0003417564 0.3341420819
0.4465525193 0.0914623360 -0.2642910202 -0.5003632079 -0.0000000584 0.3342407712
0.4018161944 0.1604668268 -0.2189800476 -0.5000000000 0.0003646973 0.3342078441
0.4194217445 0.1239970935 -0.1288264396 -0.4999442374 0.0003420905 0.3341989973
0.3393044361 0.1239970935 -0.1181917636 -0.5000000000 -0.0003646973 0.3342078441
0.2240342577 0.1979897838 -0.1803028093 -0.5003631795 -0.0000000004 0.3341746060
0.4955991466 0.1165307926 -0.1276935715 -0.4996368260 0.0000000015 0.3341745447
0.4216515091 0.1239970935 -0.1181080685 -0.5000000000 -0.0003646973 0.3342078441
0.3270304474 0.1174975611 -0.2562371391 -0.5000000000 0.0000000000 0.3345725414
0.2893347577 0.1141775109 -0.0746178670 -0.5000008082 0.0000138658 0.3345715520
0.2243877807 0.2218343651 -0.1847859333 -0.5003632010 -0.0000010073 0.3341748627
0.4777972690 0.2188568645 -0.3220874451 -0.4996365795 -0.0000000788 0.3341774393
0.2557863426 0.0857038734 -0.2432944349 -0.4999943968 -0.0003645507 0.3342083558
0.4281629947 0.1604668268 -0.1706453193 -0.5000000000 0.0003646973 0.3342078441
0.4522697022 0.1090985597 -0.0746178670 -0.4999972757 0.0000000000 0.3345725294
0.3512785462 0.2578213822 -0.3262982927 -0.5000000168 0.0002917579 0.3339890257
0.2584390347 0.1498797861 -0.1601418403 -0.5003630722 0.0000056871 0.3341747456
0.2206243909 0.1394345930 -0.1431361353 -0.5003631769 -0.0000000004 0.3341745761
0.4482554494 0.0875273601 -0.1553897786 -0.4998833078 -0.0003384967 0.3341696257
0.4259398191 0.0829441416 -0.1274989803 -0.4999988611 0.0000634606 0.3339493528
0.4619624065 0.0924235786 -0.0902228793 -0.4998572447 -0.0002445693 0.3341948463
0.2539690886 0.0902929854 -0.1071531696 -0.4996368384 0.0000000398 0.3342412781
0.4709550091 0.1768326532 -0.0738885168 -0.4999899063 0.0000000306 0.3345722493
0.4438366996 0.1105929752 -0.3163690161 -0.5003643997 -0.0000013198 0.3342004539
0.2507768294 0.1055464445 -0.3189819533 -0.4999813290 -0.0000015908 0.3338436931
0.4118280979 0.1239970935 -0.1808376572 -0.4999447122 0.0003415223 0.3341614696
0.4028296186 0.1239970935 -0.1574932883 -0.4999728217 0.0003441736 0.3341799309
0.2260913786 0.1781018929 -0.2027253736 -0.5003631813 -0.0000000004 0.3341746238
0.4938476023 0.2498907731 -0.1389098844 -0.5000000000 0.0003643388 0.3342240068
0.4924876445 0.2356331643 -0.1617811085 -0.4996368275 -0.0000000416 0.3341745294
0.4119033346 0.0875273601 -0.1421911367 -0.4999472334 -0.0003479413 0.3341792037
0.2472288655 0.0109340885 -0.3179616286 -0.4996500769 -0.0000186871 0.3343072872
0.3723022436 0.0864332681 -0.2569361720 -0.5000000000 -0.0003646973 0.3342078441
0.2322877606 0.1789198241 -0.2702926331 -0.5003625854 0.0000069759 0.3341722011
0.3377293638 0.1095873084 -0.3167768965 -0.5000000000 0.0000000000 0.3338431468
0.2757789862 0.1604668268 -0.2018355781 -0.5000000000 0.0003646973 0.3342078441
0.4167174995 0.1239970821 -0.0678380669 -0.5000000000 -0.0003646973 0.3342078441
0.2207390711 0.2031713397 -0.1443852860 -0.5003631769 -0.0000000004 0.3341745771
0.2688533875 0.1239970935 -0.1273714789 -0.5001676904 0.0003215551 0.3341936942
0.2256468592 0.1056708187 -0.0749952076 -0.5000176069 -0.0000007688 0.3345720487
0.2398343955 0.0787011237 -0.2546359789 -0.4998149143 -0.0002990518 0.3342629630
0.2786440328 0.1239970821 -0.0713475665 -0.5000000000 -0.0003646973 0.3342078441
0.4727840162 0.1138549284 -0.3196944752 -0.5000216503 -0.0000028778 0.3338440341
0.4697131151 0.0855347133 -0.2195219739 -0.5000292670 -0.0003597958 0.3342103448
0.4667849409 0.2472925052 -0.0784233713 -0.5000084442 0.0002947805 0.3344201786
0.4761521244 0.0797166457 -0.2220316722 -0.5002657568 -0.0002427673 0.3342265968
0.4297439434 0.0875273601 -0.2317455228 -0.4999216287 -0.0003417469 0.3341408736
0.2612922395 0.0975264197 -0.1877089875 -0.4996368220 0.0000001703 0.3342410987
0.3442206379 0.2595403389 -0.3162882590 -0.5000000000 0.0003644059 0.3342224214
0.3521348194 0.2596645016 -0.3194004737 -0.5000000000 0.0003644625 0.3342195972
0.3570387342 0.1149525150 -0.1318460551 -0.5000822925 0.0001793425 0.3341988846
0.2399995600 0.0791461551 -0.3124537284 -0.5003409074 -0.0001248939 0.3342246213
0.3049634987 0.1239970935 -0.2366674233 -0.5000000000 -0.0003646973 0.3342078441
0.2594772113 0.2304843075 -0.1697963029 -0.4996368132 0.0000001776 0.3342410028
0.2439662668 0.1424885882 -0.0738884723 -0.5000094748 0.0000000000 0.3345723427
0.2561659090 0.2321885064 -0.1338880396 -0.4996368205 0.0000002115 0.3342410830
0.3141413883 0.0875273601 -0.0850461983 -0.5000853990 -0.0003507021 0.3342055170
0.4880830515 0.1981440636 -0.2093896029 -0.4996387644 0.0000200401 0.3341680801
0.2760404002 0.1785349933 -0.2644933135 -0.5000000000 0.0001417684 0.3345438580
0.2297281127 0.2462222083 -0.2444688832 -0.5003631827 -0.0000011663 0.3341746636
0.2871384712 0.1220903792 -0.2562371391 -0.5000000000 0.0000000000 0.3345725414
0.3117754858 0.0875273601 -0.1520815930 -0.5000798162 -0.0003524552 0.3341893955
0.4368891975 0.0864332681 -0.2933609415 -0.5000000000 -0.0003646973 0.3342078441
0.4472042736 0.1078202492 -0.2571222603 -0.5003632105 -0.0000000317 0.3342407427
0.3570387342 0.0952669614 -0.2418241152 -0.5001065073 -0.0001845066 0.3341154524
0.4600685800 0.0875273601 -0.0980479343 -0.4998606386 -0.0003354417 0.3341900914
0.2715284282 0.1604668268 -0.0902625901 -0.5000000000 0.0003646973 0.3342078441
0.2693950021 0.1625604087 -0.3186028763 -0.4999348381 -0.0000553239 0.3338533160
0.2151894568 0.2209107578 -0.0838945884 -0.5003631725 0.0000000000 0.3341745290
0.2177285376 0.0878920574 -0.0949255252 -0.5000000000 -0.0003646973 0.3342078441
0.2658903107 0.1003236865 -0.2382868359 -0.4996368114 0.0000002502 0.3342409827
0.2916096642 0.1978651540 -0.3239331915 -0.4999998570 -0.0000548902 0.3338473014
0.2170321313 0.1930390354 -0.1039798309 -0.5003631740 0.0000000000 0.3341745451
0.3295651650 0.1604668268 -0.1932244559 -0.5000000000 0.0003646973 0.3342078441
0.2353046606 0.1613409629 -0.3031502068 -0.5003631886 -0.0000000007 0.3341747041
0.4674460438 0.0857038734 -0.1208317237 -0.4999991116 0.0002595890 0.3344199167
0.2799111245 0.0847908890 -0.2726485192 -0.5000012155 -0.0002424541 0.3344650626
0.3570387342 0.1031883994 -0.1837612013 -0.5000965748 -0.0000389869 0.3341584812
0.4502855029 0.1487005519 -0.2229553466 -0.5003631944 -0.0000002571 0.3342409171
0.2188401697 0.0749775282 -0.0808828081 -0.5003570741 -0.0000253910 0.3341414860
0.4537985641 0.1606050909 -0.1845853319 -0.5003632192 0.0000000697 0.3342406472
0.4169630648 0.0857038734 -0.2708866463 -0.4999987436 0.0002587017 0.3341255695
0.4827294087 0.1962941995 -0.2679442707 -0.4996368227 0.0000000197 0.3341745812
0.3814868111 0.1334695859 -0.3167768520 -0.5000000000 0.0000000000 0.3338431468
0.4635303556 0.1967205109 -0.0773324846 -0.5003646973 0.0000000000 0.3342078441
0.4389220113 0.1239970821 -0.1629009769 -0.5000000000 -0.0003646973 0.3342078441
0.3389164109 0.2379870471 -0.2899357158 -0.5000000000 0.0001431313 0.3345432803
0.4285775531 0.1604668268 -0.1179173949 -0.5000000000 0.0003646973 0.3342078441
0.4621102085 0.2435402675 -0.3332198404 -0.5000318596 -0.0000556152 0.3338488470
0.2619323297 0.1604668268 -0.1313199329 -0.5000000000 0.0003646973 0.3342078441
0.4703956761 0.0851477399 -0.1274989803 -0.4999977144 0.0002180266 0.3339491792
0.4711385153 0.1531900643 -0.3198690332 -0.5000200977 -0.0000176324 0.3338446493
0.2267409957 0.0791393214 -0.1057054656 -0.4998096594 -0.0002254333 0.3341906731
0.2165652633 0.1995825524 -0.0988910744 -0.5003631736 0.0000000000 0.3341745410
0.2426961478 0.1143151404 -0.3196273410 -0.4999721069 -0.0000029847 0.3338442897
0.4104822079 0.1604668268 -0.1769182291 -0.5000000000 0.0003646973 0.3342078441
0.3502605815 0.1604668268 -0.1916932793 -0.5000000000 0.0003646973 0.3342078441
0.2960493378 0.0875939990 -0.0834687667 -0.5000871357 -0.0003486882 0.3342597821
0.2547657065 0.0857038734 -0.2295428257 -0.4999926791 -0.0003644971 0.3342085126
0.3270993624 0.1604668268 -0.0705293571 -0.5000000000 0.0003646973 0.3342078441
0.3094426158 0.0875273601 -0.2409030229 -0.5001080595 -0.0003399606 0.3341445775
0.4807172517 0.0967633135 -0.2893100943 -0.4996367855 -0.0000015573 0.3341750316
0.3801296137 0.2589351069 -0.3014461640 -0.5000000000 0.0003644169 0.3342218809
0.2491299040 0.0970267307 -0.3191878078 -0.4999754712 -0.0000001284 0.3338440403
0.4378505350 0.1604668268 -0.1020690875 -0.5000000000 0.0003646973 0.3342078441
0.2212377699 0.2327316345 -0.0755747522 -0.5000663450 0.0000006637 0.3345661953
0.4540483139 0.1143953300 -0.1760023902 -0.4998657826 0.0001560835 0.3341677974
0.3862151441 0.1173030812 -0.3167769410 -0.5000000000 0.0000000000 0.3338431468
0.4958545952 0.2252128461 -0.1252372960 -0.4996370962 -0.0000033439 0.3341756603
0.4486711654 0.1604668268 -0.1400567313 -0.5000000000 0.0003646973 0.3342078441
0.2950675219 0.1335952398 -0.0589358816 -0.5000003341 -0.0000089220 0.3345723562
0.4155862791 0.1239970935 -0.1479968669 -0.5000000000 -0.0003646973 0.3342078441
0.4974879866 0.1785428062 -0.1071054902 -0.4996368267 0.0000000007 0.3341745363
0.4317831679 0.1032055391 -0.3167768965 -0.5000000000 0.0000000000 0.3338431468
0.3556777078 0.0834166019 -0.1209344283 -0.4999998348 -0.0001219803 0.3339505746
0.4218841637 0.1604668268 -0.2478942868 -0.5000000000 0.0003646973 0.3342078441
0.4016546805 0.1239970935 -0.0675380552 -0.5000000000 -0.0003646973 0.3342078441
0.4776012978 0.0828611361 -0.2771086713 -0.4996438293 0.0000562374 0.3341565425
0.2525298875 0.2231440392 -0.0913221803 -0.4996368665 0.0000002101 0.3342415801
0.4596733429 0.1064078596 -0.1199621839 -0.5003632116 0.0000000120 0.3342407318
0.4119287103 0.0875273601 -0.2155901253 -0.4999598662 -0.0003429231 0.3341451315
0.2148067740 0.1383575962 -0.0792216365 -0.5003447892 -0.0000003012 0.3342747668
0.2338541962 0.2558008780 -0.2902528672 -0.5002879603 0.0001864085 0.3341899794
0.4225912991 0.0875273601 -0.1145785357 -0.4999274697 -0.0003451718 0.3341884360
0.2346198294 0.2574537465 -0.2591966988 -0.4999807604 0.0003635664 0.3342254116
0.4550438414 0.1391479373 -0.1708875458 -0.5003632159 0.0000000430 0.3342406818
0.3945998885 0.1239970935 -0.1880268067 -0.4999817108 0.0003445690 0.3341583915
0.4051575915 0.1387852541 -0.3167768965 -0.5000000000 0.0000000000 0.3338431468
0.4436935274 0.0969798412 -0.0746178670 -0.4999980664 -0.0000434555 0.3345690929
0.3190550083 0.1239970935 -0.1385792439 -0.5000000000 -0.0003646973 0.3342078441
0.3089068776 0.1166192179 -0.2562371391 -0.5000000000 0.0000000000 0.3345725414
0.4041363321 0.1239970935 -0.1765561138 -0.5000000000 -0.0003646973 0.3342078441
0.3101394229 0.1765275886 -0.3206504702 -0.4999998625 -0.0000550237 0.3338473218
0.4979788503 0.2410460838 -0.1002407930 -0.4996388235 -0.0000459723 0.3341916982
0.3001857499 0.1604668268 -0.1971217582 -0.5000000000 0.0003646973 0.3342078441
0.4058941091 0.1821143536 -0.3213744334 -0.4999996780 -0.0000552600 0.3338473579
0.4616945819 0.0854183304 -0.2975077708 -0.5000457867 -0.0003615843 0.3342117267
0.4893067821 0.2183122893 -0.1964217458 -0.4996368256 -0.0000000336 0.3341745505
0.2337075073 0.1211906337 -0.2883512503 -0.5003631955 0.0000010799 0.3341748069
0.2361261202 0.1826210990 -0.3127662054 -0.5003631853 -0.0000002626 0.3341746738
0.4490009597 0.0875273546 -0.2080264397 -0.4998836076 -0.0003382911 0.3341493952
0.3053900771 0.2248997684 -0.2843349943 -0.5000000000 0.0001430719 0.3345433055
0.3355483027 0.1239970935 -0.2514070807 -0.5000000000 -0.0003646973 0.3342078441
0.2220996966 0.1470833428 -0.1592163851 -0.5003631780 -0.0000000004 0.3341745892
0.4145534446 0.1311094037 -0.2562371391 -0.5000000000 0.0000000000 0.3345725414
0.3243792688 0.1333278160 -0.3167768965 -0.5000000000 0.0000000000 0.3338431468
0.4552927903 0.1480903451 -0.1681485762 -0.5003632174 0.0000000569 0.3342406665
0.2188809046 0.1879432895 -0.1241316292 -0.5003631755 0.0000000000 0.3341745611
0.3952824495 0.0875273546 -0.1566474771 -0.4999770915 -0.0003522546 0.3341757438
0.4462683118 0.1822372142 -0.2672792948 -0.5003632065 -0.0000001404 0.3342407854
0.2807019550 0.1239971048 -0.1879937738 -0.5000000000 -0.0003646973 0.3342078441
0.3108909879 0.1239970935 -0.1059243194 -0.5000000000 -0.0003646973 0.3342078441
0.2218459402 0.1094011199 -0.1578832723 -0.5003632247 0.0000016583 0.3341751472
0.2737649594 0.1239970935 -0.2387808604 -0.5000740226 0.0003441547 0.3341222223
0.4977079983 0.1081009618 -0.1047072668 -0.4996368271 0.0000000007 0.3341745356
0.3638758296 0.2529349853 -0.2964537014 -0.5000000000 0.0001630978 0.3345340393
0.2744542874 0.2100789753 -0.2779925014 -0.5000000000 0.0001424686 0.3345435608
0.4942942139 0.1240394640 -0.1419170794 -0.4996368256 0.0000000018 0.3341745502
0.4834605842 0.1303177607 -0.2609087107 -0.4996367582 -0.0000007961 0.3341753135
0.4396107160 0.0875273601 -0.2090228578 -0.4999002560 -0.0003407294 0.3341501840
0.2556601767 0.2396073058 -0.1284084531 -0.4996368213 0.0000002017 0.3342410899
0.3727781488 0.0875273546 -0.1557654278 -0.5000333053 -0.0003502312 0.3341694499
0.2225959914 0.2133752079 -0.1653000461 -0.5003608399 0.0000232812 0.3341667956
0.3987567791 0.1604668268 -0.2064600935 -0.5000000000 0.0003646973 0.3342078441
0.4326573372 0.0875273601 -0.0854274569 -0.4999087593 -0.0003425639 0.3341983343
0.3655065504 0.1239970935 -0.1042079447 -0.5000000000 -0.0003646973 0.3342078441
0.4868756148 0.0786014796 -0.1553101794 -0.4998095321 -0.0002906218 0.3341460779
0.2654944503 0.1379723423 -0.2375805467 -0.5003631601 0.0000000000 0.3341743955
0.3609160474 0.1239970935 -0.1120952817 -0.5000000000 -0.0003646973 0.3342078441
0.2267056478 0.2535752538 -0.1720724559 -0.4999915069 0.0003639541 0.3342247471
0.3958018047 0.1110170048 -0.3167768520 -0.5000000000 0.0000000000 0.3338431468
0.2986430871 0.1258205801 -0.0609410937 -0.5000000000 -0.0003646973 0.3342078441
0.3208197302 0.0875273546 -0.1460200579 -0.5000716707 -0.0003546269 0.3341916855
0.4240321920 0.2264630876 -0.3283179289 -0.4999999497 -0.0000552717 0.3338473594
0.4043942734 0.0875273601 -0.1139582118 -0.4999596535 -0.0003498979 0.3341909404
0.3437789234 0.0875273601 -0.2224212109 -0.5001016827 -0.0003377808 0.3341324867
0.4765358757 0.0853827264 -0.1476982356 -0.5000052086 -0.0003631722 0.3342083981
0.4500817851 0.1576486140 -0.0593005789 -0.5000000000 0.0000003873 0.3345725407
0.4453027902 0.1487304687 -0.3168689611 -0.5000434880 -0.0000121761 0.3338459699
0.4476376186 0.1131372978 -0.2523557748 -0.5003632112 -0.0000000226 0.3342407332
0.4420413486 0.1604668268 -0.1323110085 -0.5000000000 0.0003646973 0.3342078441
0.4891315563 0.1302201203 -0.1981912758 -0.4996368235 0.0000000033 0.3341745728
0.2607282763 0.2117025506 -0.1833505608 -0.4996368118 0.0000002035 0.3342409860
0.3802174044 0.1239970935 -0.1938797270 -0.5000126459 0.0003471182 0.3341559324
0.3934455182 0.2222792853 -0.3276628804 -0.4999998950 -0.0000551517 0.3338473412
0.2691420469 0.2506884373 -0.2746198972 -0.4996367903 0.0000000259 0.3342407511
0.3481338333 0.1260863456 -0.3167768965 -0.5000000000 0.0000000000 0.3338431468
0.2291545780 0.2013203852 -0.2365986863 -0.5003631959 -0.0000006506 0.3341747982
0.4803283363 0.1820569356 -0.2941032464 -0.4996368213 0.0000000230 0.3341745979
0.2713481274 0.1332762967 -0.2984646119 -0.4996367932 0.0000002502 0.3342407828
0.2762703838 0.2590307776 -0.3038033855 -0.5000000000 0.0003644059 0.3342224207
0.4832074507 0.0857157822 -0.2018707032 -0.4999769442 -0.0003638698 0.3342057460
0.3279494920 0.0875273601 -0.1122077802 -0.5000680463 -0.0003554497 0.3341990421
0.3779449020 0.1394247433 -0.0589358816 -0.5000000000 0.0000000000 0.3345725414
0.2270701672 0.1476668385 -0.2133948184 -0.5003631820 -0.0000000004 0.3341746322
0.3685749584 0.1020506345 -0.3167768965 -0.5000000000 0.0000000000 0.3338431468
0.4415845867 0.2433035169 -0.3194449923 -0.5003632892 0.0000000642 0.3342396979
0.3241536481 0.2324984233 -0.2875868192 -0.5000000000 0.0001431856 0.3345432573
0.2599257821 0.1167574819 -0.1726772871 -0.4996368289 0.0000001761 0.3342411731
0.2552516726 0.2104836726 -0.1212625757 -0.4996368577 0.0000002363 0.3342414831
0.3637954288 0.1586433402 -0.0605327680 -0.5000000000 0.0003646973 0.3342078441
0.3566375314 0.1604668268 -0.0786551357 -0.5000000000 0.0003646973 0.3342078441
0.4546735350 0.1974259545 -0.1745248139 -0.5003631882 -0.0000003581 0.3342409849
0.2528599492 0.2578011039 -0.2569380863 -0.5000015215 0.0003643253 0.3342242238
0.4617715991 0.1834765484 -0.0968814550 -0.5003632232 0.0000001324 0.3342406001
0.4440092543 0.1042234484 -0.2922203276 -0.5003632054 -0.0000001043 0.3342407974
0.4695994141 0.2585699643 -0.2735633343 -0.4999972374 0.0003643501 0.3342234732
0.4924686795 0.1869225644 -0.1618163229 -0.4996368249 0.0000000022 0.3341745582
0.2723586132 0.1294279316 -0.3105688504 -0.4996440656 0.0000007615 0.3342835330
0.2967771296 0.1239970935 -0.2408777811 -0.5000000000 -0.0003646973 0.3342078441
0.4311424545 0.2041385090 -0.3248226751 -0.4999998290 -0.0000553326 0.3338473689
0.4841909581 0.2348829793 -0.2517939932 -0.4996368264 0.0000000956 0.3341745429
0.3232173304 0.1604668155 -0.1296527070 -0.5000000000 0.0003646973 0.3342078441
0.2557272215 0.0857038734 -0.2786787575 -0.5000000000 -0.0003646973 0.3342078441
0.4933294042 0.2403029776 -0.1526131018 -0.4996368282 -0.0000000438 0.3341745239
0.4475955041 0.2212858279 -0.2526274725 -0.5003632065 -0.0000001634 0.3342407843
0.4843806080 0.2456440215 -0.2496533552 -0.4996368271 0.0000001204 0.3341745327
0.4015757932 0.1604668268 -0.0686463044 -0.5000000000 0.0003646973 0.3342078441
0.3957977982 0.0875273601 -0.2217562794 -0.5000035434 -0.0003399497 0.3341361946
0.4374211961 0.2346410869 -0.2885037715 -0.5000000000 0.0001428447 0.3345434025
0.4227690179 0.1563336758 -0.3175436869 -0.4999996656 -0.0000547254 0.3338472762
0.2512765074 0.0971826016 -0.0802437416 -0.4996385383 -0.0000000062 0.3342292263
0.4480734571 0.2283122840 -0.2473524498 -0.5003632061 -0.0000001740 0.3342407901
0.2684828138 0.1924167976 -0.3234839084 -0.4999356747 -0.0000553979 0.3338531949
0.2989708340 0.1877018869 -0.2684163029 -0.5000000000 0.0001421743 0.3345436859
0.4194527295 0.1604668155 -0.1233192962 -0.5000000000 0.0003646973 0.3342078441
0.4999911853 0.1647907740 -0.0798203244 -0.4996368278 0.0000000000 0.3341745257
0.4796131875 0.2301836503 -0.3014929977 -0.4996368253 0.0000001601 0.3341745542
0.2972378095 0.1156968568 -0.0747687408 -0.5000213457 0.0000827651 0.3345618959
0.3843780346 0.1492965242 -0.3167769410 -0.5000000000 0.0000000000 0.3338431468
0.4797314293 0.0989641963 -0.3002702466 -0.4996367822 -0.0000015015 0.3341750644
0.2500873235 0.2242207242 -0.0753472616 -0.4997919383 0.0000005525 0.3344890597
0.4590165139 0.2552828360 -0.2065664039 -0.5000057174 0.0003641601 0.3342248747
0.3768075379 0.1604668268 -0.1114523867 -0.5000000000 0.0003646973 0.3342078441
0.4339140116 0.1239970935 -0.0974740882 -0.4999727753 0.0003567046 0.3342044645
0.4295780667 0.0864332681 -0.2789874059 -0.5000000000 -0.0003646973 0.3342078441
0.3570387342 0.0976287461 -0.1158325388 -0.5000630616 -0.0001601255 0.3341962668
0.4532799211 0.2281263737 -0.1898980176 -0.5003631937 -0.0000003118 0.3342409225
0.4480025833 0.1239970935 -0.2137145073 -0.4998223811 -0.0003157765 0.3341914925
0.4688409936 0.0973224572 -0.3193297779 -0.5000201306 -0.0000002396 0.3338437576
0.4542092045 0.0868146879 -0.2003191816 -0.5003412550 -0.0001157783 0.3342389546
0.4735431494 0.1933993699 -0.3259772682 -0.5000160361 -0.0000553756 0.3338477711
0.2594181795 0.0875273601 -0.1141952293 -0.5001339993 -0.0003376496 0.3341900950
0.2884087682 0.1440478341 -0.3167768520 -0.5000000000 0.0000000000 0.3338431468
0.2233414130 0.1903714739 -0.1727514107 -0.5003631791 -0.0000000004 0.3341745998
0.3018691808 0.1604668268 -0.0849781294 -0.5000000000 0.0003646973 0.3342078441
0.3891475919 0.1374159699 -0.2562371391 -0.5000000000 0.0000000000 0.3345725414
0.2692201326 0.2147419994 -0.2754425139 -0.4996367925 0.0000001010 0.3342407755
0.4919855624 0.1151966667 -0.1665244889 -0.4996386356 0.0000344544 0.3341853806
0.4629486739 0.1815224108 -0.0839344327 -0.5003632232 0.0000001338 0.3342406020
0.2938844817 0.1239970935 -0.1655941365 -0.5001146357 0.0003378494 0.3341731165
0.4436050242 0.1830615896 -0.2966701960 -0.5003632127 -0.0000000697 0.3342407172
0.3770561302 0.1604668268 -0.0995435406 -0.5000000000 0.0003646973 0.3342078441
0.2678951664 0.2018599742 -0.2610651049 -0.4996367965 0.0000001437 0.3342408175
0.3521596608 0.2478478539 -0.3314193698 -0.5000000000 -0.0000859180 0.3338534659
0.3847494989 0.2483215775 -0.2943583387 -0.5000000000 0.0001429756 0.3345433467
0.3865443156 0.0801277427 -0.2660839671 -0.4999995044 -0.0001353527 0.3344658171
0.3211021569 0.1069006036 -0.2562371391 -0.5000871740 0.0000296080 0.3341068324
0.4032213831 0.1088127828 -0.0746178670 -0.4999988665 0.0000000000 0.3345725374
0.3646213403 0.1604668381 -0.0827496113 -0.5000000000 0.0003646973 0.3342078441
0.2727225983 0.2189190348 -0.3146799759 -0.4996364963 -0.0000004358 0.3342369371
0.4820703536 0.0857038734 -0.1750564120 -0.4999999705 -0.0003646973 0.3342077650
0.4689444549 0.2265371890 -0.3310409609 -0.4999995492 -0.0000545190 0.3338472806
0.3255855479 0.0876043050 -0.3115546284 -0.4999996342 -0.0003058691 0.3340097216
0.3353055867 0.1604668268 -0.0753678291 -0.5000000000 0.0003646973 0.3342078441
0.4863029262 0.2057066583 -0.2291048953 -0.4996368242 -0.0000000157 0.3341745669
0.4395605876 0.1239970935 -0.1458870805 -0.5000000000 -0.0003646973 0.3342078441
0.4702266830 0.0340655056 -0.3140870757 -0.5000016185 -0.0001785215 0.3344650728
0.3460898007 0.1604668268 -0.1083674177 -0.5000000000 0.0003646973 0.3342078441
0.2212882987 0.0837556566 -0.0764690444 -0.5000311313 0.0003368764 0.3343158332
0.2688467985 0.1387755937 -0.2713424290 -0.4996367987 0.0000002666 0.3342408401
0.2321555848 0.0823419814 -0.1490579261 -0.4996448081 0.0000665605 0.3342274736
0.4444507018 0.0875273601 -0.1729639877 -0.4998905817 -0.0003394807 0.3341633762
0.2723405385 0.1239970935 -0.0638627679 -0.5000000000 -0.0003646973 0.3342078441
0.2635334005 0.1020457151 -0.2145491887 -0.5001312207 -0.0000789785 0.3341689211
0.2720653240 0.1356593946 -0.2562371391 -0.5000000000 0.0000000000 0.3345725414
0.3938876780 0.1239970935 -0.1082837671 -0.5000000000 -0.0003646973 0.3342078441
0.2836576416 0.2438240075 -0.3308337705 -0.4999999584 -0.0000514278 0.3338467956
0.4244407847 0.2252756623 -0.2844958849 -0.5000000000 0.0001429012 0.3345433788
0.3882678132 0.1239970935 -0.1842781528 -0.4999973811 0.0003459388 0.3341619933
0.2343496452 0.1603854355 -0.2927411074 -0.5003631879 -0.0000000007 0.3341746957
0.4493642325 0.1363500803 -0.2333629770 -0.5003632148 0.0000000179 0.3342406924
0.2597112908 0.1604668268 -0.0937181331 -0.5000000000 0.0003646973 0.3342078441
0.2548985504 0.1956621451 -0.1173778726 -0.4996368555 0.0000002090 0.3342414630
0.2680273871 0.1349367447 -0.2624535992 -0.4996368005 0.0000002841 0.3342408631
0.4880092396 0.1271203487 -0.2092867648 -0.4996368100 -0.0000008687 0.3341747449
0.3448140723 0.0875273601 -0.1550440463 -0.5000723935 -0.0003506922 0.3341732274
0.2725858368 0.1622286330 -0.3121769556 -0.4996359405 -0.0000006907 0.3342215053
0.2575882822 0.1005911661 -0.1482272513 -0.5001482568 -0.0001040689 0.3341849801
0.3841576669 0.1604668268 -0.0940076382 -0.5000000000 0.0003646973 0.3342078441
0.4418210703 0.2018231128 -0.3162273575 -0.5003629034 0.0000001287 0.3342436702
0.4899074287 0.1645356707 -0.1897340107 -0.4996368238 0.0000000033 0.3341745691
0.3570387342 0.1104902035 -0.1059446199 -0.5000644183 0.0000899708 0.3342082675
0.2370855430 0.0860685708 -0.2950148118 -0.5000286517 -0.0003630423 0.3342052788
0.2776531352 0.1170471206 -0.3167768965 -0.5000000000 0.0000000000 0.3338431468
0.3567966415 0.1604668268 -0.1018886976 -0.5000000000 0.0003646973 0.3342078441
0.4011781520 0.2461615963 -0.3311599591 -0.4999999840 -0.0000507961 0.3338467037
0.2876256842 0.0864332681 -0.2568540794 -0.5000000000 -0.0003646973 0.3342078441
0.3257917588 0.1604668268 -0.1466933143 -0.5000000000 0.0003646973 0.3342078441
0.2283464295 0.1360315267 -0.2273063390 -0.5003631827 -0.0000000004 0.3341746435
0.2233398992 0.2425395311 -0.1739562208 -0.5003631977 -0.0000012764 0.3341748335
0.2779685058 0.1239970935 -0.1395278042 -0.5001503596 0.0003270412 0.3341875305
0.2589511780 0.2378062119 -0.1640966160 -0.4996368140 0.0000001681 0.3342410104
0.2549956011 0.2545953334 -0.1916836633 -0.4999902028 0.0003640573 0.3342252289
0.3202573699 0.0864332681 -0.2966375191 -0.5000000000 -0.0003646973 0.3342078441
0.3546375728 0.1604668268 -0.1521031401 -0.5000000000 0.0003646973 0.3342078441
0.3627404243 0.0875273601 -0.2562222252 -0.5001025573 -0.0003296164 0.3341044521
0.3907688747 0.0864332681 -0.2949165146 -0.5000000000 -0.0003646973 0.3342078441
0.3679126979 0.1604668268 -0.2323355294 -0.5000000000 0.0003646973 0.3342078441
0.2245755163 0.0647351236 -0.0774573599 -0.4997219073 0.0001055941 0.3343973073
0.4894039217 0.2503079581 -0.0957814866 -0.4999708724 0.0003631904 0.3342218656
0.3369730796 0.1211822639 -0.0776381947 -0.5000443187 0.0002588199 0.3344606990
0.4356781996 0.1108734654 -0.2562371391 -0.5000000000 0.0000000000 0.3345725414
0.3317159533 0.2266095986 -0.3283409005 -0.4999998581 -0.0000548917 0.3338473018
0.2997239125 0.0864332681 -0.2763900501 -0.5000000000 -0.0003646973 0.3342078441
0.3840018515 0.0875273601 -0.1900316183 -0.5000197046 -0.0003448122 0.3341519491
0.2311085490 0.0817743953 -0.2163223249 -0.5003611594 -0.0000159114 0.3341621851
0.3168615712 0.1239970935 -0.0983958483 -0.5000000000 -0.0003646973 0.3342078441
0.2160701261 0.1850846536 -0.0934938030 -0.5003631733 0.0000000000 0.3341745367
0.4076584746 0.1239970935 -0.1977887375 -0.5000000000 -0.0003646973 0.3342078441
0.4589495576 0.2297493702 -0.1273331926 -0.5003631809 -0.0000004617 0.3342410648
0.3092632055 0.1535755075 -0.2556398316 -0.5000001619 0.0000272794 0.3338442183
0.4959025861 0.1570804662 -0.0760551982 -0.4999227144 0.0000002071 0.3345641859
0.4594207437 0.1148610514 -0.1227412206 -0.5003632127 0.0000000233 0.3342407176
0.3154685802 0.2489000761 -0.3316824755 -0.5000000000 -0.0000737072 0.3338507201
0.3854088209 0.1239970935 -0.1412066052 -0.5000178694 0.0003481762 0.3341942639
0.4934528991 0.1012704105 -0.1494561905 -0.4996367957 -0.0000015182 0.3341749174
0.3073897688 0.2069875957 -0.2766695388 -0.5000000000 0.0001426838 0.3345434700
0.3017044616 0.1810073626 -0.2655513453 -0.5000000000 0.0001420463 0.3345437402
0.3558808023 0.1586433402 -0.0610304872 -0.5000000000 0.0003646973 0.3342078441
0.4375380134 0.1239970935 -0.2391091858 -0.4998879001 0.0003283082 0.3341170553
0.2708862903 0.2212955996 -0.2935156884 -0.4996367884 0.0000000686 0.3342407296
0.4266972604 0.1239970935 -0.1849275916 -0.5000000000 -0.0003646973 0.3342078441
0.2436103842 0.1153361773 -0.0738884723 -0.5000076094 0.0000000000 0.3345723817
0.2725892201 0.1604668268 -0.2302297940 -0.5000000000 0.0003646973 0.3342078441
0.3351920641 0.0954432331 -0.2562371391 -0.5000000000 0.0000000000 0.3345725414
0.4653436920 0.2578396349 -0.2585416507 -0.4999934624 0.0003642830 0.3342237763
0.4593673213 0.2594154418 -0.2925961544 -0.4999987903 0.0003643264 0.3342242161
0.2668691882 0.2598929717 -0.3089733441 -0.4999969544 0.0003642816 0.3342235954
0.2470071624 0.2497131214 -0.0850333770 -0.4999850416 0.0003637575 0.3342273977
0.2608630790 0.1604668268 -0.0682373555 -0.5000000000 0.0003646973 0.3342078441
0.3887914423 0.2575528898 -0.2993479967 -0.5000000000 0.0002986262 0.3344121085
0.4030051114 0.1916438635 -0.3228664339 -0.4999997294 -0.0000552345 0.3338473539
0.4843944979 0.2509323108 -0.1035265413 -0.4999934395 0.0003641962 0.3342239546
0.4485672584 0.2166329762 -0.2419057626 -0.5003632039 -0.0000001907 0.3342408131
0.3808758362 0.2180593560 -0.2814076658 -0.5000000000 0.0001430441 0.3345433175
0.4524800975 0.1919015824 -0.3243002035 -0.5000468034 -0.0000557119 0.3338504794
0.2237415024 0.0799134907 -0.1309999766 -0.5003314840 -0.0001349380 0.3341603364
0.2469345967 0.0857038734 -0.1854579432 -0.5000000000 -0.0003646973 0.3342078441
0.2707742812 0.1540057807 -0.2922546515 -0.4996367932 0.0000002126 0.3342407817
0.4095523902 0.0875273601 -0.1992293186 -0.4999587804 -0.0003458388 0.3341544382
0.4507419978 0.2257154180 -0.2179042973 -0.5003631995 -0.0000002454 0.3342408602
0.2602434674 0.2166378289 -0.3283667214 -0.4999548341 -0.0000554745 0.3338502328
0.4947150940 0.2252221061 -0.1363212547 -0.4996368628 -0.0000170722 0.3341807011
0.2258642885 0.2271806847 -0.0749825643 -0.5000285828 0.0000007538 0.3345713872
0.4435112678 0.2280910703 -0.2976970644 -0.5003632167 -0.0000000532 0.3342406749
0.4971511580 0.1602417068 -0.1107777057 -0.4996368267 0.0000000007 0.3341745378
0.4810261227 0.2143164673 -0.2862854037 -0.4996368242 0.0000000952 0.3341745669
0.2261784570 0.1684522940 -0.2036746461 -0.5003631813 -0.0000000004 0.3341746246
0.4483190220 0.1078604162 -0.2448598467 -0.5003632105 -0.0000000277 0.3342407416
0.2598845574 0.2132647571 -0.1742017416 -0.4996368136 0.0000002097 0.3342410057
0.2681239929 0.1735969104 -0.2635284148 -0.4996367979 0.0000002009 0.3342408324
0.2652961640 0.2081422552 -0.3263974805 -0.4999531842 -0.0000554778 0.3338504444
0.3709659699 0.1239970935 -0.0964442365 -0.5000411112 0.0003594326 0.3342090604
0.4930600661 0.0859669234 -0.1157044585 -0.4999648698 -0.0003629701 0.3342050447
0.2949888129 0.1604668268 -0.0709458739 -0.5000000000 0.0003646973 0.3342078441
0.2196795257 0.1078420523 -0.1331203587 -0.5003632652 0.0000078767 0.3341768361
0.3570387342 0.1083423536 -0.1143664930 -0.5000700040 0.0000476050 0.3342048798
0.4262973935 0.1604668268 -0.1997258806 -0.5000000000 0.0003646973 0.3342078441
0.4484613039 0.1050877570 -0.2374603461 -0.4998772177 -0.0000181977 0.3341313343
0.2336609406 0.1562945883 -0.2852344058 -0.5003631871 -0.0000000007 0.3341746898
0.3297834849 0.1704044284 -0.2610138639 -0.5000000000 0.0001420492 0.3345437391
0.4760553407 0.2525238996 -0.1389012035 -0.4999961765 0.0003643035 0.3342242022
0.2660884190 0.1593084274 -0.0611240656 -0.5000012031 0.0000002513 0.3345725385
0.2808918718 0.1239970935 -0.1583410137 -0.5001324639 0.0003316652 0.3341757500
0.3132483430 0.1604668268 -0.2299904169 -0.5000000000 0.0003646973 0.3342078441
0.3486902280 0.0874540654 -0.2562371391 -0.5000000000 0.0000000000 0.3345725414
0.3045638097 0.2553078998 -0.2976402143 -0.5000000000 0.0001485223 0.3345405845
0.3884984201 0.0864332681 -0.3040409818 -0.5000000000 -0.0003646973 0.3342078441
0.3688677137 0.2592556416 -0.3093128437 -0.5000000000 0.0003644059 0.3342224200
0.4230396915 0.1604668268 -0.2068981129 -0.5000000000 0.0003646973 0.3342078441
