0.1994299117 0.5776450044 -0.4311068843 -0.5000000000 0.0000000000 0.4991255873
-0.1697566354 0.6724816119 -0.2566882959 -0.5000000000 0.0043339415 0.5001486918
-0.4872670361 0.4552717949 0.4758697755 -0.5001258605 -0.0001258605 0.5223793061
-0.1586606597 0.7879150895 -0.0395203510 -0.5009060232 0.0106934525 0.5152024811
-0.2361843269 0.6764717394 0.4758697755 -0.5000000000 0.0014518138 0.5217800387
0.4274773788 0.9304544367 0.4758697755 -0.5000000000 0.0000000000 0.5223813991
-0.5000000000 0.8520560254 0.4600303002 -0.5116279059 0.0000000000 0.5107534932
0.2420274310 0.6860464478 0.1095271352 -0.5000000000 0.0116279059 0.5107534932
-0.5000000000 1.0827864574 0.2151499858 -0.5116279059 0.0000000000 0.5107534932
-0.1186831169 0.8076960644 -0.0915567182 -0.5007431743 0.0105235688 0.5155806555
0.3104460176 0.3837208945 -0.2273916940 -0.4999064768 -0.0112799176 0.5128959814
-0.3488372234 0.8314743180 -0.0659295811 -0.4889380010 0.0005051976 0.5123412721
-0.5000000000 0.8797113368 0.4675162763 -0.5106688595 0.0000000000 0.5130688418
0.2335533039 0.7122500500 -0.2566882959 -0.5028718137 0.0013029301 0.5217654922
0.3372092244 0.7126579453 0.0581698725 -0.5112048013 0.0010993255 0.5107534932
-0.4928904774 0.3695018377 -0.1886115697 -0.5094505573 -0.0055197553 0.5113749350
-0.4262827743 0.4062077297 -0.4303379076 -0.5000000000 -0.0056220809 0.5009713429
-0.0428940076 0.7379043732 -0.4311068843 -0.5000000000 0.0000000000 0.4991255873
0.0761496441 0.3953488004 0.2372751698 -0.5000000000 -0.0116279059 0.5107534932
0.4588329457 0.7412259892 -0.4311068843 -0.5000000000 0.0000000000 0.4991255873
0.3372092244 0.9341141457 0.3047021054 -0.5116279059 0.0000000000 0.5107534932
0.2321109552 0.5581394830 0.2508969592 -0.5000000000 -0.0116279059 0.5107534932
-0.1601228339 0.7863327059 -0.2730388874 -0.4973216630 0.0019101626 0.5213357596
-0.3816168947 0.3953488004 0.4003032128 -0.5000000000 -0.0116078245 0.5112364234
0.4999999070 0.4577840388 0.4603468932 -0.4884419313 -0.0006946744 0.5116594698
-0.5000000000 0.8380656662 0.2368092861 -0.5116279059 0.0000000000 0.5107534932
0.4762107464 0.5330259969 0.4758697755 -0.5000000000 0.0000000000 0.5223813991
-0.3950939284 1.1279068718 0.2464419713 -0.5000000000 0.0116279059 0.5107534932
-0.5000000000 0.9191722401 0.0126752604 -0.5116279059 0.0000000000 0.5107534932
-0.1855009944 0.8066776343 -0.1050442867 -0.5012168138 0.0104097432 0.5156812834
-0.0113603478 0.9777431881 -0.4311069773 -0.5000000000 0.0000000000 0.4991255873
0.0250566605 0.5581394830 0.3495311477 -0.5000000000 -0.0116279059 0.5107534932
-0.0409108101 0.5581394830 -0.1100923328 -0.5000000000 -0.0116279059 0.5107534932
0.3614695478 0.7709183934 0.4758697755 -0.5000000000 0.0000000000 0.5223813991
-0.3298257833 0.7278110835 -0.4311068843 -0.5000000000 0.0000000000 0.4991255873
0.3372092244 0.6118415477 0.3362252885 -0.5093569642 0.0059004646 0.5107534932
-0.2402438032 0.6860464478 0.0568569075 -0.5000000000 0.0116279059 0.5107534932
0.2124859337 0.8848303014 -0.2626668186 -0.4958322213 -0.0044086042 0.5017319475
-0.3488372234 0.7087811550 0.2725987479 -0.4899330707 0.0039558136 0.5107534932
-0.5000000000 0.8025811812 -0.3933985157 -0.5116279059 0.0000000000 0.5107534932
-0.3488372117 0.9023695672 0.0186309808 -0.4886015825 0.0002048721 0.5113973652
-0.3281311206 0.5581394830 0.2627435628 -0.5000000000 -0.0116279059 0.5107534932
-0.3488372234 0.8304841786 0.2299240193 -0.4887226057 0.0008882557 0.5107534932
0.4999999070 0.4485185746 0.2223433340 -0.4884133034 -0.0008262906 0.5107534932
0.0642650870 0.8112284827 -0.0564486866 -0.5026626277 -0.0057991623 0.5014090289
0.0230073700 0.7849765316 -0.2726999107 -0.5003544767 0.0020861510 0.5221331549
-0.2085018411 0.5465115771 0.0536413380 -0.4984923257 0.0114190687 0.5110842257
-0.2065601203 0.8369007710 -0.4311068843 -0.5000000000 0.0000000000 0.4991255873
-0.3488372234 0.8669069891 0.0739717199 -0.4884137801 0.0001056279 0.5107534932
-0.1044530135 0.9752933628 -0.4311068843 -0.5000000000 0.0000000000 0.4991255873
-0.3488372117 0.8105015525 -0.2200288342 -0.4905324427 0.0010552673 0.5165041089
0.2986305769 0.8704332795 -0.2862196420 -0.5081434760 0.0018492440 0.5181532018
-0.5000000000 0.7689799052 -0.0451191295 -0.5116279059 0.0000000000 0.5107534932
-0.5000000000 0.6487132071 0.2887460255 -0.5116279059 0.0000000000 0.5107534932
0.1823194947 0.7782398695 0.0035428311 -0.4914773961 0.0058548134 0.5059723657
-0.5000000000 0.4196222982 -0.1792213845 -0.5116279059 0.0000000000 0.5107534932
-0.3488372117 1.0147418475 0.0122639814 -0.4888017801 0.0003835930 0.5119590512
0.4883028034 0.4069075552 0.0478841525 -0.4918048612 -0.0082388830 0.5107534932
0.3372092244 0.7557793716 0.0026459358 -0.5115505687 0.0002009418 0.5107534932
0.3239115513 0.5465115771 0.2020294056 -0.5043993833 0.0102300107 0.5107534932
0.4999999070 0.8359420385 0.2206795899 -0.4883720941 0.0000000000 0.5107534932
-0.3488372234 0.8124959360 0.3710920643 -0.4888511871 0.0012141045 0.5107534932
-0.0835946085 0.6860464478 -0.2398391347 -0.5000000000 0.0116279059 0.5107534932
0.1811922855 1.1173178030 -0.3774789823 -0.5037423834 0.0039744764 0.5202717481
-0.3888378941 1.1279068718 -0.3322915098 -0.5000000000 0.0116279059 0.5107534932
0.3372092244 0.9401312498 0.2369779256 -0.5116279059 0.0000000000 0.5107534932
0.1554467181 1.1279068718 -0.4261613499 -0.5000000000 0.0096706851 0.5060283425
-0.2060651785 1.1279068718 -0.3865641792 -0.5000000000 0.0116279059 0.5107534932
0.3172766333 0.6860464478 -0.0175357251 -0.5000000000 0.0116279059 0.5107534932
0.4725160840 0.2332672341 0.4526139637 -0.4954940469 -0.0056732204 0.5049149007
0.3372092244 0.7631335802 -0.0817859052 -0.5108801618 0.0003595000 0.5127906442
-0.2309446529 0.6085938620 -0.4311068843 -0.5000000000 0.0000000000 0.4991255873
-0.4912550124 1.1279068718 -0.2138455673 -0.5020385347 0.0107835223 0.5107534932
0.4999999070 0.9151649498 0.3789893543 -0.4883854895 0.0000000000 0.5110755164
0.4999999070 0.6449692540 -0.2133751604 -0.4883720941 0.0000000000 0.5107534932
0.1285346625 0.7563851157 -0.1920751391 -0.4987533955 -0.0082578132 0.5028391102
-0.2481382560 0.7659609753 -0.0099367607 -0.5016509650 0.0105114525 0.5154277369
0.3933727425 0.6190120238 0.4758697755 -0.5000000000 0.0000000000 0.5223813991
0.1193058377 0.3953488004 -0.3128864069 -0.5000000000 -0.0116239292 0.5106657955
-0.1984929234 0.5240940675 0.4758697755 -0.5000000000 0.0000000000 0.5223813991
-0.4142722522 0.7468978724 -0.4311068843 -0.5000000000 0.0000000000 0.4991255873
0.2118440849 0.9394210173 -0.2505093779 -0.4990271047 0.0103790107 0.5157483299
0.4802993042 0.3675755472 0.2444557156 -0.4898958033 -0.0047953949 0.5096689468
0.0282504043 0.5581394830 0.0354450955 -0.5000000000 -0.0116279059 0.5107534932
0.2331135132 0.5465115771 0.4130113046 -0.5059641971 0.0089787782 0.5107534932
0.0767304580 0.6529400207 -0.2566882959 -0.5010186511 0.0002364651 0.5221581200
-0.2257336534 1.0428881007 -0.3486329618 -0.4949809423 0.0036142322 0.5197041900
-0.5000000000 0.7830174620 0.1556625378 -0.5116279059 0.0000000000 0.5107534932
-0.1869041338 0.3953488004 0.0111562141 -0.5000000000 -0.0116279059 0.5107534932
0.1264639882 0.3953488004 0.0873928814 -0.5000000000 -0.0116279059 0.5107534932
-0.3488372234 0.8348451782 0.4437590924 -0.4883720941 0.0000000000 0.5107534932
-0.2526546974 0.7537454299 -0.1948534761 -0.5033519415 -0.0083737085 0.5040152264
-0.4621846082 0.8190584587 -0.4311068843 -0.5000000000 0.0000000000 0.4991255873
0.3372091314 1.0926529565 -0.0037881334 -0.5113596734 0.0002460232 0.5115267024
0.2600992084 0.4944437098 -0.4311067913 -0.5000000000 0.0000000000 0.4991255873
-0.5000000000 0.5221896956 0.4489227082 -0.5116279059 0.0000000000 0.5107534932
0.1746120303 0.7745117535 -0.0259488987 -0.4992408722 0.0098898014 0.5167400159
-0.1319879877 0.8739245234 -0.1880380348 -0.5010330115 0.0101117665 0.5163260973
0.1357260688 0.6860464013 0.4657248113 -0.5000000000 0.0111640455 0.5118308070
-0.3589393620 1.1279068718 -0.3608105420 -0.5000000000 0.0116279059 0.5107534932
0.4999999070 0.5399432870 -0.2335211120 -0.4883720941 0.0000000000 0.5107534932
-0.0741748303 0.7266809557 -0.1802106751 -0.4997558372 -0.0095223363 0.5042483310
0.0845190038 0.8752317325 -0.2906470834 -0.5025120695 0.0025966742 0.5208627597
0.3372092244 0.9733381885 -0.0158427950 -0.5110875455 0.0004956279 0.5123111675
-0.1740456582 0.5581394830 0.2748935151 -0.5000000000 -0.0116279059 0.5107534932
-0.3488372234 0.8376431198 -0.2272883335 -0.4904741753 0.0012871278 0.5164416089
0.4706360609 1.1279068718 0.3352842072 -0.5000000000 0.0116279059 0.5107534932
0.4999999070 0.9393527033 0.2444148552 -0.4883720941 0.0000000000 0.5107534932
0.3372092244 0.7974627398 -0.1636394092 -0.5101064525 0.0007314767 0.5148985509
-0.2833291597 0.5465115771 -0.1720694433 -0.4963340236 0.0105424293 0.5128305511
0.4999999070 0.9729373862 0.2474215758 -0.4883720941 0.0000000000 0.5107534932
0.0659741567 0.6408308474 0.4758697755 -0.5000000000 0.0000000000 0.5223813991
0.2898627986 0.9711648748 -0.3156577439 -0.5076237435 0.0027103137 0.5182887483
0.4416474589 1.1279068718 0.3733573199 -0.5000000000 0.0116279059 0.5107534932
-0.3488372234 0.6272681742 0.0212578410 -0.5116279059 0.0000000000 0.5107534932
0.0471012631 0.7149508521 0.3019636870 -0.4933476402 -0.0071463482 0.5169498531
-0.4519434580 1.1279068718 0.2437650762 -0.5000000000 0.0116279059 0.5107534932
0.1732582513 0.9932399076 -0.3272559289 -0.5045384531 0.0034008718 0.5196506668
0.3372092244 0.8685023378 0.0005175058 -0.5113597315 0.0002459767 0.5115265629
0.3372092244 1.1148739195 0.3909310160 -0.5115777780 0.0005310697 0.5111328304
-0.3488372234 1.0824111086 0.2788356194 -0.4883720941 0.0000000000 0.5107534932
0.4999999070 0.5234814978 -0.3985440153 -0.4884112453 0.0000000000 0.5098902840
-0.0786899694 0.8350506433 -0.2729221432 -0.4996656047 -0.0047954879 0.5002722500
-0.0749672721 0.5581394830 0.4199223970 -0.5000000000 -0.0116279059 0.5107534932
0.1278987090 0.5581394830 -0.0216592712 -0.5000000000 -0.0116279059 0.5107534932
0.0152030684 0.6860464013 0.3636987976 -0.5000000000 0.0116279059 0.5107534932
0.4999999070 0.9205899841 -0.2180816599 -0.4883720941 0.0000000000 0.5107534932
-0.0688856215 0.5465115771 0.0842179050 -0.4995018838 0.0115643012 0.5108216095
0.1383430453 0.9055421599 -0.2799441077 -0.4993517094 -0.0023588719 0.4996534593
0.2487907559 0.3953488004 0.2872341419 -0.4999247093 0.0112799176 0.5132595162
-0.5000000000 0.9784422578 -0.4035065729 -0.5116279059 0.0000000000 0.5107534932
0.2255581069 0.4689629099 0.4758697755 -0.5000000000 0.0000000000 0.5223813991
-0.2942458680 0.5465115771 -0.0130393418 -0.4974605235 0.0111325455 0.5116079815
-0.5000000000 0.6084822574 -0.0071152145 -0.5116279059 0.0000000000 0.5107534932
-0.0134488941 0.9032295671 -0.2993349198 -0.4993269419 0.0030983718 0.5217686084
0.3372092244 0.9527975625 0.3256785685 -0.5116279059 0.0000000000 0.5107534932
-0.0463224841 0.5630093430 -0.2499302500 -0.5000000000 -0.0082221737 0.5025313195
-0.0864987827 0.6860464478 0.1096253328 -0.5000000000 0.0116279059 0.5107534932
-0.5000000000 0.6158169892 0.4334878608 -0.5116279059 0.0000000000 0.5107534932
-0.5000000000 0.9084554271 0.3669951810 -0.5116279059 0.0000000000 0.5107534932
-0.0014738952 1.0930491425 -0.3652568788 -0.5001146395 0.0043154880 0.5215385852
0.3260987836 0.5533837508 -0.4311068843 -0.5000000000 0.0000000000 0.4991255873
0.0860244687 0.7220107933 -0.2569584354 -0.5010589766 0.0015203952 0.5220845038
-0.1549236949 0.6413252427 -0.2566882959 -0.5000000000 0.0000000000 0.4991255873
0.3372092244 1.1124002221 -0.1850031281 -0.5093311270 0.0018881510 0.5151611788
0.2473782561 0.8018989719 -0.4311068843 -0.5000000000 0.0000000000 0.4991255873
0.1501628349 0.5581394830 0.4443841389 -0.5000000000 -0.0116279059 0.5107534932
0.3372092244 0.8428508983 0.3697267040 -0.5114763943 0.0003879418 0.5108127025
0.2012332836 1.1279067788 -0.4269823963 -0.5000000000 0.0094301968 0.5054477611
0.2979755072 0.5465115771 0.1544460263 -0.5033775346 0.0107351385 0.5107534932
-0.0881088058 0.4421373426 0.4758697755 -0.5000000000 0.0000000000 0.5223813991
0.3375837709 1.1279068718 -0.3687047390 -0.5000000000 0.0116279059 0.5107534932
-0.1108385478 0.7054386321 0.0068898773 -0.5000960000 -0.0086608597 0.5180263762
0.3831010923 0.6675777286 -0.4311068843 -0.5000000000 0.0000000000 0.4991255873
-0.1113887106 0.5465115771 0.2715662247 -0.4972875584 0.0104504409 0.5107534932
-0.0927521890 0.5465115771 0.0687976622 -0.4993293024 0.0115279989 0.5109540513
-0.3849671735 0.3953488004 -0.3452380551 -0.5000000000 -0.0116106385 0.5103729002
-0.3226662491 0.6860464478 0.2530274009 -0.5000000000 0.0116279059 0.5107534932
0.1209333841 0.3864402896 -0.2218045782 -0.4999625233 -0.0060039180 0.5135734697
0.0182621960 0.5111001850 0.4758697755 -0.5000000000 0.0005564651 0.5223059689
0.0559117041 0.3953488004 -0.1194623319 -0.5000000000 -0.0116279059 0.5107534932
0.2971387631 0.4530885858 0.4758697755 -0.5000000000 0.0000000000 0.5223813991
0.3372092244 0.6185551053 0.4388804766 -0.4885842685 0.0000000000 0.5128962721
-0.3759968139 1.1279068718 -0.1801120705 -0.5000000000 0.0116279059 0.5107534932
0.1805165181 0.9841411526 -0.4311068843 -0.5000000000 0.0000000000 0.4991255873
-0.0764208068 0.7113561199 0.1837723608 -0.5026969765 -0.0109221618 0.5083608074
-0.2365437222 0.6982908304 -0.0314576308 -0.5012671627 -0.0114923245 0.5099128537
0.3931254983 0.8902529404 -0.4311068843 -0.5000000000 0.0000000000 0.4991255873
0.2663887543 0.8836879294 -0.2876923744 -0.5073488016 0.0020523952 0.5184511785
-0.1953972958 0.5581394830 0.3398008928 -0.5000000000 -0.0116279059 0.5107534932
0.4999998140 0.7687993820 0.0130533186 -0.4883720941 0.0000000000 0.5107534932
0.1901791800 0.3953488004 0.2976815130 -0.5000000000 -0.0116279059 0.5107534932
0.0241991954 0.4283713439 -0.4311067913 -0.5000000000 0.0000000000 0.4991255873
-0.2854204618 0.7514200580 0.0041181798 -0.5024231742 0.0041210229 0.5198599458
0.0087176852 0.5388961127 0.4758697755 -0.5000000000 0.0025017323 0.5220422712
-0.1093489549 0.8606621641 -0.1699491877 -0.5009185232 0.0098518479 0.5167651205
0.0454214144 0.3953488004 0.1224982502 -0.5000000000 -0.0116279059 0.5107534932
0.4360190990 0.8619218035 -0.4311068843 -0.5000000000 0.0000000000 0.4991255873
0.4463474352 0.3747467791 0.3712179131 -0.5106839874 -0.0016100115 0.5097501677
-0.1444399517 0.5465115771 0.1201216574 -0.4984766513 0.0112397664 0.5107534932
-0.0109682780 1.1279068718 -0.4178763623 -0.5000000000 0.0115857780 0.5109614234
-0.1687071471 0.8540036531 0.2623792023 -0.4959048376 0.0094175689 0.5160621555
0.4999999070 1.0583881922 -0.2059450215 -0.4883989546 0.0004849651 0.5107534932
0.3959157190 1.1279068718 0.3748620523 -0.5000000000 0.0116279059 0.5107534932
-0.1253695232 0.7577803132 0.0223814456 -0.5004686627 0.0059873018 0.5195043528
-0.1998921791 0.5465115771 -0.1264925173 -0.4979873490 0.0110256153 0.5125639232
-0.4319695645 1.1279068718 0.0193378994 -0.5000000000 0.0116279059 0.5107534932
0.3855454293 1.1279068718 0.2392860882 -0.5000000000 0.0116279059 0.5107534932
-0.5000000000 0.8429480379 0.3534056241 -0.5116279059 0.0000000000 0.5107534932
-0.0495586814 0.6953283190 0.2735516897 -0.5013705115 -0.0114612547 0.5102365397
-0.2493489303 0.8967523003 -0.2569138075 -0.5009176627 0.0106984525 0.5115756326
0.3372092244 0.9943473261 0.2960158620 -0.5116279059 0.0000000000 0.5107534932
-0.3488372234 0.7556706158 0.2871378279 -0.4894551405 0.0027446509 0.5107534932
0.3372092244 1.0442876470 0.2502934593 -0.5116279059 0.0000000000 0.5107534932
-0.5000000000 1.0046144531 0.2112925094 -0.5116279059 0.0000000000 0.5107534932
0.4516864115 0.3640688615 0.0644888254 -0.5091307550 -0.0064523599 0.5105768653
0.4999999070 0.5033864299 0.0888769394 -0.4883830476 -0.0002196744 0.5107534932
-0.4404856567 0.9983649071 0.4758697755 -0.5000000000 0.0000000000 0.5223813991
0.2788392182 0.3837208945 -0.2222249968 -0.4999158256 -0.0112799176 0.5135224929
-0.4067944273 1.0039421741 -0.4311068843 -0.5000000000 0.0000000000 0.4991255873
0.0768392138 0.8260910743 -0.4311068843 -0.5000000000 0.0000000000 0.4991255873
0.0471684142 0.6993627954 -0.0992354384 -0.4996573489 -0.0113010920 0.5085994120
0.2264283394 0.5644889126 -0.4311068843 -0.5000000000 0.0000000000 0.4991255873
-0.1751659837 0.8028191114 -0.4311068843 -0.5000000000 0.0000000000 0.4991255873
0.0346740898 0.9968441747 -0.4311068843 -0.5000000000 0.0000000000 0.4991255873
-0.3697939889 0.6083102457 0.4758697755 -0.5000000000 0.0000000000 0.5223813991
-0.5000000000 0.7202095377 0.1341611096 -0.5116279059 0.0000000000 0.5107534932
0.3602262223 0.4120196477 -0.4311068843 -0.5000000000 -0.0029448951 0.4998207849
0.3008894022 0.5581394830 -0.0764053708 -0.5000000000 -0.0116279059 0.5107534932
-0.1069085715 0.7990336001 0.3319019749 -0.4972571979 0.0106124641 0.5145865626
-0.3488372234 1.0797986670 -0.1260582615 -0.4899126172 0.0012818603 0.5140354231
-0.5000000000 0.9632248057 0.1672874089 -0.5116279059 0.0000000000 0.5107534932
0.4999999070 0.6529299160 -0.3548007054 -0.4883932801 0.0000000000 0.5102863188
0.4999999070 0.6870632384 -0.1813781982 -0.4883720941 0.0000000000 0.5107534932
0.0663272845 0.8034376229 -0.2412740764 -0.4988608955 -0.0060799413 0.5010851452
0.4999999070 0.4528030625 0.1147181347 -0.4884109429 -0.0007789185 0.5107534932
0.4999999070 1.0095032084 -0.3981015967 -0.4884110708 0.0000000000 0.5098942956
0.3117994361 1.0191470215 -0.3366470094 -0.5076535923 0.0029733602 0.5184847018
-0.1450868353 0.7878157290 -0.2446602854 -0.5005792558 -0.0068446156 0.5015189940
0.1955304934 0.6860464478 0.1195365877 -0.5000000000 0.0116279059 0.5107534932
-0.5000000000 0.8661019194 0.0462093736 -0.5116279059 0.0000000000 0.5107534932
0.4999999070 0.5971546072 -0.3262765336 -0.4883815708 0.0000000000 0.5105445630
0.3372092244 0.6330573830 0.0247282361 -0.4883720941 0.0000000000 0.5107534932
-0.1111203501 0.3953488004 -0.3323363121 -0.5000000000 -0.0116163478 0.5104942839
0.2408681636 0.3953488004 0.1204105062 -0.5000000000 -0.0116279059 0.5107534932
0.0170835449 0.7182047006 -0.1655352230 -0.4992531280 -0.0099019642 0.5048910286
-0.3488372350 0.6518333580 -0.1145112626 -0.4913826171 0.0000069302 0.5156194230
0.4414621450 0.4526010974 -0.4311068843 -0.5000000000 0.0000000000 0.4991255873
-0.0182755099 0.3953488004 -0.3679149251 -0.5000000000 -0.0116022431 0.5101777723
-0.0605948199 0.3953488004 -0.0019724707 -0.5000161977 0.0112799176 0.5092103422
0.2299509437 0.6860464478 0.0737340920 -0.5000000000 0.0116279059 0.5107534932
-0.0476073793 0.7306825251 -0.1910103950 -0.4995592442 -0.0089432317 0.5035650287
0.3372092244 0.7947871354 -0.0784659171 -0.5110004641 0.0003706279 0.5124879116
-0.1925448774 0.5898076777 -0.2566882959 -0.4971157561 0.0058964995 0.5171665507
0.5000000000 0.7540305578 -0.2552726914 -0.4883720941 0.0000000000 0.5107534932
0.1351217084 1.0346306131 -0.4311068843 -0.5000000000 0.0000000000 0.4991255873
-0.3488372234 0.7884252871 -0.2708266318 -0.4923849426 0.0013354301 0.5189998413
0.0843504456 0.6860464478 0.0323599795 -0.5000000000 0.0116279059 0.5107534932
-0.2987084490 0.3953488004 0.3977187363 -0.5000000000 -0.0116086152 0.5112171327
-0.4850007456 0.0933032355 0.4526139637 -0.5037398601 -0.0025230579 0.5017208080
0.2938567866 0.9807238041 -0.4311068843 -0.5000000000 0.0000000000 0.4991255873
-0.3488372234 0.8622089779 -0.1604903281 -0.4896850940 0.0011721394 0.5144373649
0.4999999070 0.8426455263 0.0915251368 -0.4883720941 0.0000000000 0.5107534932
0.1779556579 0.5581394830 -0.1822703958 -0.5000000000 -0.0116279059 0.5107534932
0.0378062639 0.6922084705 0.2477273200 -0.4982257095 -0.0110213129 0.5122826675
-0.2164873520 0.4322989249 0.4758697755 -0.5000000000 0.0000000000 0.5223813991
-0.5000000000 0.7280607230 0.3539708682 -0.5116279059 0.0000000000 0.5107534932
0.3037454601 0.9022587649 -0.2897557696 -0.5083980690 0.0020793835 0.5178733065
-0.5000000000 0.5945879331 -0.2727392944 -0.5116279059 0.0000000000 0.5107534932
-0.3248149349 1.1141851405 -0.3788526334 -0.4934433146 0.0037464183 0.5193815970
-0.3319448761 0.5581394830 0.1179891111 -0.5000000000 -0.0116279059 0.5107534932
-0.2057171553 0.8918437542 -0.2518274010 -0.5003701046 0.0108596153 0.5102833072
-0.2687391843 0.6860464478 0.4671840554 -0.5000000000 0.0107661618 0.5128339349
-0.5000000000 0.9389623661 -0.3615672629 -0.5116279059 0.0000000000 0.5107534932
-0.5000000000 0.5209985329 -0.3893262836 -0.5116279059 0.0000000000 0.5107534932
-0.4505233186 1.1279068718 0.0524173498 -0.5000000000 0.0116279059 0.5107534932
-0.2397918033 0.5581394830 0.0500130709 -0.5000000000 -0.0116279059 0.5107534932
-0.3076615179 0.4604777362 -0.4311068843 -0.5000000000 0.0000000000 0.4991255873
-0.5000000000 0.4637459569 -0.0412990601 -0.5116279059 0.0000000000 0.5107534932
-0.2957039260 0.5465115771 0.3617533443 -0.4932460937 0.0087572550 0.5107534932
-0.4978784537 0.0367710082 0.4684849622 -0.5107604874 0.0005290348 0.5138055162
0.3372092244 0.8102391456 0.2877587116 -0.5111175804 0.0013259534 0.5107534932
0.1614211129 0.5550672274 -0.4311068843 -0.5000000000 0.0000000000 0.4991255873
0.2751488930 0.5581394830 -0.1006261127 -0.5000000000 -0.0116279059 0.5107534932
-0.3143262033 0.5581394830 -0.2236335897 -0.5000000000 -0.0116279059 0.5107534932
-0.2513178720 1.0593751340 -0.3555814727 -0.4945631866 0.0036336276 0.5196046203
0.3372092244 1.0736929350 -0.1545888635 -0.5098798130 0.0014816510 0.5145596673
0.4242767512 1.1279068718 0.2790485380 -0.5000000000 0.0116279059 0.5107534932
-0.2380704662 0.5581394830 -0.1016831475 -0.5000000000 -0.0116279059 0.5107534932
-0.2397601405 0.8099577386 0.1991360454 -0.5073228714 -0.0063244878 0.5045525752
-0.0688359006 0.9609004222 -0.4311068843 -0.5000000000 0.0000000000 0.4991255873
0.4024424974 1.0056914297 0.4758697755 -0.5000000000 0.0000000000 0.5223813991
0.4999999070 0.5431436471 0.2125590093 -0.4883720941 0.0000000000 0.5107534932
-0.5000000000 0.9631222592 -0.1557751425 -0.5116279059 0.0000000000 0.5107534932
0.4999999070 0.8766739533 -0.3982250850 -0.4884111174 0.0000000000 0.5098931793
0.2087626550 0.5581394830 0.0247807128 -0.5000000000 -0.0116279059 0.5107534932
-0.3584766992 0.8394558173 0.4758697755 -0.4978070118 0.0000000000 0.5220147480
-0.4679491890 1.1279069648 0.0134706674 -0.5000000000 0.0116279059 0.5107534932
-0.0374047872 0.8361184920 0.1629118162 -0.4948551633 0.0092023131 0.5155636555
0.0339416131 0.5581394830 0.1955979179 -0.5000000000 -0.0116279059 0.5107534932
-0.5000000000 0.4466139817 -0.1954816620 -0.5116279059 0.0000000000 0.5107534932
-0.3488372234 0.9488493420 0.0095019700 -0.4887294778 0.0003190465 0.5117561908
0.4999999070 0.8231381327 -0.0921566949 -0.4883720941 0.0000000000 0.5107534932
-0.1555649390 0.5581394830 0.2292817170 -0.5000000000 -0.0116279059 0.5107534932
0.3372092244 0.8196880517 0.2021988475 -0.5111781734 0.0011685115 0.5107534932
0.2731364165 1.0091625457 -0.4311069773 -0.5000000000 0.0000000000 0.4991255873
-0.4614962478 0.3888211034 0.0340093515 -0.5001347442 -0.0013847208 0.5135734697
-0.1107305362 0.8845381735 0.1770081405 -0.4955907679 0.0094692200 0.5157237253
-0.1490466257 0.9050167879 0.1052926821 -0.5030929183 0.0102798130 0.5096273886
0.2570427435 0.6860464478 0.0199285970 -0.5000000000 0.0116279059 0.5107534932
-0.4864373152 1.1279068718 -0.1415620740 -0.5000000000 0.0116279059 0.5107534932
-0.1193051401 0.5581394830 0.1910888601 -0.5000000000 -0.0116279059 0.5107534932
0.3372092244 0.8559660948 0.0710784527 -0.5114813827 0.0003807093 0.5107534932
0.2844383921 0.3865159640 -0.0125022721 -0.4999141744 -0.0058570576 0.5079335167
0.3372092244 0.9435107262 -0.2005328941 -0.5099058828 0.0015794533 0.5157174695
0.0448659377 0.7011929697 0.2759389336 -0.4956779539 -0.0098513247 0.5145768068
-0.4431231332 0.8464701538 -0.4311068843 -0.5000000000 0.0000000000 0.4991255873
-0.5000000000 0.5753779232 0.0962047062 -0.5116279059 0.0000000000 0.5107534932
0.1769674254 0.3921005449 -0.2218045782 -0.4999459535 0.0049778484 0.5135734697
-0.1462334399 0.5465115771 0.4501391965 -0.4964390468 0.0100821037 0.5107534932
-0.0685367494 0.7490075815 -0.2206056132 -0.4998895581 -0.0076073830 0.5020534940
0.2201572935 0.9786666183 -0.4311068843 -0.5000000000 0.0000000000 0.4991255873
0.3372092244 0.9651834335 0.1952728481 -0.5116279059 0.0000000000 0.5107534932
-0.3109509594 0.6493145094 -0.2566882959 -0.4955058144 0.0001732325 0.5213367596
-0.5000000000 0.4636135964 -0.2802811309 -0.5116279059 0.0000000000 0.5107534932
-0.3488372234 1.1163004310 0.1069977633 -0.4883801406 0.0000167907 0.5107536792
0.4999999070 0.9669319798 0.2905638625 -0.4883720941 0.0000000000 0.5107534932
-0.3488372234 0.7774371835 -0.0982088455 -0.4893012336 0.0004352907 0.5132201557
0.3808396855 0.3953488004 0.1383551557 -0.5000000000 -0.0116279059 0.5107534932
0.1179010123 0.8238702955 -0.0430068972 -0.4921520240 0.0056013367 0.5063266331
-0.5000000000 0.4454970283 -0.3149824533 -0.5116279059 0.0000000000 0.5107534932
0.4999999070 0.9799427577 -0.1804985937 -0.4883720941 0.0000000000 0.5107534932
0.3372092244 0.8022354603 0.4578281493 -0.5113226036 0.0007078837 0.5116373536
0.0517188208 0.4802837344 0.4758697755 -0.5000000000 0.0000000000 0.5223813991
-0.3976483002 1.0936929448 0.4758697755 -0.5000000000 0.0000000000 0.5223813991
0.1136819545 0.5465116236 -0.1155611462 -0.5008782557 0.0112944757 0.5125374581
0.3372092244 0.8775595812 0.4409186508 -0.5115931385 0.0000133837 0.5115452140
-0.5000000000 0.5425159960 -0.3513445894 -0.5116279059 0.0000000000 0.5107534932
-0.0837947829 1.0315314854 -0.3456882760 -0.4981616281 0.0041205578 0.5209346201
-0.5000000000 0.8348522712 0.4095931189 -0.5116279059 0.0000000000 0.5107534932
0.0519127859 0.8610864780 0.0404937113 -0.4941724424 0.0090399410 0.5150445044
-0.3488372117 1.0685446913 0.3786201799 -0.4883940708 0.0002961628 0.5108611909
-0.3544071298 1.1279068718 -0.4272178498 -0.5000000000 0.0093612549 0.5052812960
0.3082805178 0.3953488004 -0.3504655197 -0.5000000000 -0.0116084989 0.5103255746
0.1017228394 0.7960616004 0.1254889825 -0.4952838842 0.0100915921 0.5139067371
0.4654980148 0.3953488004 -0.3849092142 -0.4997672210 0.0112736850 0.5088907957
0.4869864663 1.0185244285 0.4758697755 -0.4954194423 0.0000000000 0.5213000736
-0.0793777252 0.5581394830 0.1719541642 -0.5000000000 -0.0116279059 0.5107534932
0.3120741919 0.7594676503 -0.4311068843 -0.5000000000 0.0000000000 0.4991255873
-0.3488372234 0.6416591612 0.2339628096 -0.4900580474 0.0042725229 0.5107534932
-0.5000000000 0.9788968275 -0.3582951469 -0.5116279059 0.0000000000 0.5107534932
-0.5000000000 0.6383319522 0.4030533055 -0.5116279059 0.0000000000 0.5107534932
0.3372092244 0.9885432220 -0.1147240417 -0.5104563130 0.0010745929 0.5141307719
-0.0200751144 0.6484434746 -0.2566882959 -0.5000000000 0.0000000000 0.4991255873
0.3289347950 0.6826929714 -0.0564151982 -0.4911496636 0.0073506272 0.5107534932
-0.2667344287 1.1279068718 -0.4239255013 -0.5000000000 0.0103255572 0.5076093423
0.3372092244 0.8627750593 0.1462913876 -0.5115739640 0.0001401511 0.5107534932
-0.4191619726 0.9754455023 -0.4311068843 -0.5000000000 0.0000000000 0.4991255873
0.4999999070 0.7508822790 -0.2885857232 -0.4883720941 0.0000000000 0.5107534932
0.3979440793 0.3837208945 -0.2666883066 -0.4998806047 -0.0112799176 0.5081309120
-0.4627652128 0.3953488004 0.1572976889 -0.5000000000 -0.0116279059 0.5107534932
0.4999999070 0.6044042577 -0.0508289313 -0.4883720941 0.0000000000 0.5107534932
0.1548257298 0.8495028396 -0.2838940027 -0.5042958019 0.0021363021 0.5200310621
0.4999999070 0.6299673833 -0.2371346000 -0.4883720941 0.0000000000 0.5107534932
0.4999999070 0.8566660366 -0.2087926957 -0.4883720941 0.0000000000 0.5107534932
-0.2899933684 1.1058419553 -0.4311068843 -0.5000000000 0.0000000000 0.4991255873
0.0310501715 0.5465115771 -0.0295202589 -0.5002398837 0.0114637547 0.5117984815
0.3674517914 0.8763878487 -0.4311069773 -0.5000000000 0.0000000000 0.4991255873
0.0813398529 0.8701790237 -0.0342643166 -0.4936689192 0.0088739992 0.5116849350
0.2388081406 0.5581394830 0.0245060152 -0.5000000000 -0.0116279059 0.5107534932
-0.5000000000 0.5260389859 0.4097557119 -0.5116279059 0.0000000000 0.5107534932
0.3372092244 0.7666116031 0.3305900448 -0.5107118944 0.0023800114 0.5107534932
0.4467115166 0.3317017366 0.4739441594 -0.5096100572 0.0042637089 0.5126039698
-0.1241697210 0.8198021447 -0.1221877619 -0.5009388720 0.0095844177 0.5171476438
-0.5000000000 0.8334317015 -0.4034055264 -0.5116279059 0.0000000000 0.5107534932
0.3372092244 0.8972733119 -0.1308304471 -0.5104278711 0.0011006743 0.5142127719
0.3372092244 0.7638882661 0.2945852226 -0.5106727548 0.0024817207 0.5107534932
-0.3035250066 0.8659535822 -0.4311068843 -0.5000000000 0.0000000000 0.4991255873
-0.4132371476 0.6737267048 -0.4311068843 -0.5000000000 0.0000000000 0.4991255873
0.1358190455 0.3953488004 -0.1766888266 -0.5000000000 -0.0116279059 0.5107534932
-0.0043224531 0.7372906058 0.3633294604 -0.4921616403 -0.0017430463 0.5183842250
-0.5000000000 0.4289913671 0.2881146767 -0.5116279059 0.0000000000 0.5107534932
0.0177367425 0.5465115771 -0.1811678145 -0.5001370232 0.0113047431 0.5131009465
0.3387471662 1.1279068718 -0.0338322817 -0.5014785929 0.0112902664 0.5107534932
-0.1660929264 0.9831204899 -0.3229531269 -0.4957249539 0.0034055346 0.5197557482
0.1126454663 1.1273926858 -0.4311068843 -0.5000000000 0.0078586504 0.5023807498
-0.3488372234 1.0200357540 0.3378745674 -0.4883720941 0.0000000000 0.5107534932
0.4999999070 0.5141113126 -0.3167341973 -0.4883818732 -0.0000966279 0.5106355281
0.3372092244 0.6412609287 -0.0175970158 -0.4883720941 0.0000000000 0.5107534932
-0.5000000000 0.4538819578 -0.0067262029 -0.5116279059 0.0000000000 0.5107534932
-0.1880477499 0.7356397688 0.2609879467 -0.5051452088 -0.0094141154 0.5067534936
0.1036382578 0.3953488004 -0.3833479469 -0.5000000000 -0.0115949873 0.5100278653
0.2674023123 0.6860464478 -0.1314414587 -0.5000000000 0.0116279059 0.5107534932
-0.5000000000 0.5994905256 0.1564063401 -0.5116279059 0.0000000000 0.5107534932
-0.5000000000 0.8686645006 0.3207608713 -0.5116279059 0.0000000000 0.5107534932
0.1351913014 0.3842471852 -0.2683162018 -0.4999583023 -0.0102588246 0.5079335167
-0.1383180104 0.5465115771 -0.0272019451 -0.4989998257 0.0113837780 0.5117785629
-0.2388643499 0.8949452888 -0.4311068843 -0.5000000000 0.0000000000 0.4991255873
-0.1417510798 0.8537608392 -0.2843671189 -0.4962032678 0.0022429068 0.5202751900
0.4728988862 0.0670608310 -0.4946408435 -0.4945228028 0.0024665695 0.5021491451
0.3372092244 0.7214102003 0.3796225752 -0.5102932432 0.0034677671 0.5107534932
0.2100391200 0.3953488004 -0.2840051654 -0.5000000000 -0.0116279059 0.5107534932
0.2119486780 1.0654722614 -0.3587662166 -0.5047220112 0.0037713834 0.5198887598
0.4999999070 0.5431714960 -0.3046402798 -0.4883726871 0.0000000000 0.5107404583
-0.5000000000 0.9105400316 -0.2602938072 -0.5116279059 0.0000000000 0.5107534932
0.0572027040 0.8905805567 -0.2799441077 -0.4993083140 -0.0024740579 0.4995825175
0.4419042031 1.1279068718 0.3191344761 -0.5000000000 0.0116279059 0.5107534932
0.4526301556 0.3621814082 0.1859681397 -0.5091103247 -0.0066829412 0.5101436444
-0.3488372234 1.0702110865 -0.2527359125 -0.4912455241 0.0023681858 0.5166213764
0.3059363436 0.5251884860 -0.4311068843 -0.5000000000 0.0000000000 0.4991255873
0.3372092244 0.8016575766 0.4272413033 -0.5112242199 0.0009950813 0.5113105978
0.1357698943 0.9963331864 -0.4311068843 -0.5000000000 0.0000000000 0.4991255873
0.4999999070 0.4581944225 -0.0952296481 -0.4884079662 -0.0007193139 0.5107534932
-0.0345662177 0.9075176365 -0.2597684468 -0.5013202324 0.0109286734 0.5092661910
-0.5000000000 0.7103547130 -0.1945373482 -0.5116279059 0.0000000000 0.5107534932
0.0465893329 0.5581394830 -0.1163678671 -0.5000000000 -0.0116279059 0.5107534932
0.0241173117 0.6996198535 -0.2566882959 -0.5002965465 0.0011272092 0.5222519107
0.4448210284 0.9798681530 -0.4311067913 -0.5000000000 0.0000000000 0.4991255873
0.4588625736 0.5565644133 -0.4311068843 -0.5000000000 0.0000000000 0.4991255873
-0.5000000000 1.0849180735 -0.3271971149 -0.5116279059 0.0000000000 0.5107534932
0.0523710882 0.5805410274 0.4758697755 -0.5000000000 0.0000000000 0.5223813991
-0.3451928167 0.3953488004 0.4179021646 -0.5000000000 -0.0116022896 0.5113692955
-0.4685621541 0.3604650827 0.0821271377 -0.4943067563 -0.0087689062 0.5099638886
-0.1736747745 0.6483279629 -0.4311068843 -0.5000000000 0.0000000000 0.4991255873
0.1275090812 0.7323445830 0.2169524624 -0.4921269310 -0.0037107090 0.5178523297
0.1367836268 0.5465115771 -0.1497854919 -0.5013443836 0.0111322083 0.5127959930
-0.3616636757 0.3837208945 0.0307130495 -0.5001052325 -0.0112799176 0.5131737604
-0.0911155032 0.6198487679 -0.4311068843 -0.5000000000 0.0000000000 0.4991255873
-0.0754850046 0.8903822893 -0.2944120947 -0.4977861979 0.0027823021 0.5210152132
0.0939335843 0.8663063148 -0.1595178049 -0.5000318140 0.0085743829 0.5185881436
0.4999998140 0.7552820460 -0.1233967967 -0.4883720941 0.0000000000 0.5107534932
0.3724281863 1.1279069648 -0.1932783599 -0.5000000000 0.0116279059 0.5107534932
0.3372092244 0.8013260534 0.2574639121 -0.5110207432 0.0015775580 0.5107534932
-0.1987310048 0.3953488004 -0.3636706697 -0.5000000000 -0.0116036617 0.5102125397
-0.5000000000 1.1268799184 0.2947757110 -0.5085229643 0.0074959993 0.5107534932
-0.0673376100 0.8440059447 0.0160202136 -0.5067815924 -0.0047946740 0.5028909823
0.2206214911 0.3953488004 0.2416539950 -0.5000000000 -0.0116279059 0.5107534932
-0.4749954326 0.0034751392 -0.5107534932 -0.4987724303 -0.0067772552 0.5041805519
0.4999999070 0.6566743924 0.2085465562 -0.4883720941 0.0000000000 0.5107534932
-0.0473756584 0.6034165253 -0.2566882959 -0.4992937675 0.0043623484 0.5188631785
-0.5000000000 1.0440775773 0.4436539994 -0.5116279059 0.0000000000 0.5107534932
-0.0211628818 0.6196274307 -0.2566882959 -0.5000000000 0.0000000000 0.4991255873
0.4999999070 1.0531233788 -0.1410068183 -0.4883949313 0.0004122907 0.5107534932
0.1807306692 0.7013007952 -0.0174358298 -0.4975653723 -0.0110712199 0.5120401791
-0.5000000000 0.8852527549 0.3845892026 -0.5116279059 0.0000000000 0.5107534932
0.4771871300 0.9007178930 -0.4311068843 -0.4998018372 0.0000000000 0.4991723664
0.0563899599 0.7453351749 0.2960459201 -0.4917122798 -0.0002178604 0.5184495855
-0.5000000000 0.8202684237 -0.0714774410 -0.5116279059 0.0000000000 0.5107534932
-0.4243664722 1.1279068718 0.2496876105 -0.5000000000 0.0116279059 0.5107534932
0.0123415570 0.8801236739 -0.0762440336 -0.5037013369 -0.0045485228 0.5016394708
-0.3488372234 0.8748434302 0.0124001093 -0.4886016406 0.0002049186 0.5113975280
0.3266766673 0.4067874854 0.4756805546 -0.5000000000 -0.0053041042 0.5210002829
-0.4579894109 0.3747188256 -0.2309065308 -0.4896998847 -0.0040654066 0.5112081211
-0.3488372350 0.6704441121 0.0083072143 -0.4883819778 0.0000046279 0.5107797490
-0.2968462747 0.9596773177 -0.3105967909 -0.4924296519 0.0026792904 0.5183353297
0.4999999070 0.5008950348 0.0443379552 -0.4883844197 -0.0002472209 0.5107534932
0.5000000000 0.8468188863 -0.1648029789 -0.4883720941 0.0000000000 0.5107534932
-0.0617005524 0.3953488004 0.3828011563 -0.5000000000 -0.0116127896 0.5111105397
-0.0121422314 0.5581394830 0.4708783457 -0.5000000000 -0.0096841270 0.5154461904
-0.4998550465 0.3834309760 0.3428980437 -0.5113945571 0.0014326743 0.5101560863
-0.5000000000 1.0076518365 -0.3592352398 -0.5116279059 0.0000000000 0.5107534932
-0.0358108223 0.5581394830 -0.0142062836 -0.5000000000 -0.0116279059 0.5107534932
-0.2715468468 0.5465115771 0.2852363281 -0.4947307563 0.0095245340 0.5107534932
0.1717271817 0.6621156128 -0.2566882959 -0.5023888021 0.0003983139 0.5218415619
-0.4749971070 0.3953488004 0.4856205537 -0.4989347094 0.0103486386 0.5151755277
-0.1811997041 0.8531630020 -0.1708327341 -0.5011669069 0.0094032549 0.5173981670
-0.3488372350 0.6977908304 0.4191688971 -0.4899322451 0.0039537089 0.5107534932
0.1550093693 1.0965706422 -0.4311068843 -0.5000000000 0.0000000000 0.4991255873
-0.5000000000 0.7671090217 0.1202909597 -0.5116279059 0.0000000000 0.5107534932
0.3285701787 0.5821999342 0.4582641260 -0.4893421870 0.0000000000 0.5152031556
0.3391764568 0.6089553271 -0.4311068843 -0.5000000000 0.0000000000 0.4991255873
0.4611453525 0.3561098971 -0.4458983248 -0.5028205462 0.0090441852 0.5070491912
0.4999999070 0.7978113909 0.0293992473 -0.4883720941 0.0000000000 0.5107534932
-0.5000000000 0.5771898533 -0.0691334878 -0.5116279059 0.0000000000 0.5107534932
0.1992418419 0.5868312361 -0.2566882959 -0.5000000000 0.0000000000 0.4991255873
0.2560968832 0.7925138449 -0.1801399309 -0.4912529543 -0.0039771624 0.5053517030
0.1328621155 0.6368076268 -0.2566882959 -0.5000000000 0.0000000000 0.4991255873
-0.3488372234 0.7735328001 0.3743345756 -0.4892426057 0.0022060347 0.5107534932
-0.5000000000 0.7710043585 -0.2407102160 -0.5116279059 0.0000000000 0.5107534932
-0.0454461237 0.9933538146 -0.3297159635 -0.4986912676 0.0039667322 0.5210454225
-0.5000000000 0.9185282750 0.2517163661 -0.5116279059 0.0000000000 0.5107534932
-0.1309034995 0.4230249606 -0.4311068843 -0.5000000000 0.0000000000 0.4991255873
0.3397088289 1.1241561396 0.3566903680 -0.5081946388 0.0068913831 0.5111878536
-0.1369598012 0.3837208945 0.2513975289 -0.5000387791 -0.0112799176 0.5089140050
-0.4731570025 1.1279068718 -0.2350333212 -0.5000000000 0.0116279059 0.5107534932
-0.1869608663 0.7137839103 -0.1343571794 -0.5008966860 -0.0107859409 0.5069745168
-0.0930695146 0.3837208945 0.2509151453 -0.5000258023 -0.0112799176 0.5088555050
0.3688478727 0.3953488004 -0.0277835963 -0.5000000000 -0.0116279059 0.5107534932
0.3580701992 0.3953488004 0.3777842963 -0.5000000000 -0.0116148943 0.5110664234
-0.5000000000 1.0679763890 0.1398447254 -0.5116279059 0.0000000000 0.5107534932
-0.5000000000 0.6686314727 0.3515049731 -0.5116279059 0.0000000000 0.5107534932
0.4142339033 1.1279068718 -0.3092837445 -0.5000000000 0.0116279059 0.5107534932
-0.4668328054 0.7173985495 0.4758697755 -0.5000000000 0.0000000000 0.5223813991
-0.3488372234 0.7315139552 0.4431387785 -0.4894765591 0.0027989183 0.5107534932
0.3243673535 0.3953488004 -0.1986747431 -0.5000000000 -0.0116279059 0.5107534932
-0.1022732230 0.6477713816 0.4758697755 -0.5000000000 0.0000000000 0.5223813991
0.4581242946 1.1279068718 -0.2925789205 -0.5000000000 0.0116279059 0.5107534932
0.1282171509 0.9535237718 -0.3118733024 -0.5036840578 0.0032213950 0.5200418877
0.4869344780 1.0726322723 0.4758697755 -0.4954264655 0.0004948372 0.5212843178
0.2848795665 1.0324118807 -0.3429550902 -0.5068550459 0.0031943602 0.5188699575
0.0481239955 0.8059952506 -0.2779546079 -0.5009549069 0.0022067789 0.5218565270
0.0813783064 0.6860464478 -0.1759160825 -0.5000000000 0.0116279059 0.5107534932
0.3878687546 0.3953488004 0.3160999532 -0.5000000000 -0.0116279059 0.5107534932
0.1217838840 0.5465115771 -0.1743978268 -0.5013041278 0.0110904525 0.5129980744
-0.2132773290 0.5629724360 -0.4311068843 -0.5000000000 0.0000000000 0.4991255873
-0.1331978016 0.6473749979 0.4758697755 -0.5000000000 0.0000000000 0.5223813991
-0.4948684888 0.3734578490 0.1978174060 -0.5105867781 -0.0028574300 0.5099903421
0.4999999070 0.7428851635 -0.3802748890 -0.4884037453 0.0000000000 0.5100556909
-0.4358607153 0.3953488004 -0.3087373492 -0.5000000000 -0.0116256268 0.5107033537
0.3372092244 1.0660174939 0.1049180891 -0.5116279059 0.0000000000 0.5107534932
0.4606727827 0.3953488004 -0.3172404879 -0.5030021160 0.0099359991 0.5090024352
0.3372092244 0.6928822030 0.2178570902 -0.5102038130 0.0037001392 0.5107534932
0.4999999070 0.6290426740 -0.1566329215 -0.4883720941 0.0000000000 0.5107534932
0.0713767492 1.0721366212 -0.4311068843 -0.5000000000 0.0000000000 0.4991255873
-0.2141708638 0.7505154418 0.2595687607 -0.5061280808 -0.0086884294 0.5064679006
0.4999998140 0.9799671647 0.3930334344 -0.4883898964 0.0000000000 0.5111815397
-0.3919252194 1.1279069648 -0.4169605717 -0.5000000000 0.0116279059 0.5107534932
0.4999999070 0.8022995998 -0.4188547924 -0.4884195941 0.0000000000 0.5097064003
0.0187265215 0.3837208945 0.2689208529 -0.4999927442 -0.0112799176 0.5110388653
0.3751598721 0.7365868385 0.4758697755 -0.5000000000 0.0000000000 0.5223813991
0.0054511972 0.6860464013 0.1334893306 -0.5000000000 0.0116279059 0.5107534932
-0.5000000000 1.0789596089 0.0067824819 -0.5116279059 0.0000000000 0.5107534932
-0.5000000000 0.5404689614 0.2315733447 -0.5116279059 0.0000000000 0.5107534932
-0.3488372234 0.6110775362 0.2090929631 -0.4898194777 0.0036679531 0.5107534932
-0.2359977804 0.5465115771 0.1401202486 -0.4974722212 0.0109715571 0.5107534932
-0.1668689263 0.6860464478 0.3748116570 -0.5000000000 0.0116279059 0.5107534932
-0.3488372234 0.8027525765 -0.0628516162 -0.4888137103 0.0003762209 0.5119861210
0.1924780286 0.6214399422 0.4758697755 -0.5000000000 0.0000000000 0.5223813991
0.0384850546 0.5581394830 -0.0537082683 -0.5000000000 -0.0116279059 0.5107534932
-0.3263948766 0.6860464478 -0.1900403021 -0.5000000000 0.0116279059 0.5107534932
-0.2093880038 0.3953488004 -0.0794302426 -0.5000000000 -0.0116279059 0.5107534932
-0.1849585526 0.7464251166 0.2301518216 -0.5059683483 -0.0085398364 0.5060392843
0.4999999070 0.4494331326 0.2515862731 -0.4884128034 -0.0008161860 0.5107534932
-0.2357891641 0.7882737639 -0.4311068843 -0.5000000000 0.0000000000 0.4991255873
0.4382204476 0.3953488004 0.4073192121 -0.5000000000 -0.0116056152 0.5112894001
-0.4780049555 0.1362049757 -0.4885910883 -0.5008955464 0.0046411972 0.5021287847
-0.4353777269 0.3953488004 -0.1674506879 -0.5000000000 -0.0116279059 0.5107534932
0.4999999070 0.9745832931 -0.3891103533 -0.4884073732 0.0000000000 0.5099757026
0.4999999070 0.4779006648 0.4350362444 -0.4884244894 -0.0004812325 0.5114776792
-0.5000000000 0.8165156450 -0.3014087917 -0.5116279059 0.0000000000 0.5107534932
0.2807085902 0.5465115306 0.1828949074 -0.5037352787 0.0104618711 0.5107534932
0.3323961435 0.5465115771 -0.2145310556 -0.5050763600 0.0100888363 0.5130786441
0.3554740832 0.7753863000 -0.4311068843 -0.5000000000 0.0000000000 0.4991255873
-0.0410566939 0.6860464478 0.4441523250 -0.5000000000 0.0116279059 0.5107534932
-0.3705596632 0.3953488004 0.3565838912 -0.5000000000 -0.0116215454 0.5109063653
-0.1543155205 0.6860464013 -0.0241628640 -0.5000000000 0.0116279059 0.5107534932
-0.4648891777 0.1060911180 0.4870434721 -0.4919940938 0.0019876161 0.5179279809
0.4953493493 0.6324878365 0.4688924971 -0.4909670008 0.0000000000 0.5154925741
-0.4846786061 0.3604650827 -0.1200998784 -0.5049441740 -0.0094238247 0.5108477374
-0.3488372234 0.8169524705 0.0364970257 -0.4885045941 0.0003357674 0.5107534932
-0.4279212044 0.3953488004 0.1375089116 -0.5000000000 -0.0116279059 0.5107534932
-0.0606078199 0.5465115771 -0.0305480030 -0.4995617442 0.0114416966 0.5118073070
0.2736634745 0.7643518010 -0.2675436786 -0.5047189647 0.0015670464 0.5206793178
-0.1453849981 0.3953488004 -0.1930015809 -0.5000000000 -0.0116279059 0.5107534932
-0.2144565382 0.7027924346 -0.0759334057 -0.5012083720 -0.0113640571 0.5089857608
-0.2772998812 0.8217146329 0.3493719384 -0.5040397787 0.0032956625 0.5208834806
-0.5000000000 0.5068994994 0.3742981570 -0.5116279059 0.0000000000 0.5107534932
0.4166177287 0.4179403216 -0.4311068843 -0.5000000000 -0.0002970930 0.4991957268
-0.1507141488 0.5581394830 0.2596378072 -0.5000000000 -0.0116279059 0.5107534932
-0.5000000000 0.7352255246 -0.1499345384 -0.5116279059 0.0000000000 0.5107534932
-0.5000000000 0.4587212945 -0.3975288526 -0.5116279059 0.0000000000 0.5107534932
-0.0899401312 0.9149778567 0.0147226905 -0.5078247551 0.0056937088 0.5048370751
-0.3488372234 0.9339180875 -0.1781139660 -0.4900110242 0.0014631161 0.5153518532
0.2704837888 0.5465115771 0.2462106457 -0.5047493717 0.0098289293 0.5107534932
0.3372092244 1.1078600132 0.4228287804 -0.5115417315 0.0009129418 0.5114055978
0.2128400849 0.8065312506 -0.2184592646 -0.4971431282 -0.0064205459 0.5017451801
-0.1054978855 1.1230189188 -0.3797073077 -0.4991017443 0.0070356273 0.5184812715
-0.3987893931 0.6513768813 0.4758697755 -0.5000000000 0.0000000000 0.5223813991
0.4535982020 0.3953487539 -0.3563296820 -0.5080861155 0.0073998714 0.5077258656
-0.5000000000 0.8760115232 0.4338321980 -0.5116279059 0.0000000000 0.5107534932
0.2615263478 0.3953488004 -0.1244229012 -0.5000000000 -0.0116279059 0.5107534932
-0.3488372234 0.8744617791 -0.2024055102 -0.4900106172 0.0014627440 0.5153507021
-0.0509703441 0.5465115771 0.3055838611 -0.4987588141 0.0110891036 0.5107534932
0.4999999070 0.6582691597 0.1460241783 -0.4883720941 0.0000000000 0.5107534932
0.4248461233 0.5604159711 -0.4311068843 -0.5000000000 0.0000000000 0.4991255873
0.2382103034 0.6860464478 0.2936128273 -0.5000000000 0.0116279059 0.5107534932
-0.0538434252 1.0531825532 -0.3531318218 -0.4989094420 0.0042306508 0.5211976666
0.3372092244 0.6845665177 -0.1988028478 -0.5061150343 0.0007055464 0.5190624459
0.4999999070 0.6017759324 -0.1500017826 -0.4883720941 0.0000000000 0.5107534932
-0.4771161184 0.3953488004 0.1957934643 -0.5002267907 0.0108684176 0.5130823418
-0.1893562963 0.7572289528 -0.2152806951 -0.5010840348 -0.0081585574 0.5027190288
-0.4636812476 0.0360712641 0.4540489985 -0.4939743145 0.0001367791 0.5017413196
-0.4753345604 0.3953488004 0.3316512773 -0.4991404768 0.0105343246 0.5140638650
0.4563453994 0.3604650595 0.0970351480 -0.5062152552 -0.0085087550 0.5100282026
0.3370348989 0.6745928675 0.2960878969 -0.4896323382 0.0052454646 0.5107534932
0.3372092244 0.6911326799 0.1543474217 -0.5105274758 0.0028591858 0.5107534932
0.1518835324 0.3953488004 -0.3286465218 -0.5000000000 -0.0116174524 0.5105231095
0.4999999070 0.8323445156 -0.4168080717 -0.4884187453 0.0000000000 0.5097249351
0.4978218956 1.1184569774 0.3473774968 -0.4896364777 0.0029872090 0.5108321792
0.1075457923 0.5581394830 0.1953323481 -0.5000000000 -0.0116279059 0.5107534932
0.2032438997 0.7114313059 -0.2566882959 -0.5024991160 0.0012965580 0.5218346201
-0.5000000000 0.8186201215 -0.0404339672 -0.5116279059 0.0000000000 0.5107534932
0.3988648350 0.3953488004 -0.2295620310 -0.4998803372 0.0112799176 0.5126328186
0.4999999070 0.8539301996 -0.0964912992 -0.4883720941 0.0000000000 0.5107534932
0.3372092244 1.0286582183 -0.0669761391 -0.5108294525 0.0007323488 0.5130551558
0.1279962555 0.3953488004 -0.0979103688 -0.5000000000 -0.0116279059 0.5107534932
-0.1143047801 0.5465115771 0.2249036361 -0.4972165468 0.0104196153 0.5107534932
0.0617891687 0.6898056103 0.1821684540 -0.5004418721 -0.0115273710 0.5099616328
-0.0169840100 0.5465115771 0.0110669699 -0.4998771861 0.0115231617 0.5114498885
-0.5000000000 0.7583956388 0.3581426469 -0.5116279059 0.0000000000 0.5107534932
-0.1586625783 0.6020918859 0.4758697755 -0.5000000000 0.0000000000 0.5223813991
-0.1015163161 0.6860464013 -0.1070543214 -0.5000000000 0.0116279059 0.5107534932
-0.2049584577 0.8664835589 -0.4311068843 -0.5000000000 0.0000000000 0.4991255873
0.2360835129 0.8210107841 -0.2807282471 -0.5063172203 0.0016623138 0.5192463994
0.2700382656 0.7715149980 -0.1156861811 -0.4899657800 0.0014320348 0.5106869002
-0.5000000000 0.5643806801 -0.2808184681 -0.5116279059 0.0000000000 0.5107534932
-0.3676389193 0.3953488004 -0.0314493401 -0.5000000000 -0.0116279059 0.5107534932
0.3017987277 0.3953488004 0.1815430819 -0.5000000000 -0.0116279059 0.5107534932
0.2715158003 1.0964787352 -0.4311068843 -0.5000000000 0.0000000000 0.4991255873
-0.1260605232 0.7152971893 -0.1461537248 -0.5003450465 -0.0104014641 0.5061148192
0.0671702844 0.7082771667 -0.1356813653 -0.4995016512 -0.0111073827 0.5075095633
0.1861841338 0.5465115771 -0.2431584483 -0.5029272439 0.0105516153 0.5134500511
0.4484269815 0.3606425130 0.4773750661 -0.5089719875 0.0053000111 0.5131573534
0.4999999070 0.6467116026 -0.0833911376 -0.4883720941 0.0000000000 0.5107534932
-0.2046852600 0.5931420727 0.4758697755 -0.5000000000 0.0000000000 0.5223813991
0.3616218617 1.0398602986 -0.4311068843 -0.5000000000 0.0000000000 0.4991255873
-0.3189390750 0.6860464478 -0.0453751179 -0.5000000000 0.0116279059 0.5107534932
