-0.0378822141 0.6304347278 -0.2607177382 -0.5000357826 0.0217219329 0.5102665208
-0.0652174291 0.1601020948 -0.4874530446 -0.4809620017 -0.0016628477 0.5012829564
-0.3507967738 0.3613543381 0.4445704396 -0.4913867399 -0.0168089551 0.5094600644
0.1932569397 0.7000352870 -0.5108694773 -0.5007996956 0.0085775645 0.5302143669
0.3348644926 0.1086956427 0.4239582240 -0.5038509997 0.0156151726 0.5007157608
-0.2181768506 0.3695651853 0.3659751203 -0.4995152174 -0.0216918894 0.5108314773
0.0283930410 0.6304347713 0.0201036939 -0.4999731739 0.0217219329 0.5108900643
0.1542069649 0.5652173422 0.5067313907 -0.5000000000 -0.0217391285 0.5108695643
-0.1786198323 0.6304347278 -0.1743354196 -0.5001686956 0.0217219329 0.5104583252
0.0646688857 0.1086956427 0.4458487221 -0.5114587599 -0.0122669120 0.5009706521
-0.3861424664 0.3030297563 0.1630435076 -0.5160651943 -0.0036243693 0.5211525851
0.2124536120 0.6304347278 -0.3045292126 -0.4997993478 0.0217219329 0.5101692382
0.2526791737 0.1086956427 0.3155666682 -0.5101156948 0.0128818684 0.4987272827
-0.5000000000 0.6189599897 0.1659268551 -0.5044169996 0.0187841071 0.5172625202
0.4347825274 0.6013948825 0.0320859537 -0.4839494362 0.0126702163 0.5111557816
-0.0782888628 0.6041836866 0.5072213255 -0.4887540879 0.0008906304 0.5242913022
0.3478260132 0.7314658060 0.5102855861 -0.5173373681 -0.0007203260 0.5023600868
-0.4347826144 0.1173267941 0.2806754756 -0.4913733921 0.0005384347 0.5077918254
0.0189444984 0.6304347278 -0.2452296526 -0.4999821087 0.0217219329 0.5103009121
-0.2552945648 0.3695651853 0.3800928800 -0.4993781087 -0.0216863459 0.5105949773
-0.2582313688 0.6304347278 0.0887651445 -0.5002438913 0.0217219329 0.5110425208
-0.4380007663 0.0000000000 -0.2672426072 -0.4873300228 -0.0011273042 0.4982601958
-0.0862792751 0.3260869282 0.1993136783 -0.4844795883 -0.0139972814 0.5147067596
0.2089533079 0.7291652192 0.5108695643 -0.4995377826 0.0022186520 0.4896756748
0.4347825274 0.5303322800 -0.2468556307 -0.5212189764 0.0011436086 0.5111329338
0.1171016203 0.7115013512 0.5108695643 -0.4987184566 0.0061513908 0.4906421530
-0.4373130924 0.6086955992 -0.1110464469 -0.5078879558 0.0184099114 0.5105733686
-0.0869565577 0.2776593889 -0.1420693137 -0.5102189991 -0.0066780864 0.5277434976
-0.1119731642 0.3260869282 -0.1432010745 -0.5088324558 -0.0087204775 0.5249491283
-0.3404833617 0.6086955992 -0.0138420858 -0.5000746087 0.0217262155 0.5111716077
-0.3032552128 0.6521738563 0.5004946304 -0.5000000000 -0.0217391285 0.5108695643
-0.0585249514 0.6086955992 -0.1092743601 -0.5000106957 0.0217223894 0.5106590426
0.1928073528 0.6086955992 -0.1572409863 -0.4999540217 0.0217173677 0.5102829121
0.1945456353 0.6304347278 -0.0065289777 -0.4998162609 0.0217219329 0.5108309338
0.0639658640 0.6188657505 -0.4812413060 -0.4924399789 0.0078977167 0.5269919759
-0.3051713213 0.5234943458 0.5108695643 -0.4966736525 0.0135529119 0.4956315873
-0.4782608715 0.1959354177 0.2880690184 -0.5146041074 0.0006688695 0.5185249114
-0.4782608715 0.2285525888 -0.2388314140 -0.5157372378 0.0025806519 0.5171703681
0.2468062829 0.5652173422 -0.2546470648 -0.4988682392 0.0106108686 0.4922157833
0.1237398588 0.6304347713 0.0087300645 -0.4998831304 0.0217219329 0.5108648034
0.1465021177 0.6086955992 -0.1761028760 -0.4999642174 0.0217194981 0.5102919339
-0.4142126814 0.5781618628 -0.2488307392 -0.5088850427 0.0083259341 0.4982090219
0.3479104263 0.6152138813 -0.3152173204 -0.4965179786 0.0203332591 0.5053102169
-0.0501442782 0.3695651853 0.1824112450 -0.5000389348 0.0216997372 0.5104953904
-0.2667413246 0.5956520352 0.2717391503 -0.5001968043 0.0167996290 0.5182915636
0.1801028322 0.3695651853 -0.4611044382 -0.4992414783 -0.0216419764 0.5114675860
0.3398917748 0.3695651853 -0.2985764523 -0.5008365651 0.0215594112 0.5124689772
-0.0799602757 0.5472761698 0.5108695643 -0.4934733701 0.0028372389 0.5245669979
-0.2260032195 0.3695651853 -0.4325654406 -0.4992262392 -0.0216426938 0.5112847381
-0.3695652287 0.3181613636 0.1559844430 -0.4960687395 -0.0092658905 0.5162053464
0.3264634716 0.3302885148 -0.4621198946 -0.4793513496 -0.0056312386 0.5141740422
-0.4296318539 0.5821999929 0.2551508039 -0.5084179558 0.0100023904 0.5167878898
-0.4772256324 0.3966917916 0.2934782788 -0.5069170864 0.0109801077 0.5245975848
-0.0866532099 0.0869565142 0.4496943739 -0.5088248471 -0.0195800200 0.5116465425
-0.0144070422 0.5959081438 0.2717391503 -0.5001383478 0.0168256290 0.5188812810
-0.3076856037 0.6086955992 -0.0741140805 -0.5000667609 0.0217279112 0.5110049990
-0.2887243010 0.3695651853 -0.3509772738 -0.4981685654 -0.0214627807 0.5100324991
0.2647142161 0.6304347278 -0.0454010613 -0.4997500000 0.0217219329 0.5107446078
-0.0652174291 0.3347209492 0.4323372015 -0.4811482190 -0.0086949123 0.5055129343
0.0648312770 0.2796556496 -0.4673912202 -0.5017857825 -0.0195089548 0.5153346074
-0.4565588516 0.4292895714 0.2934782788 -0.4981742176 0.0092829340 0.5274185846
-0.2172836768 0.6304346843 -0.1432523136 -0.5002052174 0.0217219329 0.5105273469
-0.3859816838 0.3676966419 0.2428838050 -0.5192739331 -0.0094159774 0.5139607162
0.1449899439 0.6176409898 0.4891304357 -0.4986644132 0.0056861299 0.4905656747
0.2414001094 0.6086955992 -0.0811135582 -0.4999440652 0.0216852590 0.5108252599
0.0533679301 0.6086955992 0.0924407746 -0.4999878261 0.0216632807 0.5117153033
-0.1863699403 0.6086955992 0.2608356512 -0.5000429565 0.0216578025 0.5124181728
-0.1812703103 0.6521738563 0.5022961085 -0.5000000000 -0.0217391285 0.5108695643
-0.0660609725 0.1509772477 0.1630435076 -0.4833507188 0.0046600866 0.5216593242
0.0597889078 0.6304347278 0.1902766791 -0.4999435435 0.0217219329 0.5112679338
-0.2977436915 0.6304347278 0.3261008195 -0.5002811956 0.0217219329 0.5115695207
0.2191963505 0.6304347278 0.3069749733 -0.4997929783 0.0217219329 0.5115270642
0.0612652338 0.2937360614 -0.4891303488 -0.4966696742 -0.0006581086 0.4914918051
-0.3839796405 0.3260869064 0.1877480054 -0.5108963469 -0.0083935862 0.5151490204
0.0655356682 0.3695651853 -0.4133022249 -0.5000000000 0.0215826938 0.5132610858
0.4545375909 0.5652173422 0.0396763661 -0.4847276318 0.0115389773 0.5085348253
-0.2054270908 0.6089686427 0.4891304357 -0.5002025869 0.0146931509 0.4966684568
0.2989627349 0.6086955558 -0.0312072147 -0.4999319783 0.0216480851 0.5113943034
-0.3294884061 0.6304347278 0.2228965024 -0.5003111739 0.0217219329 0.5113403686
0.4039960953 0.6086955992 -0.1864720490 -0.4969776307 0.0209637156 0.5103278904
-0.1283792714 0.6304347278 -0.1780284193 -0.5001212391 0.0217219329 0.5104501295
0.0413932355 0.3695651418 -0.1371415968 -0.5076782819 -0.0179836506 0.5185478462
0.4329397884 0.6086955992 0.1727358328 -0.4842978492 0.0141373466 0.5121727598
-0.0677337985 0.3420262094 -0.1630434206 -0.4839019362 -0.0093573905 0.5025785215
-0.2842657796 0.3695651853 0.4929277180 -0.4978850002 -0.0105679339 0.5288284105
-0.0980994480 0.6304347713 0.0105442817 -0.5000926522 0.0217219329 0.5108688469
0.3289947540 0.2922463659 0.1630435076 -0.5050901083 -0.0107786295 0.5255466500
0.0434781701 0.3183133636 0.5097134122 -0.5093038470 -0.0009851303 0.5141351075
-0.2348278926 0.6304347278 -0.1193767940 -0.5002217826 0.0217219329 0.5105803469
-0.0775595802 0.3695651853 0.2057464821 -0.4806250452 -0.0091017383 0.5115486946
0.0652173422 0.4836582188 -0.4949447830 -0.4927748919 0.0128488250 0.5208604547
0.4347825274 0.5858793186 -0.0154774769 -0.4806371104 0.0067564777 0.5105091513
0.2539635649 0.6086955992 0.0901919704 -0.4999434565 0.0216087807 0.5122595424
0.3289362975 0.2478655002 -0.4891303488 -0.5032860867 -0.0008581738 0.4927186963
-0.0652174291 0.1597928122 -0.1605272034 -0.4793072409 -0.0020692824 0.5154820204
0.0257755630 0.5694759070 0.2934782788 -0.5024467607 0.0094454340 0.5286153453
0.4408052660 0.2403402400 0.2934782788 -0.5012998695 0.0026028041 0.5278601932
0.1247798587 0.6086955992 0.2601733252 -0.4999741522 0.0215720633 0.5132854554
0.3409736660 0.6304347278 -0.0779420150 -0.4996779783 0.0217219329 0.5106723686
-0.5000000000 0.6093360557 0.0715732981 -0.5062857168 0.0179149332 0.5156828247
0.3955249004 0.6086955992 0.0689542984 -0.4989378262 0.0213387808 0.5124522163
0.3410579051 0.2895174096 0.5108695643 -0.4961325221 -0.0044444996 0.5255164326
0.0553959082 0.3695651853 0.3846260100 -0.4943381961 -0.0141713683 0.5099906948
-0.0353248882 0.6086955992 -0.0542407127 -0.5000059348 0.0217193242 0.5107537165
-0.1762764412 0.6086956427 0.1907052225 -0.5000398261 0.0216849112 0.5118737381
-0.0856077317 0.3045268431 -0.1413042921 -0.5014537390 -0.0119963033 0.5259050847
-0.1735784197 0.0869565142 0.3302286887 -0.5087287818 -0.0143055640 0.5175416289
-0.4839823710 0.6304347713 -0.3057969299 -0.5004570869 0.0217219329 0.5101664122
0.4999999130 0.6298460104 -0.2036152866 -0.4994058261 0.0216682155 0.5102062817
-0.3614451207 0.1050524691 -0.2198843070 -0.5109600208 -0.0085135210 0.5105141295
0.4590599166 0.6304347278 0.0071894559 -0.4995664566 0.0217219329 0.5108613904
0.0442400396 0.1236185762 -0.1630434206 -0.5051784995 -0.0176556506 0.5003210435
-0.0790166888 0.3695651853 -0.4344460927 -0.4984133045 0.0193967157 0.5152626943
0.3278713411 0.3689769027 0.1413044225 -0.4987607827 -0.0000684783 0.4896583052
-0.0548782344 0.6086956427 0.3060513647 -0.4993610218 0.0193472157 0.5197865200
-0.2182052854 0.6304347278 -0.1820556146 -0.5002060869 0.0217219329 0.5104411730
-0.0675335376 0.3537747518 -0.1954690917 -0.4809048060 -0.0089941079 0.5076666298
-0.0652174291 0.3603439904 -0.1502582913 -0.4856192839 -0.0076754776 0.5200236070
-0.2849622578 0.6304347278 0.2924234311 -0.5002691304 0.0217219329 0.5114947381
0.0567701907 0.6791934409 0.4686337201 -0.5106436295 0.0033212823 0.5217430198
0.4442710048 0.5652173422 -0.0663671464 -0.4930743702 0.0174483463 0.5088582818
-0.2022223737 0.6086956427 0.1262848803 -0.5000448043 0.0217161938 0.5113269990
0.0910587530 0.3695651853 0.1592552688 -0.5000000000 0.0217295633 0.5107234121
-0.2082502645 0.6304347278 0.2134030901 -0.5001966739 0.0217219329 0.5113192816
-0.1282457932 0.6304347278 0.0654357769 -0.5001211087 0.0217219329 0.5109907164
0.4999999130 0.6216756851 0.0042878475 -0.4977130872 0.0209228025 0.5080724341
0.0522220824 0.5746873196 0.2934782788 -0.5017298912 0.0092143035 0.5290560192
-0.0389243010 0.6304347278 -0.1965209612 -0.5000367609 0.0217219329 0.5104090643
-0.0539144084 0.3695651853 0.2112956338 -0.5000430000 0.0216754546 0.5102081078
-0.2662607377 0.7270299803 -0.5108694773 -0.4987620001 0.0026829998 0.5318878885
0.0217390851 0.2818373233 0.1484972480 -0.5145593031 -0.0036210649 0.5055315647
0.1847130492 0.7021072433 -0.4891303488 -0.4999979783 0.0074529124 0.5299948017
-0.2415958703 0.3695651853 -0.3077784950 -0.4985883262 -0.0215146503 0.5098662818
0.0649333204 0.1110319251 0.4891304357 -0.4968087177 0.0120921511 0.5159204334
0.3282336454 0.1881891141 0.1413043790 -0.5051902169 -0.0017526738 0.4911295442
0.0434782136 0.2900966269 -0.4685555245 -0.5171414985 -0.0090520644 0.5096434122
0.2272968498 0.6086955992 0.0623234946 -0.4999490000 0.0216280416 0.5119571511
0.3238906240 0.7107005904 -0.4891303488 -0.5039694779 0.0097012165 0.5281859975
-0.1001900348 0.3695651418 -0.2529869345 -0.5003206304 0.0216191286 0.5111063469
-0.3531499041 0.5439864744 0.4842505014 -0.5083144341 0.0108135208 0.5188250853
0.0623700815 0.0984302958 -0.4673911333 -0.5074026298 0.0163365638 0.5061994995
-0.4565217429 0.5897854922 -0.1707708330 -0.5184941506 0.0107651730 0.5095796731
-0.1591867470 0.6304347278 0.0627783858 -0.5001503478 0.0217219329 0.5109848251
-0.1149701204 0.6304347278 0.2764681934 -0.5001085869 0.0217219329 0.5114593251
0.1559170734 0.3417059051 0.1413043790 -0.4999548261 -0.0061795212 0.4907010225
-0.3525560346 0.1693261809 -0.4891303488 -0.4922403485 -0.0014038260 0.4957061960
-0.2570106081 0.3695651853 -0.1433268354 -0.5000000000 0.0217264764 0.5110630208
0.0659616247 0.6303651191 0.3369565359 -0.4999616304 0.0217041068 0.5116303251
-0.1856698534 0.6086955558 0.1712309851 -0.5000416739 0.0216958025 0.5116883468
0.3158297551 0.6963872655 -0.5108694773 -0.5050837169 0.0092573035 0.5297514322
-0.0180296289 0.6304347278 -0.2167376768 -0.5000170217 0.0217219329 0.5103641730
0.2333940667 0.7227127415 0.5026607389 -0.5000531304 0.0110523903 0.4923715441
-0.3997184870 0.6086955992 -0.0954673395 -0.5000871956 0.0217314329 0.5110580425
0.3030802780 0.5328941711 0.4891304357 -0.5021681737 0.0083304123 0.4943144570
0.4155891378 0.5785251671 -0.2717390633 -0.5023422607 0.0068638472 0.4905578052
-0.2255265456 0.6086955992 0.1436279006 -0.5000501522 0.0217161068 0.5113899338
-0.4547702648 0.6059879908 -0.2282608062 -0.4982513915 0.0176742811 0.5191930635
-0.3976722480 0.6304347278 -0.1672690289 -0.5003755652 0.0217219329 0.5104740208
-0.4347826144 0.2535787606 -0.2478325219 -0.4821209363 -0.0004265869 0.5062038473
0.1186331853 0.3695651853 0.1903812443 -0.5000000000 0.0217129981 0.5104699991
0.3928301398 0.5762491890 -0.2717390633 -0.5025189563 0.0066051516 0.4904703704
-0.3652679030 0.5282855193 -0.4762089803 -0.5029015215 0.0134394554 0.5178927593
-0.3659680334 0.5756269065 -0.4788391323 -0.5063178690 0.0108683251 0.5178607593
-0.0944397961 0.0921205355 -0.3152173204 -0.5108141078 0.0000000000 0.4920317616
0.1587835731 0.6956521134 -0.5073836733 -0.5000847391 0.0104474121 0.5293653018
-0.2327494145 0.6086955558 -0.1421503572 -0.5000494348 0.0217287372 0.5107759121
-0.1712948112 0.0938182745 -0.3152173204 -0.5084927167 0.0001849348 0.5294485409
-0.0449286265 0.6304347278 -0.0522737781 -0.5000424348 0.0217219329 0.5107293469
0.2559579125 0.6158302508 0.4891304357 -0.5006210652 0.0103843904 0.4946528483
-0.2737161066 0.6408159225 -0.5108694773 -0.4985498697 -0.0019912824 0.5323632798
-0.0869565577 0.5622581685 -0.4864286316 -0.5128068250 0.0119326294 0.5200771939
0.2360770447 0.6521738563 -0.4995401522 -0.5000000000 -0.0217391285 0.5108695643
-0.3884991401 0.1631341380 0.1630435076 -0.4925439137 -0.0078808906 0.5195916722
0.1228998806 0.3260869282 0.1559776603 -0.4988587392 -0.0096155861 0.5174684333
-0.2571854559 0.5511451695 0.4891304357 -0.4992345001 -0.0013879999 0.4893283922
0.3800416191 0.6086955992 0.0252254326 -0.4999147609 0.0216016068 0.5120825859
0.0652173422 0.0994243174 -0.3782657280 -0.5123773685 -0.0065534994 0.5058824125
-0.1283545541 0.6956521134 0.5073342168 -0.5028683041 0.0109363686 0.4928817397
-0.1315353581 0.6304347278 -0.2531831302 -0.5001242174 0.0217219329 0.5102832382
-0.4778925019 0.6086955992 -0.0868268185 -0.5187124984 0.0107119339 0.5108389991
-0.3403545791 0.6086955992 0.2496786087 -0.5000768478 0.0217051285 0.5118951729
-0.2740374327 0.6304347278 0.1873994402 -0.5002588043 0.0217219329 0.5112615425
-0.2754299543 0.6086955992 0.0079937384 -0.5000602174 0.0217234112 0.5111487816
-0.0869565577 0.5074834341 0.4960833264 -0.4960448916 0.0146861292 0.5026254563
0.1552096169 0.6304347278 0.2131213293 -0.4998534131 0.0217219329 0.5113186512
0.3538014910 0.3267134064 -0.1413042921 -0.4973620437 -0.0099477600 0.5257256065
-0.3486514262 0.6086955992 0.2215374807 -0.5000783696 0.0217161938 0.5116926077
0.1909223095 0.6086955992 0.1977115915 -0.4999587391 0.0215804112 0.5129608467
-0.2918233659 0.3695651853 0.3386655575 -0.5000000000 0.0216340199 0.5092627166
-0.4682300462 0.2146662857 -0.2717390633 -0.5071957820 0.0040561083 0.4965931307
-0.2213819590 0.6086955992 0.0296102148 -0.5000483043 0.0217209546 0.5111373686
-0.3903321400 0.0960437743 0.1776264628 -0.4837128927 0.0048078474 0.5107289773
-0.0781016889 0.6086955992 -0.1890594836 -0.5000144130 0.0217264112 0.5105066078
0.3260868847 0.6616705077 0.4919460877 -0.5025729128 0.0085811297 0.4939416092
-0.0746898196 0.2855390621 -0.1630434206 -0.4892391531 -0.0075042385 0.4981981958
0.4447560483 0.0000000000 0.2860281273 -0.4977107393 -0.0006395434 0.5182514767
0.4999999130 0.6285409019 0.0565328646 -0.4991354131 0.0215491503 0.5103693469
0.3692903157 0.6086955992 -0.1721647676 -0.4999146522 0.0216886938 0.5104403469
-0.2617441729 0.6304347278 -0.1062189038 -0.5002471956 0.0217219329 0.5106095643
0.0434782136 0.0972355785 0.4843946318 -0.4844320448 0.0001160435 0.5042121083
0.1394268357 0.6086955992 -0.2691105636 -0.4999889783 0.0113158251 0.4937300440
-0.3788516627 0.2775871715 -0.1413042486 -0.5026499346 -0.0075029776 0.5270916933
-0.4782608715 0.6000253391 0.0632893423 -0.5190373027 0.0092558688 0.5089118036
0.1411215529 0.3695651853 0.3098405600 -0.5000000000 0.0216493677 0.5094973905
0.0486026262 0.6304347278 0.2692963244 -0.4999541087 0.0217219329 0.5114433903
-0.0691648201 0.1086956427 -0.3731687936 -0.4971224785 0.0155985856 0.5191277592
0.2862682577 0.6304347278 -0.0381143445 -0.4997296305 0.0217219329 0.5107608034
-0.4548012865 0.0458095178 -0.2717390633 -0.4987665653 -0.0000115652 0.4955431308
0.2633908467 0.6304347278 -0.1264173151 -0.4997512392 0.0217219329 0.5105647165
-0.0571431689 0.5988744479 -0.2499999348 -0.4998683044 0.0101237817 0.4948200005
-0.4543898735 0.2263398934 -0.2282608062 -0.5049746517 -0.0006812825 0.5284301062
-0.2109370686 0.6086955992 0.3145132118 -0.5026551085 0.0182409332 0.5208502591
-0.0598004731 0.6304347278 0.3103724078 -0.5000564783 0.0217219329 0.5115346077
0.0652173422 0.0980263393 0.3758185978 -0.5091815209 -0.0087657166 0.5162448899
-0.2436280223 0.3292705366 0.1630435076 -0.4992377392 -0.0104108904 0.5290259105
-0.2846172361 0.3650645987 -0.1630434206 -0.5006279999 -0.0198857374 0.5043821301
-0.2184018288 0.3695651853 -0.1645340509 -0.5000000000 0.0217151720 0.5112356947
0.3051478430 0.6956521134 0.4955283265 -0.5027977606 0.0154663465 0.4967951525
0.0443646701 0.6920139398 -0.5080979341 -0.5092906079 0.0008295651 0.4920707616
0.0434782136 0.2091262427 0.1521408129 -0.4836404362 -0.0016887172 0.4999264783
0.1511873347 0.6086955992 -0.1502162913 -0.4999633913 0.0217182372 0.5103431948
0.4024425302 0.6086955992 0.1444143570 -0.4973406959 0.0209114764 0.5130372380
0.1989958523 0.3695651853 0.1448683787 -0.5000000000 0.0217372372 0.5108405425
-0.4085233123 0.6086955992 0.2955392134 -0.4963290873 0.0097352600 0.5267911498
-0.4745469153 0.4058675734 -0.2717390633 -0.5105507817 0.0086559992 0.4976971524
0.3325213624 0.6086955992 -0.2225679589 -0.4999221957 0.0217162590 0.5099896730
-0.4782608715 0.3272542759 0.2845289318 -0.5140525640 0.0019181085 0.5134739336
-0.1282229889 0.6086955992 -0.4988692610 -0.5043084779 0.0170646290 0.5227413024
0.4462028960 0.3439683831 -0.2282608062 -0.4964395438 0.0024044781 0.5200326939
0.3545046431 0.3695651853 0.3429172745 -0.4917107399 -0.0192515635 0.5108695643
0.0653127552 0.3695651853 -0.2910867138 -0.4990576305 -0.0211682808 0.5076711080
-0.3695652287 0.1001180130 0.2316637407 -0.5102819774 0.0120261511 0.5083505428
-0.1951415265 0.3695651853 -0.3630812293 -0.4993596957 -0.0216500199 0.5107839991
0.1963391786 0.3695651853 0.2224088502 -0.5000000000 0.0216959329 0.5102092382
0.0434782136 0.6412392268 0.4549807213 -0.4901345661 -0.0000216087 0.5229294328
-0.4347826144 0.3416307094 -0.2555824126 -0.4856397186 0.0032946301 0.4972781741
-0.3822689885 0.0869565142 0.2851398013 -0.4860674577 0.0151623900 0.5071869994
-0.4782608715 0.3285989497 -0.2291137192 -0.5188656505 -0.0002573913 0.5174311289
-0.3116281033 0.3695651853 0.3094017774 -0.5000000000 0.0216496068 0.5095009557
-0.2998728218 0.3695651853 0.3918015964 -0.4978896958 -0.0214916720 0.5113207599
0.3079423645 0.5785471019 -0.2499999348 -0.4996417392 0.0118735642 0.4951241961
-0.4782608715 0.3658104899 -0.2708679112 -0.5133667162 0.0076949559 0.4981175871
-0.3611102729 0.3449031657 -0.1630434206 -0.4979262393 -0.0144481509 0.4974774567
0.3478260132 0.5090210427 -0.4844482187 -0.4823198276 0.0026235215 0.5169053464
0.3474878393 0.7457399134 0.4369127881 -0.5053565430 -0.0002984565 0.5224040633
0.4347825274 0.5730513197 0.0383741923 -0.4801111756 0.0066039342 0.5109165643
0.4918640007 0.6304347278 0.2972956698 -0.4995354783 0.0217219329 0.5115055642
-0.0772846889 0.1086956427 -0.2483210436 -0.5086213036 0.0120060859 0.5211829112
0.2598477383 0.6304346843 0.1164664681 -0.4997545870 0.0217219329 0.5111040425
-0.1588193340 0.5411992138 -0.5108693904 -0.5026081302 0.0016108042 0.5308051495
0.1655611160 0.1079606645 -0.3152173204 -0.5135918249 -0.0026302172 0.5255149326
-0.0869565577 0.3670484898 0.4527850041 -0.4805232626 -0.0094406948 0.5096611296
-0.0775685150 0.3695651853 0.3577983819 -0.4823633928 -0.0121228250 0.5102954774
-0.4346156579 0.6086956427 -0.0391486922 -0.5055258908 0.0200893461 0.5110750208
0.3795311192 0.6304347278 -0.1834361580 -0.4996415652 0.0217219329 0.5104381078
-0.3990520305 0.6086955992 -0.1811097886 -0.5000863478 0.0217351503 0.5108709773
-0.1192055114 0.3695651853 0.3056321473 -0.5014064564 0.0213996938 0.5106818904
0.3856894447 0.6304347278 -0.2421685224 -0.4996357392 0.0217219329 0.5103076948
-0.3772314237 0.6086955992 0.1701394852 -0.5000843478 0.0217192372 0.5116116729
0.3599023383 0.6304347278 -0.2995526044 -0.4996600870 0.0217219329 0.5101802817
-0.3200781243 0.3264502107 -0.4891303488 -0.5000000000 0.0000000000 0.4891304357
0.0631669945 0.7489104349 -0.5010894129 -0.5021130868 0.0010783912 0.5093393688
0.3478260132 0.6832055928 -0.4903585878 -0.4844774579 0.0009560869 0.5157181508
-0.4509092434 0.5672430376 0.2934782788 -0.4957209569 0.0080188037 0.5279675628
0.3036693214 0.3695651853 0.4366464620 -0.5007385217 0.0213893894 0.5086610210
-0.0652174291 0.3675826637 -0.1714008764 -0.4783166758 -0.0001352826 0.5110821729
0.4243588761 0.6086955992 -0.1651466378 -0.4922738485 0.0197914548 0.5104100208
0.0992477957 0.7176262637 -0.4891303488 -0.4969151307 0.0025743259 0.5319673233
-0.3259066456 0.3695651853 -0.4668321116 -0.4980388045 -0.0216025851 0.5118967598
0.2290887627 0.1086956427 0.3266800803 -0.5071684776 0.0151309987 0.5124156728
-0.4265987673 0.6086956427 0.0371427142 -0.5032220215 0.0209453460 0.5113414338
-0.0652174291 0.4537790258 -0.4791773062 -0.4827153276 0.0048178257 0.5178163028
0.3260868847 0.5646294292 -0.4843139579 -0.5113152164 0.0118009120 0.5205066287
0.3260868847 0.7133106771 0.5081576732 -0.4879619576 0.0035176084 0.4957104134
0.4295988539 0.6304347278 -0.0438772571 -0.4995942826 0.0217219329 0.5107479991
-0.3478261002 0.5921890789 -0.4810564582 -0.4910815877 0.0081942167 0.5266742586
-0.2638875640 0.5506470608 -0.5108694773 -0.4974085002 -0.0033583475 0.5321148233
-0.1670359203 0.6086955992 -0.1601562035 -0.5000345652 0.0217276720 0.5106656730
0.0716722981 0.6086955992 0.3218946459 -0.5005596739 0.0195204548 0.5182528897
-0.3660847508 0.1016873390 -0.1874068098 -0.5096846948 -0.0050565865 0.5071832385
0.4347826144 0.4357651143 -0.2519947824 -0.5212778460 0.0000636956 0.5096532818
0.0708399938 0.6086955992 -0.1394620096 -0.4999814783 0.0217200416 0.5104534774
0.0588079949 0.3320806016 -0.3776605976 -0.4799603496 -0.0064065647 0.5135401293
0.3088085384 0.3693574461 -0.4891303488 -0.5000000000 0.0000000000 0.4891304357
0.3039312127 0.6086955992 0.1270659455 -0.4999328696 0.0215792590 0.5127008467
-0.2432860223 0.6304347278 0.1999149826 -0.5002297608 0.0217219329 0.5112893251
-0.4876773054 0.6086955992 -0.0026502172 -0.5040915649 0.0184662593 0.5138786727
-0.0916667094 0.6192672070 -0.3152173204 -0.4986330653 0.0207707808 0.5067343472
0.1060446430 0.5217390851 -0.4991698044 -0.4968892829 0.0119462381 0.5243879761
-0.0698800157 0.0869565142 -0.2404375660 -0.5094568470 -0.0179236941 0.5067733038
-0.4353620708 0.6056414039 0.2717391503 -0.5117870859 0.0152948682 0.5151510856
0.4380262663 0.1186575332 0.2934782788 -0.5050841300 0.0007001086 0.5293383888
0.2427669354 0.6304347278 0.2278027193 -0.4997707174 0.0217219329 0.5113512599
-0.2962898438 0.5652173422 0.4933131745 -0.4961586090 -0.0089500644 0.4942705875
0.1489693349 0.6249404891 0.5108695643 -0.4964848481 0.0038435431 0.4923224789
-0.1876948098 0.3695651853 0.2400606965 -0.5000000000 0.0216865416 0.5100655209
-0.2165613507 0.3260869282 0.1539469866 -0.5011151738 -0.0096624339 0.5139317162
0.1533386606 0.6304347278 -0.1423486398 -0.4998551739 0.0217219329 0.5105293469
0.2914621268 0.3695651853 -0.1766011803 -0.4999431957 -0.0215521503 0.5086828471
0.0621465163 0.4214795720 0.4920145659 -0.5014027825 0.0164731507 0.5000334783
0.3346536883 0.7233186110 0.4726861980 -0.4878741315 0.0001043478 0.5243166501
-0.4704066982 0.6086955992 -0.1087707297 -0.5145459553 0.0135080206 0.5102487382
0.3391581879 0.2455842178 0.5108695643 -0.4922241094 -0.0067172820 0.5224823893
-0.2965869307 0.3298960583 -0.4891302618 -0.5000000000 0.0000000000 0.4891304357
-0.1904125269 0.5652173422 -0.4954220221 -0.5000000000 -0.0217391285 0.5108695643
0.4429573310 0.1256204239 -0.2282608932 -0.5047054344 0.0022013042 0.5204903243
0.4549835039 0.1134233597 0.2717391503 -0.4852938274 0.0014611086 0.4964694134
-0.4567764820 0.6086955992 0.2887160619 -0.4999093913 0.0064935429 0.5209207808
0.4555551343 0.4920839572 0.2934782571 -0.4857819795 0.0016542607 0.5263705629
0.4565216560 0.4143070509 -0.2715513242 -0.4827976754 0.0073246298 0.5029871302
0.3478260132 0.0915284268 0.3579399471 -0.4799942191 -0.0057471734 0.5142310640
0.1662563986 0.3695651853 -0.4325961363 -0.4989181740 -0.0216326720 0.5113852164
0.2832529754 0.5246008457 -0.5108694773 -0.5000059565 0.0133284554 0.5269453455
-0.0869565577 0.1950678091 0.1431345962 -0.5097604557 -0.0035577606 0.4928827397
-0.0869565577 0.2703801069 0.1629387684 -0.5088816514 -0.0069678255 0.5225063459
0.0652173422 0.2817464538 -0.1596576383 -0.4922490659 -0.0077547602 0.5004672391
0.2394816531 0.5526929085 0.4891304357 -0.5013479564 -0.0027940867 0.4894039792
0.2726230850 0.3424042963 0.1630435076 -0.5019327824 -0.0140260205 0.5242422153
0.3523897085 0.6304347278 0.0752004065 -0.4996671957 0.0217219329 0.5110124121
0.3437116223 0.6086955992 0.3069833646 -0.4993136522 0.0204990634 0.5174092376
-0.4565217429 0.6060796212 0.0061163256 -0.5146300205 0.0147704987 0.5105492165
0.4443396788 0.5438033658 -0.2282608062 -0.4917065877 0.0026497389 0.5250050848
-0.4347826144 0.2321320885 -0.2336635884 -0.4820039798 -0.0004895000 0.5166376942
0.2181397419 0.6086955992 0.2158320247 -0.4999529565 0.0215651503 0.5131851728
0.2105762860 0.3437850571 -0.4891303488 -0.5012232390 -0.0038620431 0.5310303016
-0.2974144307 0.6196012287 0.4891304357 -0.4984143697 0.0048148909 0.4903609574
-0.3906950965 0.6086955992 0.1527441606 -0.5000872174 0.0217203677 0.5115883903
0.4347825274 0.5829269058 -0.1604337469 -0.4822758059 0.0075895428 0.5096388252
0.3960349003 0.6086955992 0.3337603623 -0.4985108045 0.0209012373 0.5152204117
-0.3029396910 0.6086955992 -0.0479793002 -0.5000659130 0.0217266285 0.5110567164
-0.4489245262 0.0945992309 0.2934782788 -0.4995415653 0.0025170215 0.5296734105
0.0522254737 0.3567745994 0.2942527570 -0.4810386103 -0.0069846516 0.5085526080
0.0210961069 0.5821791015 -0.2499998478 -0.4990713479 0.0080096732 0.4910065877
-0.2573619776 0.1044594257 -0.3152173204 -0.5121723468 -0.0008320869 0.5265838238
-0.1880702663 0.6304347278 0.2652192595 -0.5001776087 0.0217219329 0.5114343468
-0.3512040129 0.3280330367 0.4384618749 -0.4801203278 -0.0064146299 0.5074412820
0.2477305219 0.3421198181 -0.4891303488 -0.5031841084 -0.0034986736 0.5308990191
0.4999999130 0.6119679468 0.0761406021 -0.4969455437 0.0207658243 0.5094502818
-0.4709885677 0.0800279930 0.2934782571 -0.5102999121 0.0015178912 0.5268263455
-0.4553973300 0.5445553222 -0.2282608062 -0.5060513908 0.0052126517 0.5287788236
-0.3780332280 0.3529275997 0.3621103816 -0.5198674113 -0.0079658906 0.5131279554
-0.1556194430 0.6086955992 0.3102855382 -0.5016497172 0.0186381506 0.5204277156
-0.2645205422 0.6304347278 -0.2412292834 -0.5002498261 0.0217219329 0.5103097817
-0.1027537085 0.6304346843 -0.1354416404 -0.5000970435 0.0217219329 0.5105446947
-0.1150041639 0.0915511225 0.3152174074 -0.5067290429 -0.0111058903 0.4998381304
-0.3891570749 0.2446811309 -0.1630434206 -0.5120946076 -0.0044166301 0.4973142828
0.2500602174 0.5618523642 0.5108695643 -0.5014533694 -0.0035002823 0.4895135009
0.4470952003 0.5837430797 0.2934782788 -0.4917128268 0.0092860209 0.5230978241
0.4565216560 0.0233044980 -0.2477402176 -0.4813796973 -0.0002256304 0.5073163255
0.3679052506 0.5870861663 -0.2717390633 -0.5016776303 0.0077481950 0.4908418051
0.2941606918 0.3695651853 0.1718434198 -0.4999550000 -0.0216219329 0.5126767815
-0.2534443475 0.6304347278 0.1159112291 -0.5002393695 0.0217219329 0.5111028034
0.1183626201 0.6956521134 -0.4900975443 -0.4982822828 0.0073899776 0.5304273887
0.2219347198 0.3695651853 0.2124141337 -0.4996332826 -0.0215036068 0.5129897163
0.0640575162 0.2491504566 0.5108695643 -0.4858320230 -0.0063137821 0.5244066718
-0.3478261002 0.6826959841 -0.5108222165 -0.4955693047 0.0077155645 0.5300537365
0.3305482539 0.2246204370 0.1630435076 -0.5102168469 -0.0089053253 0.5225084763
-0.0146299118 0.6304347278 -0.2905397139 -0.5000138261 0.0217219329 0.5102003035
-0.3679875984 0.3260869282 -0.3416496007 -0.4996239783 -0.0089445427 0.5163782594
-0.0652174291 0.0980942741 -0.4295681583 -0.4829908928 0.0004196304 0.5126614554
-0.0580379950 0.6086955992 0.1666048986 -0.5000133913 0.0216624764 0.5120085424
0.0652173422 0.6690227897 -0.4990701957 -0.4935065006 0.0032966301 0.5307802147
-0.0652174291 0.3320079494 -0.2880464750 -0.4790954149 -0.0020235650 0.5140494553
-0.0831944058 0.3459328830 -0.1413042921 -0.4982203045 -0.0131892815 0.5247833022
0.1780868541 0.6086955992 0.1639552249 -0.4999611522 0.0215983242 0.5126491511
0.0762724934 0.6090494036 0.5108695643 -0.4972254133 0.0149481726 0.4955817395
0.4565216560 0.2807524756 -0.2700421939 -0.4831870232 0.0046359779 0.5013237173
-0.0431938223 0.6304347278 0.0215847590 -0.5000408043 0.0217219329 0.5108933469
-0.2279554150 0.6086955558 -0.2302155887 -0.5000476304 0.0217324329 0.5105791078
-0.2933883441 0.3684250549 -0.4891302618 -0.5000000000 0.0000000000 0.4891304357
-0.3695652287 0.6516255738 -0.5052599561 -0.5098931731 -0.0001107826 0.4919191746
0.1583068558 0.6121299902 -0.4891303488 -0.4982623697 0.0097917818 0.5282030845
0.3453006874 0.3329920145 0.2009237869 -0.4814961973 -0.0086472601 0.5168451507
0.4601905687 0.6304347278 -0.2049258952 -0.4995653913 0.0217219329 0.5103903904
-0.3804722060 0.1086956427 0.2857466708 -0.4883371967 -0.0126213902 0.5118017816
0.0985266219 0.6086955992 0.0805382539 -0.4999776957 0.0216558677 0.5117447598
-0.3218382111 0.6128703380 -0.4891303488 -0.4952352613 0.0076006515 0.5300455409
0.3434794919 0.1077017515 0.1934691136 -0.5067650646 0.0180297158 0.5085100210
0.1293083148 0.3695651853 0.1425869876 -0.5000000000 0.0217384546 0.5108591295
-0.4597142861 0.2775849324 0.2934782788 -0.5009954347 0.0078035645 0.5274372367
-0.3489141653 0.6086955992 -0.1149599900 -0.5000756522 0.0217308459 0.5109606947
0.2483834132 0.6956521134 0.5068012603 -0.5020089998 0.0111583686 0.4930234354
0.1165884246 0.6370277707 -0.5108694773 -0.4978401741 -0.0016736303 0.5324019537
-0.1644962466 0.6086955992 -0.0453095178 -0.5000349348 0.0217226068 0.5109128251
-0.0547245170 0.3695651853 0.1475795524 -0.4931613267 -0.0159899117 0.5073567168
-0.3175374941 0.6304347713 -0.2902818878 -0.5002998913 0.0217219329 0.5102008687
0.1364379447 0.6304347713 0.2314094581 -0.4998711522 0.0217219329 0.5113592599
-0.1639616814 0.3411193616 0.1630435076 -0.5020562390 -0.0136125858 0.5251082804
0.3287615584 0.4386812010 0.5108695643 -0.5048977822 0.0074765646 0.5251870195
0.2050346126 0.3695651853 -0.1196828809 -0.5000000000 0.0217390633 0.5108705208
-0.2328889145 0.5652172987 -0.2686062810 -0.4965034351 0.0131911075 0.4945723700
-0.2316014799 0.3692730766 0.1413043790 -0.5008371521 -0.0000652826 0.4891782835
-0.1615778338 0.1086956427 0.3186366245 -0.5080324123 0.0145148683 0.5017037607
0.1132543380 0.6126888380 0.5108695643 -0.4985360219 0.0124140207 0.4946220005
-0.0659909073 0.3127112772 -0.1413043355 -0.4854979795 -0.0015503042 0.5263726716
0.3270165150 0.1663079203 -0.4673911333 -0.5013953260 0.0086653253 0.5221706502
-0.4782608715 0.2451593265 0.2932616267 -0.5105699339 0.0061831082 0.5248601935
-0.0303589756 0.6086955992 -0.2615164990 -0.4999571087 0.0152687813 0.5000512391
0.2030599171 0.3695651853 -0.4285796584 -0.4993859131 -0.0216480633 0.5112065208
-0.0652174291 0.3338701884 0.1457189439 -0.4839060666 -0.0016690868 0.4976058915
-0.4776356976 0.3217640807 -0.2717390633 -0.5131606728 0.0066366516 0.4972675872
-0.0109061295 0.6086955992 0.1769705281 -0.5000031087 0.0216450416 0.5122253902
-0.0869565577 0.0972557307 -0.3400689052 -0.5106786730 0.0022707389 0.4974291089
0.0434782136 0.1012555347 0.3072179733 -0.4801363278 0.0022346085 0.5099675861
0.3260868847 0.4168145507 -0.4758417630 -0.5060961734 0.0183137593 0.5137757162
-0.4347826144 0.2273470237 -0.2579472819 -0.4838409579 0.0005340434 0.4992407175
-0.3006983217 0.3695651853 -0.4309637669 -0.4992564348 0.0213067155 0.5085564340
-0.3741923588 0.3260869282 0.2478089132 -0.5004250217 -0.0127378032 0.5134724119
-0.3695652287 0.2049042648 -0.4674053941 -0.5196317592 -0.0048759126 0.5083050862
-0.2074139385 0.6304347278 0.2840774101 -0.5001958913 0.0217219329 0.5114762164
0.2658633464 0.5451714091 -0.5091763253 -0.5042580866 -0.0064084560 0.5293369974
0.2695728896 0.6086955992 -0.3051351691 -0.4989999783 0.0183019767 0.5022239129
-0.2508320869 0.6086955992 -0.2249055239 -0.5000528043 0.0217328459 0.5106153904
0.0434782136 0.1022064259 -0.3492540348 -0.4824563711 -0.0004035000 0.5156185204
0.1031121215 0.6086955992 -0.1301018148 -0.4999743261 0.0217187155 0.5104389556
0.2975872785 0.6086955992 0.0690096897 -0.4999335435 0.0216057590 0.5122089120
-0.3658273160 0.3130235380 -0.4673912202 -0.5094735209 -0.0083303471 0.5195167592
-0.4764190673 0.5148358031 0.2934782788 -0.5041685214 0.0145893900 0.5241795849
0.2753568021 0.5942245135 -0.2717390633 -0.5011234564 0.0084504340 0.4910608269
0.1363700968 0.6086955992 -0.0423506050 -0.4999677826 0.0216977807 0.5108472599
0.0434782136 0.3473433394 0.3543617735 -0.5208706938 -0.0034539345 0.5114690207
-0.3753336848 0.6086955992 -0.1023554041 -0.5000816739 0.0217310416 0.5110166947
0.4818545668 0.6304347278 0.2629616510 -0.4995449131 0.0217219329 0.5114293251
-0.1574156602 0.6304347278 0.2596462600 -0.5001486739 0.0217219329 0.5114219555
0.3218099503 0.3307983191 0.1413043790 -0.5091767166 -0.0076123254 0.4932892180
-0.2875311489 0.3695651853 -0.2066449820 -0.4998250000 -0.0212039982 0.5070660863
0.3312824277 0.6086955992 0.1665104203 -0.4999273261 0.0215548894 0.5130996945
0.3343964492 0.0888674488 0.4891304357 -0.4970701959 -0.0144908031 0.5114302164
-0.2161543073 0.6304347278 -0.2679164115 -0.5002041522 0.0217219329 0.5102505208
0.3286005149 0.1086956427 -0.4196215939 -0.5090545862 0.0139439988 0.5236698675
-0.2450103048 0.6086955992 0.0139534553 -0.5000534565 0.0217223025 0.5111288469
-0.4618388946 0.6086955992 -0.2529481954 -0.5104662382 0.0142096944 0.5043133692
-0.2560387603 0.7375545663 0.5108695643 -0.4999269130 0.0003508478 0.4892166531
0.0652173422 0.5824647537 0.4977638698 -0.5021257172 0.0071217385 0.4937901310
0.2803640843 0.6086955992 0.2967608220 -0.4998331739 0.0201768895 0.5185422810
0.3390533618 0.5462832568 0.5027569345 -0.4931275441 0.0012727608 0.5269504107
-0.4782608715 0.1027219911 0.2922062789 -0.5140419553 0.0010393695 0.5241604762
-0.3824471624 0.6086955992 -0.2119139164 -0.5000823696 0.0217360198 0.5107859773
0.0559827125 0.1765005281 -0.4673912202 -0.4982606523 -0.0150790204 0.5212057808
0.2729751067 0.6086955992 0.2235393719 -0.4999409348 0.0215467155 0.5134019119
-0.0246035196 0.6086955558 -0.2289244801 -0.5000021087 0.0217266285 0.5103620208
0.0920009920 0.7165657855 -0.5108694773 -0.4979506089 0.0050032170 0.5313024755
0.4565216560 0.1559295517 0.2930071267 -0.4846396100 0.0001510435 0.5255643239
0.0652173856 0.1051019039 -0.4204738547 -0.5108928686 -0.0109407599 0.5128402380
0.4846076100 0.6086955992 0.0387252792 -0.4918372398 0.0175823680 0.5100642383
0.2565578907 0.3695651853 -0.1591339427 -0.5000000000 0.0217180633 0.5111917164
0.0400431704 0.3695651418 0.3144913857 -0.5000000000 0.0216468894 0.5094595209
-0.5000000000 0.6099848817 -0.1958825699 -0.5046122605 0.0196876287 0.5082560645
-0.1987494610 0.6286609453 -0.5108694773 -0.4994196087 0.0012408695 0.5305514321
-0.0740214283 0.1625142902 0.1413043790 -0.4941305875 -0.0016899129 0.4936051745
0.0387246488 0.6086955992 0.1719330285 -0.4999920652 0.0216334546 0.5123234337
0.0671150811 0.3695651853 0.4662047638 -0.4971679785 -0.0214844329 0.5106422165
-0.0652174291 0.2621737598 -0.4707636547 -0.4836014145 -0.0098103470 0.5071933907
0.4347825274 0.2906327356 -0.2385321314 -0.5199190852 0.0002218913 0.5162661073
-0.2559099560 0.3695651853 -0.3452580569 -0.4981809567 -0.0215431286 0.5104205208
0.3478260132 0.1844298535 0.1493392479 -0.4824220885 -0.0016438259 0.5000129783
-0.3080579297 0.5789465149 0.2934782788 -0.4978580002 0.0080765863 0.5300265626
-0.0758258195 0.0869565142 -0.4591761775 -0.4943551744 -0.0151851291 0.5085921079
0.0333404536 0.6304347278 0.2239904588 -0.4999685217 0.0217219329 0.5113427816
-0.3695652287 0.3547467518 -0.3679120550 -0.5210894982 -0.0035973693 0.5100008470
0.3695651418 0.3078611037 -0.1414611181 -0.4846091100 -0.0009889999 0.5260615630
-0.2214466981 0.5695890592 -0.2499999348 -0.4925974789 0.0084078036 0.4931201310
-0.4209836373 0.6086955992 0.2157830899 -0.5019266085 0.0212609547 0.5117382598
-0.5000000000 0.6189379027 0.3013366042 -0.5044245866 0.0187784549 0.5175748246
-0.1952605482 0.3516669259 -0.1413042921 -0.5000115870 -0.0039657170 0.5315909973
0.0434782136 0.6402910313 -0.4858158708 -0.5208744112 0.0003899782 0.5150808248
-0.1461814221 0.6304347278 0.3220858416 -0.5001380652 0.0217219329 0.5115606077
-0.0721588198 0.6797342887 0.4543500474 -0.4939471310 0.0003920000 0.5282010410
-0.2468784351 0.5652173422 0.5008743260 -0.5000000000 -0.0217391285 0.5108695643
0.3324360363 0.6110974469 0.5108695643 -0.4881806967 0.0012779999 0.5232162589
-0.3288433844 0.3695651853 -0.4381494184 -0.4972321742 -0.0215101503 0.5112162164
0.0434782136 0.5477228002 0.4751486326 -0.4864425229 0.0003575652 0.5213832807
0.3205410591 0.6086955992 -0.2853484969 -0.4984423914 0.0186792375 0.5003141087
-0.0652174291 0.7200651765 -0.4969615872 -0.4840818709 0.0007654130 0.5107985208
0.0652173422 0.3896952487 -0.4800110670 -0.4937268049 0.0175930202 0.5152803030
-0.1482764871 0.6304346843 0.1746955500 -0.5001400435 0.0217219329 0.5112333251
-0.0027396085 0.6086955992 -0.0323282363 -0.4999988261 0.0217174546 0.5107661512
-0.3691450114 0.1075760559 0.3398980139 -0.5054214126 0.0128726293 0.5250051283
0.3276601237 0.6086955992 -0.0807276017 -0.4999250000 0.0216612372 0.5110703469
0.2729676502 0.3493690131 -0.1413042921 -0.5018946520 -0.0042739344 0.5310584973
0.2062408734 0.3695651853 -0.3304299930 -0.4989463044 -0.0216379546 0.5107036730
0.1679169419 0.6450742048 0.5108695643 -0.4990322610 -0.0021996085 0.4893919140
0.1680198984 0.3695651853 0.1429569658 -0.5000000000 0.0217382590 0.5108561078
-0.0750046239 0.6396849444 -0.4823979146 -0.4927073050 0.0077485428 0.5215242373
0.1433243788 0.6304347278 0.0698859504 -0.4998646304 0.0217219329 0.5110006077
0.1732156371 0.3695651853 -0.1761054412 -0.5001408043 -0.0212241721 0.5068476951
0.3291525801 0.1417133138 0.4891304357 -0.5117287598 -0.0053381952 0.5220777589
-0.4348936796 0.6086955992 -0.0739291240 -0.5062379125 0.0195059113 0.5108717817
0.0463012134 0.2362064577 -0.1413042921 -0.5109650643 -0.0068669777 0.5249114109
-0.3122209729 0.3695651853 0.4416135703 -0.4973783481 -0.0215316938 0.5105985208
-0.3707753808 0.6086955992 -0.0157904334 -0.5000813696 0.0217271503 0.5112001295
-0.4498062652 0.3621304250 -0.2717390633 -0.4981119132 0.0088511731 0.4975068046
-0.4698426765 0.4698105678 0.2717391503 -0.5123580207 0.0024589563 0.4975845002
-0.1284822714 0.3537382518 0.1630435076 -0.5011420651 -0.0171977159 0.5194397374
0.2608265425 0.3682502723 0.1413043790 -0.5003119782 -0.0002938478 0.4892130444
0.0639670379 0.1086956427 -0.4423163963 -0.5105766947 -0.0155712595 0.5202698678
0.3361162099 0.3695651853 0.3170666246 -0.5002925435 0.0215523894 0.5094015427
-0.3691655983 0.5335039101 0.4626522859 -0.4893176314 0.0009766521 0.5250123022
-0.3695652287 0.2630291293 -0.4884909793 -0.5205498243 -0.0004741521 0.5061575864
-0.3513671651 0.6086955558 -0.2057083952 -0.5000754565 0.0217348677 0.5107658904
0.3601567730 0.2178348289 -0.1630434206 -0.4829347189 0.0011040651 0.4978768263
-0.3399094052 0.7032528084 -0.5108694773 -0.4974464133 0.0079550863 0.5305686495
-0.4718844372 0.6086955992 -0.0336895405 -0.5136721075 0.0138468249 0.5103404774
-0.3302592322 0.0975260350 -0.3152173204 -0.5106610426 0.0000285435 0.5272856715
-0.3067827777 0.1086956427 0.3154340378 -0.5105392165 0.0154424769 0.5003467608
0.2425391311 0.3695651853 0.2049462865 -0.4996813479 -0.0215431286 0.5128261511
-0.0652174291 0.2908591051 0.1562421603 -0.4839438057 -0.0069836950 0.5038119997
-0.3183694288 0.6956521134 -0.4965384133 -0.4977093045 0.0078181298 0.5305033452
0.4835789797 0.6304347278 0.2209884156 -0.4995432826 0.0217219329 0.5113361294
-0.3284674932 0.6129907728 0.5108695643 -0.4965580220 0.0122029989 0.4948012178
0.4565216560 0.3327549711 -0.2684219332 -0.4827442189 0.0057194343 0.5030187171
-0.3067348429 0.6086955992 0.1341395536 -0.5000682609 0.0217188025 0.5114571077
-0.3216520372 0.7177103506 0.5001595652 -0.4980729567 0.0113004555 0.4925313702
0.0034650649 0.6304347278 0.3025732563 -0.4999967174 0.0217219329 0.5115172816
-0.1474493133 0.6086955992 0.0975178393 -0.5000323043 0.0217158894 0.5112051729
0.2337626753 0.5680550593 0.2717391503 -0.4987514784 0.0092229557 0.5297146061
-0.2620113033 0.6304347278 0.2424074354 -0.5002474565 0.0217219329 0.5113836947
-0.1783232236 0.6984127871 -0.5108694773 -0.5022898259 0.0088915427 0.5300318017
-0.3573739472 0.1444523787 0.4891304357 -0.5018048477 0.0001437391 0.5164416942
-0.4782608715 0.5576973211 -0.2417465007 -0.5182390854 0.0041024996 0.5083759341
-0.3402558182 0.6304347278 -0.1105554686 -0.5003213478 0.0217219329 0.5105999339
-0.2420421963 0.3521597085 -0.4891303488 -0.4998349565 -0.0057298256 0.5308490191
0.0428572571 0.3695651853 0.3382061445 -0.5000000000 0.0216342590 0.5092664557
0.1816190059 0.6198010113 0.5108695643 -0.5004581956 0.0074388907 0.4929046963
0.1016300781 0.3695651853 0.2556872821 -0.5000000000 0.0216782155 0.5099382817
0.0451250830 0.3492802957 -0.1860998534 -0.4808418712 -0.0091908905 0.5090428905
0.1996487652 0.3695651853 0.3107301034 -0.4986207827 -0.0215876720 0.5115339773
-0.4681217419 0.1781383758 0.2934782788 -0.5069752168 0.0045705648 0.5267691716
0.4565216560 0.3753737717 -0.2352803491 -0.4820298929 0.0079036297 0.5154010639
0.3478260132 0.5394343879 -0.4796847409 -0.4829118058 0.0049401952 0.5207647156
0.0545629735 0.6086955992 0.3001178652 -0.4996625652 0.0195780200 0.5195977592
0.2393009575 0.6304347278 0.1336304449 -0.4997740000 0.0217219329 0.5111421512
0.0413510181 0.1518123998 0.1630435076 -0.5077201080 -0.0164188464 0.5201010635
0.0609833643 0.6046041213 -0.5029561302 -0.5060370430 0.0078139558 0.4972619133
0.2381919575 0.6086955992 0.1663585725 -0.4999478913 0.0215806938 0.5128373684
0.3266746890 0.2036217649 0.4891304357 -0.4959555656 0.0059824343 0.5017196955
0.2665152594 0.7106892425 -0.5108694773 -0.5020074346 0.0062069342 0.5307954538
-0.3879088358 0.5707029286 0.2934782788 -0.4972644350 0.0063956516 0.5310235408
0.3435626006 0.3216702329 -0.4891303488 -0.4909671095 -0.0007560652 0.4926465659
0.3478260132 0.6895082227 0.4674266985 -0.5086000862 -0.0000414348 0.5180989984
0.0515103868 0.3319031016 -0.1630434206 -0.4894796096 -0.0104336947 0.4996610000
0.4596539383 0.6304347278 0.1892500922 -0.4995658913 0.0217219329 0.5112656512
-0.1801643539 0.3695651853 -0.4215939633 -0.5006530652 0.0214708460 0.5111762164
0.4565215690 0.2280703497 -0.2400471313 -0.4803378495 0.0042374127 0.5136808901
-0.0810170799 0.6649936378 0.5029770432 -0.4858196969 0.0004892826 0.5226216502
0.2170333290 0.3695651853 -0.4729595241 -0.5008289130 0.0214222373 0.5114326947
-0.3011449086 0.3636739684 -0.1413042921 -0.5009364564 -0.0013165434 0.5322563015
-0.3518820346 0.1086956427 0.4371090055 -0.5130927163 -0.0092144557 0.5020697824
0.2735104110 0.3695651853 0.3418171442 -0.4998057609 -0.0217045633 0.5113060425
0.0434782136 0.1017320346 0.1833200275 -0.4790725453 0.0006042608 0.5140429553
-0.3242060153 0.3695651853 0.3434345136 -0.4984416088 -0.0213646286 0.5125485641
-0.4347826144 0.3605419252 0.2783582367 -0.4915762833 0.0076655863 0.5101830426
0.1126081859 0.6086955992 -0.0422883659 -0.4999730435 0.0217043242 0.5107811295
0.3260868847 0.1072728820 0.4675952202 -0.5091206296 0.0130481728 0.5015359999
-0.4782608715 0.5818044277 0.0222891502 -0.5180588245 0.0078478037 0.5075434993
-0.3703104895 0.3617210120 0.4779515671 -0.5187956940 -0.0103023252 0.5107004339
-0.0652174291 0.4954754787 0.4780813280 -0.5023011737 0.0015771738 0.5312145842
0.4182847897 0.6086955992 -0.3093086905 -0.4957001308 0.0195546070 0.5027009780
0.2024627650 0.6304347278 0.1395496618 -0.4998087826 0.0217219329 0.5111553034
0.3329788841 0.7000935043 0.4878908271 -0.4864724577 0.0002576304 0.5232465849
0.4565216560 0.5872075794 -0.0505968217 -0.4800828061 0.0074819559 0.5135055640
0.3260868847 0.5021205650 -0.5025441520 -0.5001141956 0.0111766947 0.5070016081
-0.3913043573 0.3556475126 0.1423364659 -0.5155618465 -0.0000520652 0.4966910438
0.0304834539 0.6304347278 0.1807641799 -0.4999712174 0.0217219329 0.5112468034
0.0334360188 0.5826568189 -0.2717390633 -0.5015196955 0.0076503472 0.4909307399
0.4536865040 0.3191824505 -0.2282608062 -0.4870777403 0.0069274124 0.5179369984
0.3279288845 0.6304347278 -0.0545052561 -0.4996902826 0.0217219329 0.5107244121
0.2854123447 0.3695651853 -0.4808549364 -0.5028583258 -0.0141211944 0.5227969980
-0.0695427983 0.1743453761 -0.1413042921 -0.4893168270 -0.0016281520 0.5271510846
-0.2736033675 0.3695651853 0.1938865701 -0.5000000000 0.0217111285 0.5104414556
-0.1898440270 0.6190887505 0.3369565359 -0.5040798040 0.0188170636 0.5175744333
-0.2185885679 0.6264502281 0.4891304357 -0.4994255653 0.0017708912 0.4896066313
-0.4804318060 0.6304347278 0.1642135727 -0.5004537391 0.0217219329 0.5112100642
-0.1580891384 0.7358018056 0.5092052818 -0.5002431956 0.0099485209 0.4916349138
0.1173128376 0.5469914742 0.4942344135 -0.4974113046 -0.0029758258 0.4895571313
-0.3695652287 0.6027579041 0.4589928514 -0.4894269140 0.0001910217 0.5233834327
-0.2988121697 0.3317063625 -0.1413042486 -0.5007092608 -0.0083152601 0.5303097800
-0.3491539696 0.1086956427 -0.3414643399 -0.5143965857 -0.0106013034 0.5209970199
0.2115631338 0.6086955558 0.2474596089 -0.4999548044 0.0215534981 0.5134250206
0.4544155257 0.2196196766 0.2934782788 -0.4870345881 0.0004224782 0.5266307368
0.0529361693 0.3695651853 0.4858315012 -0.5101450643 -0.0123361511 0.5101981295
-0.0631710597 0.6086955992 -0.2297538496 -0.5000107391 0.0217277590 0.5104019121
-0.0853217969 0.1086956427 0.3486198175 -0.5063692821 0.0151672161 0.5065147603
-0.0652174726 0.1863767664 -0.4888774140 -0.4809100451 -0.0007530434 0.5021921085
0.3614713599 0.6304347713 0.0498959957 -0.4996586087 0.0217219329 0.5109562164
-0.1484011175 0.5300028017 -0.4891303488 -0.5039363257 0.0070113472 0.5249320413
0.3384469923 0.3407743834 0.3037282779 -0.4803347843 -0.0075870211 0.5119590207
0.4347825274 0.4669150464 0.2809577364 -0.5159386073 0.0061927603 0.5157716508
-0.1037204475 0.3572490124 -0.1413042486 -0.5023032824 -0.0024837824 0.5314181929
-0.2050432865 0.6086955992 -0.1815502886 -0.5000428913 0.0217296720 0.5106602165
-0.0865354925 0.2349745883 -0.1630434206 -0.5120370207 -0.0054498256 0.4984246741
-0.4782608715 0.3428718398 -0.2564915647 -0.5136758466 0.0071304776 0.5079532384
-0.2770350194 0.7277680454 -0.4891303488 -0.4976324785 0.0013602173 0.5321231276
-0.1597857252 0.5878589054 0.2934782788 -0.4984997175 0.0093048470 0.5294713235
-0.2643975857 0.3695651853 -0.2952511917 -0.5000000000 0.0216455633 0.5122999555
-0.3373767967 0.6086955558 -0.1399078139 -0.5000728696 0.0217316068 0.5108939338
-0.1793240931 0.6246333152 0.5108695643 -0.5021309346 0.0040584127 0.4916933703
