-0.3152665975 0.6519624920 0.3566451780 -0.0470839478 0.0051933918 0.0261775691
-0.3261762455 0.7247278646 -0.3842063413 -0.0474803703 0.0082986317 0.0267100550
-0.3065938079 0.0153146029 -0.3945369114 -0.0476699931 0.0055762207 0.0253186669
-0.0496614970 0.3120514704 -0.0331306141 -0.0483371525 0.0068774383 0.0271003381
0.3822102512 0.8529295769 0.1850543914 -0.0467221503 0.0065013776 0.0260137567
0.1397829687 0.7312519706 -0.3185277040 -0.0471783827 0.0084329181 0.0263747130
-0.4145778076 0.1880670289 0.1127615071 -0.0476911062 0.0071466219 0.0249442297
-0.2337067429 0.9423374442 0.4768827187 -0.0467488541 0.0066502098 0.0277221632
0.3807229354 1.1056730258 -0.2587305204 -0.0486948554 0.0070758986 0.0262308998
0.0068067101 0.9236778018 -0.4687801318 -0.0470140901 0.0066467669 0.0245390839
0.3900424393 1.1457653804 0.0809005315 -0.0486996343 0.0070809879 0.0261533838
0.1518489006 0.2414825315 -0.2161824232 -0.0457407196 0.0070419024 0.0269332330
0.4326466356 1.3411230290 -0.0892254537 -0.0467021298 0.0058623363 0.0263047998
-0.3531457973 0.7415124135 0.4134477896 -0.0482740549 0.0071063409 0.0250557844
0.3777789551 0.8186884476 0.2302564579 -0.0461524490 0.0066467848 0.0250451535
0.4758339945 1.3555548858 0.0458997727 -0.0455506754 0.0063043578 0.0260514343
-0.3351950211 0.9486130844 -0.4702548372 -0.0486272157 0.0071242920 0.0265765852
0.1131106566 0.9809056988 -0.4657275432 -0.0473163260 0.0066256178 0.0245439820
0.4829434582 1.2491588105 -0.0417353067 -0.0454850397 0.0065484660 0.0260171146
0.4120317982 0.8188179893 -0.2648795832 -0.0455650530 0.0065901582 0.0265900955
0.3457044034 0.8642102551 0.1623920767 -0.0486979439 0.0070913689 0.0261486065
0.4271022438 1.2966722968 0.2134565204 -0.0468467727 0.0062755716 0.0246950894
0.4884181687 1.3924888854 0.1951545629 -0.0455933540 0.0074407519 0.0261416929
0.2170689323 0.1358747755 -0.3478397793 -0.0483209343 0.0061967408 0.0255274592
0.1749677270 0.6577055075 0.3485645976 -0.0470472387 0.0052168111 0.0263836518
0.1228512845 1.0355486366 0.3805551395 -0.0474008258 0.0068780981 0.0247265851
-0.0557778293 1.1018984118 -0.4862117413 -0.0469622064 0.0068274574 0.0245519507
-0.3268224600 0.2297673954 0.1035064188 -0.0470103908 0.0072956240 0.0271579823
0.3866544581 0.6825113480 0.1145240806 -0.0455952895 0.0062720699 0.0263177597
0.3896509215 0.6931340490 -0.0440757871 -0.0455189069 0.0064071811 0.0259862608
-0.3240743383 0.9352299257 -0.4425979749 -0.0483548505 0.0071143929 0.0271235892
0.3765590460 0.6993713584 -0.2911647904 -0.0458471900 0.0058140916 0.0260732023
-0.0784461789 1.0939239213 -0.4876062015 -0.0469630133 0.0067307440 0.0245687879
0.4354275286 0.9512505791 -0.2371782359 -0.0454954827 0.0065665772 0.0259311122
-0.2705895301 0.9020972553 -0.4640230107 -0.0462004553 0.0066252307 0.0253390255
-0.2373887986 0.7269709521 -0.3728872831 -0.0471383238 0.0083755826 0.0263417457
-0.0726093557 1.1143050445 0.4461349891 -0.0471362577 0.0083964132 0.0256938310
-0.2986920642 0.6743390324 0.3987065090 -0.0465928747 0.0058914230 0.0271737775
-0.1998172441 1.0431096289 -0.4794941939 -0.0470202785 0.0060643735 0.0253341241
-0.0541828558 0.8200312691 -0.4647102461 -0.0469466431 0.0066631060 0.0245266630
-0.4249446131 0.0866759753 0.1296751422 -0.0462875488 0.0082137725 0.0258807164
0.1639166749 0.1658183366 -0.2743048046 -0.0483590545 0.0061928308 0.0255097580
-0.1620865401 0.2285226656 -0.2304113691 -0.0458657487 0.0068802459 0.0251624410
0.3735289376 1.0113807381 0.2236239298 -0.0486857892 0.0070138724 0.0259935565
0.0084442349 0.2443527685 -0.0073931752 -0.0454727756 0.0066412497 0.0260996251
-0.0205235122 0.4366505769 -0.0466134146 -0.0473206410 0.0067686356 0.0245360820
-0.1394930329 0.8597099262 0.3876303113 -0.0471127143 0.0069260522 0.0245259492
0.3225393461 0.6665824559 0.3258123656 -0.0466205633 0.0053087667 0.0262511522
-0.2468700310 0.7260541380 0.3510571995 -0.0470878986 0.0084585210 0.0261025764
0.3333860173 0.7254590117 -0.0400014655 -0.0480787157 0.0073006038 0.0258872331
0.2664216278 0.6519624920 0.1585673577 -0.0471549046 0.0052022016 0.0260859923
-0.3688681150 0.6827326511 -0.2359630877 -0.0486052059 0.0074168329 0.0261791860
0.2615652194 0.6519624920 0.0123407079 -0.0472969849 0.0052342118 0.0258878750
-0.0273575124 1.0849572564 -0.4180053136 -0.0471966981 0.0077418217 0.0274856153
0.3940654717 1.1727205024 -0.0176939531 -0.0487001325 0.0070772101 0.0261279867
0.3953275973 0.8364765350 -0.2335495371 -0.0466082911 0.0064819647 0.0251427161
-0.0021202487 0.6507865943 0.0735028012 -0.0469852746 0.0081242374 0.0268134581
-0.0514080711 0.3017550680 -0.0787080096 -0.0470860302 0.0070765928 0.0259888168
0.3960730992 1.1846698770 -0.0874485125 -0.0487002664 0.0070774257 0.0261352220
0.2222786518 0.6519624920 0.0197795293 -0.0472662781 0.0052301744 0.0259061283
-0.2714015725 0.9776306116 0.4822635251 -0.0468437692 0.0066685757 0.0277266841
0.4299226633 1.2206844720 -0.2369802590 -0.0464352654 0.0064242176 0.0274035588
-0.3026449923 1.0081391458 -0.4384721665 -0.0481127724 0.0070938057 0.0273761283
-0.1364820009 0.7449730159 -0.4648128735 -0.0469599084 0.0066698366 0.0245200271
0.4043071225 1.2348998095 -0.1139251407 -0.0487008184 0.0070738767 0.0261365678
0.4361899771 1.2530027073 -0.0065267976 -0.0460295546 0.0060595129 0.0256020991
0.4224782544 1.0725416506 -0.3147681176 -0.0457453188 0.0066188300 0.0253207412
0.3592733011 0.9507704897 -0.1398531236 -0.0486989500 0.0070853683 0.0261306423
0.4542409880 1.4247538879 -0.1879571760 -0.0479640676 0.0081979005 0.0261707535
-0.0838037065 1.0734912606 -0.4163459881 -0.0472090553 0.0073703096 0.0276698810
-0.1278700452 1.0637903078 0.4046357632 -0.0472197058 0.0071393017 0.0245428143
0.0740267256 0.3308112985 0.0100360351 -0.0464709423 0.0071067378 0.0246743127
-0.0264788756 0.2041392573 0.3168029600 -0.0486625774 0.0068674362 0.0262164471
0.4210344502 1.3528119219 -0.2155962685 -0.0487047219 0.0070462469 0.0261523059
-0.2131891872 0.7430144335 0.4573972753 -0.0469109597 0.0066704442 0.0277524307
-0.0377956554 0.4145601357 -0.0391116360 -0.0480427465 0.0068044546 0.0248414243
0.4633296686 1.1249379632 -0.0136316196 -0.0454915564 0.0065130162 0.0260041041
-0.0873343233 0.8166527069 -0.3931192263 -0.0471813275 0.0069249302 0.0277461035
-0.0771727953 0.6519624920 0.1196578650 -0.0470490794 0.0051989498 0.0260666480
-0.0248878072 0.0734410004 0.4124435276 -0.0471483700 0.0076762333 0.0247602530
0.4301479041 0.0505198161 0.1740072281 -0.0480573674 0.0066986473 0.0270288635
0.3981646139 0.7722773380 0.2789460918 -0.0456674909 0.0064118588 0.0260728528
-0.1793680353 1.0445292576 0.4360696828 -0.0471159172 0.0060560178 0.0257157607
0.1615977519 0.2320021337 -0.2717484044 -0.0482269567 0.0072280512 0.0250521847
-0.2069525247 1.0125001138 -0.4925511798 -0.0467595568 0.0066413575 0.0245609401
0.4621765008 1.1286323303 0.2372337862 -0.0455823328 0.0065899850 0.0257578792
0.4318796499 1.1633717403 -0.1824737668 -0.0455715991 0.0064041923 0.0259472766
0.4260382944 0.8906643559 0.0185113982 -0.0455027671 0.0064684528 0.0260034247
0.0052273276 0.4630629577 -0.0407855155 -0.0462384677 0.0069771862 0.0247737944
-0.2870849387 0.6519624414 0.2469267148 -0.0470512353 0.0051966060 0.0261247136
0.0306296140 0.7817076437 0.4409506129 -0.0470104447 0.0066646200 0.0277585538
0.4239426426 0.9150064069 0.2572462702 -0.0455591830 0.0065879892 0.0259724826
0.3066300433 0.2272520422 0.0837184521 -0.0464061657 0.0072392587 0.0247161665
0.4598129426 1.1713980672 0.2591822744 -0.0456070342 0.0065930490 0.0262881128
-0.0604565851 0.3425164913 -0.0910331493 -0.0460305966 0.0073981452 0.0250338350
-0.1234995945 0.3196901683 0.0413292023 -0.0467491840 0.0071470793 0.0276840952
0.0255797153 0.8349091700 0.3717027895 -0.0473092164 0.0069303624 0.0245411010
-0.0343627286 0.8057674336 0.4484061361 -0.0469578407 0.0066626552 0.0277518738
-0.0264432330 0.1688859283 0.3075018727 -0.0486023967 0.0063157922 0.0259704688
0.0085793037 0.7301352375 -0.3392843931 -0.0471604920 0.0084380138 0.0263292121
0.4392946013 1.2079251489 0.1401525813 -0.0455277608 0.0063629982 0.0260655897
-0.3002413605 0.6803249835 -0.0606858846 -0.0466841787 0.0065736116 0.0260106584
0.2003215416 0.9589813354 0.4389773019 -0.0466814675 0.0067410336 0.0277121987
0.2837670846 0.6519624920 0.0114502512 -0.0473110538 0.0052357617 0.0258820704
0.4135365098 1.2943882896 -0.0801009738 -0.0487009426 0.0070730992 0.0261390699
0.1042310166 1.0447891399 0.3877753037 -0.0474145076 0.0062570276 0.0248143073
0.4138720037 0.0843181122 0.1122502535 -0.0476629766 0.0082743631 0.0257313534
0.4478592824 1.1322832333 0.2704482240 -0.0456487705 0.0066003611 0.0264419117
0.0579052529 0.6519624920 0.1536162367 -0.0470793355 0.0051971956 0.0260951794
0.1840534188 0.2610014942 0.0690708535 -0.0474514927 0.0069975709 0.0276517600
0.4589788186 1.0921314657 0.1688684965 -0.0454889546 0.0065728260 0.0263195481
0.1184749394 0.9220841201 0.3719154690 -0.0473420530 0.0067226937 0.0245473367
0.4119939181 1.2859548456 -0.0556749129 -0.0487006878 0.0070747456 0.0261391222
-0.0167298463 0.7254590624 -0.1095305913 -0.0469024227 0.0084357289 0.0260743015
0.2541300565 0.0157905699 -0.4123478285 -0.0465742817 0.0056285699 0.0252139229
-0.0646419159 0.6519624920 -0.1105337199 -0.0470690035 0.0052007284 0.0260395605
0.4393656774 1.1675872667 0.2188626847 -0.0469956163 0.0067354086 0.0275612808
-0.0224213701 0.2735717122 0.0172385699 -0.0475722035 0.0068047094 0.0276840642
0.4993568250 1.3596229749 0.0387625224 -0.0454895067 0.0065636814 0.0261571877
0.4148460374 1.0530788376 0.0587801479 -0.0456372756 0.0063962154 0.0257022717
0.3599839149 0.9611118279 0.2355903621 -0.0486857451 0.0070296268 0.0258943541
0.4528638745 1.2992447976 -0.2211435022 -0.0455106051 0.0064377345 0.0261072851
0.3496144161 0.8988815811 -0.2789123471 -0.0486737162 0.0070424087 0.0258371019
0.4945443284 1.3181055071 0.1765853604 -0.0454902547 0.0065775952 0.0263395359
0.4690160133 1.4307908782 0.1487440527 -0.0468232424 0.0081025036 0.0261876806
-0.0660411713 0.9969788875 -0.4062366704 -0.0472537200 0.0064160072 0.0276789635
0.4085915315 1.2559683674 0.1920510983 -0.0486989222 0.0070705595 0.0260850973
-0.1862525439 0.6519624920 -0.1054257801 -0.0470367254 0.0052009276 0.0260231348
0.4463184839 1.0106710732 0.1354200702 -0.0455326263 0.0064114145 0.0262957597
0.4369306462 1.1960769579 -0.0507578960 -0.0456315167 0.0063761247 0.0257156546
-0.1706783218 0.7254590624 0.3052908362 -0.0470905739 0.0084553002 0.0260836437
0.4057855664 1.2504138592 0.2632456303 -0.0486658308 0.0070753123 0.0264655417
-0.1950259929 1.0864950137 -0.4326830948 -0.0471937484 0.0077719046 0.0274640073
0.1358283208 1.0864379934 0.4003318661 -0.0465777704 0.0078079098 0.0249397398
-0.0418705453 0.3853523570 -0.0358517266 -0.0482191889 0.0067576291 0.0249846168
-0.1930939020 0.8306557144 0.4635879812 -0.0468550697 0.0066613241 0.0277405324
0.4787878429 1.2249250183 -0.0933978410 -0.0454790358 0.0065891962 0.0259977752
-0.0946688335 0.9902411042 0.3955930375 -0.0472647053 0.0064013553 0.0246064362
0.0366039395 0.7261312457 0.2843860368 -0.0471460263 0.0084512841 0.0260249396
-0.2115717433 0.1970412084 -0.2982767710 -0.0458659822 0.0069116877 0.0251299163
0.4158696143 1.3118161116 0.0093416362 -0.0487005228 0.0070757092 0.0261442506
-0.3515117676 0.7084871053 -0.1839748411 -0.0481801655 0.0080274767 0.0261997356
-0.3706875602 0.6519624920 0.0245468027 -0.0472436460 0.0052010567 0.0261562240
0.1668513848 0.7616874850 0.3948201966 -0.0473465396 0.0068871007 0.0263230694
-0.3136077472 0.8735302082 0.4081419726 -0.0478905563 0.0070621107 0.0247411913
0.0092920832 1.0449112552 -0.4470469166 -0.0470968587 0.0057950641 0.0263222626
0.3981631685 1.1988611893 0.0416829511 -0.0486999365 0.0070790574 0.0261468312
0.4756718055 1.2307712099 0.2465137163 -0.0455542049 0.0065837721 0.0261644475
0.4336223630 1.4043233211 0.1408869688 -0.0484474872 0.0077110103 0.0262299378
0.2213158843 0.8113928693 -0.4044653491 -0.0457409123 0.0071519578 0.0269848521
0.1843412117 0.8077916092 -0.4439082489 -0.0469246840 0.0066990670 0.0245323908
-0.1459206052 0.8953438205 0.4655172074 -0.0468309089 0.0066543452 0.0277333151
0.1912691471 0.9545523815 -0.4542961398 -0.0467300357 0.0067314480 0.0245584641
-0.1549600170 0.6519624414 0.0421501034 -0.0470200548 0.0052022375 0.0260146043
-0.0409507390 0.9107512054 0.4583022255 -0.0468874768 0.0066516111 0.0277361863
0.0670333473 0.5967736740 0.0528967670 -0.0461921927 0.0066984921 0.0268528327
0.2623349212 0.6519624920 -0.2048717143 -0.0471777310 0.0051979502 0.0261065828
0.4973929084 1.3399361656 0.0193799644 -0.0454762021 0.0065781913 0.0261052631
-0.2396219037 0.7993774050 0.3905798724 -0.0470093994 0.0069247342 0.0245179136
-0.1390714974 0.6519624920 0.1924353123 -0.0470593428 0.0051972659 0.0261038193
-0.3367294906 0.7177234699 -0.1026715778 -0.0477510190 0.0083136821 0.0262226372
-0.1229226415 1.0538153174 0.4758839640 -0.0469681858 0.0061400684 0.0275268746
0.1144776014 0.7254590624 -0.1730553364 -0.0469938165 0.0084473659 0.0261112784
0.1921718287 0.7272127902 -0.2685566803 -0.0471287676 0.0084499889 0.0262929897
0.4159152704 1.3103662774 -0.1678739393 -0.0487024501 0.0070626284 0.0261423348
0.4094988238 1.2569427000 0.1423077196 -0.0487008315 0.0070735941 0.0261492745
0.4593476081 1.3504684021 -0.1819586146 -0.0455777858 0.0063726279 0.0260968666
0.3815763972 1.0930488776 -0.0898882295 -0.0486997993 0.0070801239 0.0261300952
0.4825355424 1.4062050946 -0.1811031831 -0.0455613324 0.0073210979 0.0261371019
-0.2163735601 0.7516454559 -0.3974609545 -0.0470628935 0.0077681677 0.0273796904
0.3625357289 0.9848284476 0.2471747347 -0.0486932075 0.0070826832 0.0261147442
0.2520039526 0.7525094849 -0.4273916570 -0.0466073323 0.0064435586 0.0246466045
-0.0382854823 0.9870906230 -0.4032559075 -0.0472639932 0.0064595776 0.0276869567
0.1244021258 0.7254590624 -0.0978357289 -0.0469878992 0.0084349580 0.0259989561
0.4381058955 0.9651216015 0.2201750019 -0.0454881200 0.0066005457 0.0263451331
0.3521815076 0.9055296464 0.0057360317 -0.0486991493 0.0070815268 0.0261087338
0.3701308628 0.6638865446 -0.0561470875 -0.0460347222 0.0056817406 0.0256699560
-0.1018988985 0.7254590624 -0.0974174958 -0.0468674236 0.0084319332 0.0260685982
-0.1417211663 0.8701250305 0.4629209819 -0.0468522670 0.0066568931 0.0277372235
-0.2995174405 0.6647678207 0.1616099654 -0.0463294728 0.0061726013 0.0260770094
0.4238840772 1.0296837050 -0.2345119060 -0.0467037631 0.0064551711 0.0250030351
-0.0944350638 0.6519624920 -0.1463219291 -0.0470711774 0.0051997468 0.0260460396
0.1626036848 1.0356523108 0.4499908462 -0.0469512228 0.0067317175 0.0277140394
-0.2455299517 0.7712144355 0.3885632229 -0.0470084848 0.0069250804 0.0245178156
-0.2466517069 0.8892887875 0.4731993172 -0.0467822721 0.0066557351 0.0277293283
0.2962186008 0.6733412234 0.3170624192 -0.0469893985 0.0053549209 0.0259585640
0.4527741075 1.0517552052 0.1585680567 -0.0454929234 0.0065723263 0.0263125480
0.3924202526 0.7023055195 0.0606413554 -0.0454942464 0.0065089445 0.0261447047
0.3375537677 0.6519624920 -0.2055761462 -0.0472221605 0.0052024580 0.0260914736
-0.2692057367 0.8575588008 0.4722052467 -0.0467944317 0.0066591551 0.0277328953
0.3417462669 0.8389601148 0.0505966804 -0.0486986250 0.0070850677 0.0261167629
0.0903052049 1.0449225198 -0.4498706238 -0.0470745190 0.0057469369 0.0260535657
-0.2347424076 0.6519624920 0.2340932761 -0.0470558607 0.0051966583 0.0261209865
-0.0669079556 0.7793673137 0.3744438833 -0.0472137460 0.0069291407 0.0245336746
0.2765749569 0.6519624920 -0.1099764754 -0.0472522680 0.0052181503 0.0259868324
0.4938763817 1.3131685530 0.2057056015 -0.0454928548 0.0065774727 0.0263829038
-0.2243209222 0.8347972723 -0.4056014706 -0.0470206035 0.0069237705 0.0277580328
0.1089298712 0.7254590624 0.1345766382 -0.0470891856 0.0084374422 0.0259319419
-0.1878592721 0.2620010214 0.0372891170 -0.0476091543 0.0068556376 0.0246843703
0.3777463586 1.0668383102 0.1103104308 -0.0486992374 0.0070833463 0.0261551690
-0.0803803130 0.8919359511 0.4598623633 -0.0468681308 0.0066541933 0.0277369899
-0.1535335465 1.0640043347 -0.4920815089 -0.0469663059 0.0063669001 0.0246320064
-0.1379867566 0.7261066227 -0.3366245685 -0.0471053141 0.0084555534 0.0262164422
0.1826737379 0.1485270092 -0.2977430258 -0.0482233978 0.0060145363 0.0257008687
0.1277000166 0.9582139529 0.3975039696 -0.0479139021 0.0066954232 0.0261653082
-0.2725315643 1.1024461867 0.4899689121 -0.0472149726 0.0070311017 0.0277529615
-0.2621515996 0.1462126479 -0.3247592316 -0.0481316169 0.0063815814 0.0270816749
-0.3547909167 0.8089497633 -0.4492800348 -0.0485696483 0.0071229936 0.0267532906
0.2259002492 0.7659041074 -0.3826766082 -0.0463053627 0.0078055791 0.0271740176
0.4349669795 1.1805274208 0.1414266443 -0.0455233559 0.0063778135 0.0260668669
0.3343079632 0.7881389922 0.2106309300 -0.0486931666 0.0071039531 0.0262112109
0.4053718689 0.9917338032 0.1554259379 -0.0455339868 0.0064513362 0.0259969798
0.3966677779 0.7315128997 0.2491040343 -0.0455636059 0.0062861894 0.0261378777
0.4588996677 1.3361473962 0.0466443811 -0.0455391511 0.0063353848 0.0259854360
0.4168315848 0.8338049968 0.0806146070 -0.0454972189 0.0064927213 0.0261062006
-0.0267962567 0.6254727046 0.0735028012 -0.0470882237 0.0074547081 0.0269160773
-0.3091272559 0.8399406276 0.4021077490 -0.0476045746 0.0070248414 0.0246023889
-0.0993389166 0.3071841976 0.0338957395 -0.0466718689 0.0069685724 0.0276680305
-0.2660335006 0.9321600916 -0.4580220566 -0.0468072087 0.0067663327 0.0259741061
-0.2296336937 0.6519624920 0.0473017328 -0.0470056331 0.0052018880 0.0260150927
0.1014812502 0.2760697218 -0.1462474755 -0.0457646909 0.0070352305 0.0269335956
0.1121801492 0.6519624920 0.1540842874 -0.0470878937 0.0051968625 0.0260991482
0.0918480580 0.2816932646 -0.1750073025 -0.0482573058 0.0071568298 0.0250780963
-0.1226278451 0.9771195214 0.3966986562 -0.0472755272 0.0063898343 0.0246170589
-0.0325805592 0.7254590117 -0.1933478261 -0.0469795892 0.0084454860 0.0261131844
0.2805018917 0.6519624920 0.0341443817 -0.0472866170 0.0052305500 0.0259136494
-0.3199906222 0.7234287555 0.1821249912 -0.0475438534 0.0083909548 0.0261995298
0.0221110626 0.7254591130 0.0622509499 -0.0469918713 0.0084262871 0.0259092739
0.4499567275 1.0402426567 -0.1433904727 -0.0455102735 0.0064911877 0.0259024093
-0.1254361834 0.6602028442 0.3858702024 -0.0467836228 0.0053228731 0.0266289572
0.0141514886 0.7937264481 -0.4572530277 -0.0470022980 0.0066659397 0.0245198213
-0.1117425147 0.9917889289 -0.4093108915 -0.0472583094 0.0063738120 0.0276630703
0.1603700440 0.6519624920 -0.0534022372 -0.0472221573 0.0052224670 0.0259420028
0.3714656357 0.7923690726 0.1111324736 -0.0477453238 0.0065079482 0.0257971753
-0.0260810877 1.0665300803 0.3967642250 -0.0472214860 0.0071691936 0.0245482301
-0.0134910223 0.2212621534 0.1622149598 -0.0469764795 0.0062637338 0.0259188693
0.4311185472 1.2920974031 -0.2321601628 -0.0466089182 0.0063666780 0.0275241928
0.4882235318 1.3095229336 -0.2596340513 -0.0455180054 0.0065817518 0.0259256620
0.4121123945 0.8603239933 0.2188626847 -0.0459879441 0.0065569410 0.0267584729
0.1987177419 0.9776844421 -0.4325626748 -0.0455977818 0.0071421419 0.0267277317
0.2354511236 0.6519624920 0.0585609566 -0.0472356545 0.0052224082 0.0259562137
0.3165785162 0.6519624920 -0.1915665599 -0.0472193709 0.0052040112 0.0260787080
-0.0964531587 0.9107222967 -0.4755141766 -0.0468562864 0.0066539173 0.0245413345
0.3032469210 0.7342769963 0.2832539757 -0.0483160280 0.0077674099 0.0256335638
0.0203107690 0.3475826393 -0.0332661304 -0.0459083130 0.0071657833 0.0271065086
0.4605812235 1.4279761409 -0.0724523147 -0.0477716144 0.0082947184 0.0262434988
0.4193227396 0.8471846668 -0.2211253338 -0.0454758330 0.0065603071 0.0261339970
0.1399688088 0.7660569264 -0.4455449456 -0.0471096259 0.0065279196 0.0245377250
0.1239311337 0.2652357868 -0.2194843514 -0.0482305857 0.0072346790 0.0250511966
0.4037150863 1.2268966112 -0.1947402415 -0.0487008821 0.0070708127 0.0261551951
-0.2730468912 1.0058983007 0.4845876565 -0.0468774322 0.0066742693 0.0277270091
0.3783187058 0.7521670137 -0.2705750496 -0.0459816609 0.0061487116 0.0267875726
0.4264441163 0.8908578462 -0.1690962412 -0.0454836269 0.0065322200 0.0260747294
0.4716325239 1.3721663781 -0.0068644964 -0.0455488021 0.0066246003 0.0260642700
-0.0375005422 1.0433578464 -0.4801081614 -0.0470035115 0.0057036687 0.0251353175
-0.2362461099 0.9957353027 -0.4933651167 -0.0467189818 0.0066449997 0.0245597070
-0.3682128277 0.6816038565 0.0643565646 -0.0486216218 0.0073659814 0.0262304409
0.3339658171 0.7643095781 -0.3327922859 -0.0480203790 0.0079118878 0.0253704052
-0.2024085470 0.7254590624 -0.0690533482 -0.0468154828 0.0084255766 0.0260516907
0.1878991578 0.7244234238 0.3998472166 -0.0472906299 0.0064239351 0.0269065963
-0.2864007917 1.0927484237 -0.4763722752 -0.0480917034 0.0080597466 0.0264857729
0.4527292484 1.0575964121 -0.0025481016 -0.0454969641 0.0064917495 0.0260016118
0.2556818712 0.6786787665 -0.3447127502 -0.0474157799 0.0053612367 0.0263808753
0.0689121548 0.6519624920 0.2559769681 -0.0471090052 0.0051942492 0.0261541498
-0.3706413063 0.6519624414 -0.3554448565 -0.0472053641 0.0051980123 0.0261317660
0.3884705388 1.0172342059 -0.2330969876 -0.0463811360 0.0066720170 0.0274743066
-0.2929623810 0.2469298294 0.0914216897 -0.0470443674 0.0072967232 0.0270465288
-0.2872664409 0.8015117830 0.4126324824 -0.0457795405 0.0066077712 0.0261841364
0.0095995275 0.7638931890 0.3650827101 -0.0473686653 0.0071161503 0.0245752834
0.1565227076 0.2882341931 0.0360909286 -0.0464635943 0.0071149809 0.0246825492
-0.3095116691 1.0259683031 -0.4505500849 -0.0483522454 0.0071139176 0.0271254935
0.2280117746 0.7254590624 -0.1981287224 -0.0470526285 0.0084533207 0.0261188469
-0.0016803962 0.1747489163 0.3713731280 -0.0455794354 0.0068544208 0.0261867823
0.4283847557 1.1369995833 0.1830529312 -0.0455205304 0.0063824781 0.0261024507
-0.1347888947 0.7565840547 0.3761714676 -0.0472674557 0.0071816259 0.0245712738
-0.2558255064 0.8503113220 -0.4827769574 -0.0468179931 0.0066594703 0.0245402059
-0.1694694796 0.3037025099 0.0563050104 -0.0467785663 0.0072051954 0.0276881441
0.4857985174 1.2620749394 0.1914280107 -0.0454914061 0.0065768194 0.0263598847
0.4369089630 0.9481264163 0.1999556071 -0.0455522662 0.0063624691 0.0264231276
-0.3696047711 0.6777115124 0.0040072519 -0.0486448549 0.0072990032 0.0262580348
-0.2025281455 0.6519624920 -0.1702747048 -0.0470502406 0.0051991327 0.0260395196
-0.0576764793 1.0916675276 0.4112512074 -0.0471974053 0.0078523507 0.0248738771
0.4754733795 1.1979021097 0.1248979402 -0.0454852194 0.0065760942 0.0262583304
0.4375080271 1.3428245710 -0.0458424927 -0.0465149586 0.0058282111 0.0259388734
-0.1035016775 0.7254590624 0.1130049392 -0.0469657931 0.0084312130 0.0259719730
-0.1377659337 0.7254591130 0.2389957146 -0.0470703558 0.0084461507 0.0260178790
0.3668063320 0.9988259707 -0.0900681638 -0.0486994759 0.0070815219 0.0261221919
-0.3706753499 0.6747181375 0.0322711126 -0.0486508016 0.0072783409 0.0262542293
0.4454520623 1.0210268641 -0.2351827942 -0.0455263170 0.0065821046 0.0258563891
-0.0286436567 0.7428890778 -0.3734576132 -0.0473803954 0.0074945825 0.0275628945
0.0128325600 0.5834000846 0.0735028012 -0.0466676452 0.0062801170 0.0270438584
0.1523234925 0.7447998612 -0.3652005871 -0.0474268403 0.0076539443 0.0272684395
0.0694238575 0.2269687080 -0.1368799603 -0.0480140518 0.0063132672 0.0257103301
-0.0098611867 0.8125727538 0.3726593768 -0.0472728536 0.0069299116 0.0245382722
0.4112208517 0.8028628296 -0.1586086399 -0.0454951855 0.0065031823 0.0259654220
0.4272903019 1.3427173085 0.0880184065 -0.0472657620 0.0060681627 0.0249042688
-0.0915839848 0.5702996361 0.0238921557 -0.0478962988 0.0057078629 0.0263870637
0.0944064148 0.7265136418 -0.2852368821 -0.0471163353 0.0084533011 0.0262568212
0.0467730001 0.8823892121 -0.3877673285 -0.0473699899 0.0066954886 0.0277019859
-0.1897132720 1.0441166577 -0.4572994824 -0.0470900137 0.0060579483 0.0262128344
-0.0269112184 0.3228535064 0.1296370301 -0.0485527686 0.0073700303 0.0264110350
0.3152897751 0.6519624920 -0.1439119292 -0.0472517911 0.0052136393 0.0260203354
0.3015413155 0.6534723370 0.2583177212 -0.0470871588 0.0051955216 0.0262002436
-0.0668570176 0.7254590624 0.2428225634 -0.0470900856 0.0084488309 0.0260287859
0.0146068554 0.6519624920 0.2663038504 -0.0471033901 0.0051942786 0.0261563188
0.2309931124 0.0302227484 -0.3640265350 -0.0479528340 0.0061565692 0.0268811550
0.4823213179 1.2422778770 0.0918187263 -0.0454823922 0.0065767491 0.0262103387
0.4446089178 1.2446307685 0.0731619470 -0.0455267858 0.0063742628 0.0260085645
0.4162234987 1.3100990193 -0.1023061659 -0.0487012284 0.0070712586 0.0261392953
-0.2958045309 0.8992595903 -0.4887184479 -0.0469883941 0.0066901805 0.0245323353
0.1779806650 0.7395003976 0.3856633553 -0.0473891758 0.0069480358 0.0262884264
-0.0506838425 1.0671702648 0.3989107658 -0.0472205338 0.0071946299 0.0245548824
0.2726294552 0.6519624920 -0.0507495027 -0.0472911591 0.0052299702 0.0259147829
0.0866069000 0.9914201900 -0.3940131618 -0.0472613195 0.0065884498 0.0277291339
-0.3271141924 0.7209619232 -0.0752500613 -0.0476287909 0.0083639914 0.0262156583
0.4913215772 1.3792195679 -0.1971824263 -0.0454958617 0.0070836713 0.0261097301
-0.0262756119 0.7572294215 0.4435111012 -0.0470038708 0.0066367958 0.0277533339
0.4143651510 0.0697778791 0.0917596759 -0.0459388435 0.0058187218 0.0256980709
0.4032688919 0.7578684105 -0.1740464034 -0.0454912085 0.0065171271 0.0259766605
-0.0234121790 0.7262982691 -0.3112162505 -0.0471110207 0.0084544411 0.0262387248
0.4247958071 1.3877874894 -0.1434984816 -0.0486308138 0.0073501715 0.0261608462
0.1587793528 1.0624016800 -0.4665830498 -0.0468324997 0.0067151709 0.0245917483
0.4758440129 1.2923714408 -0.2780409407 -0.0455829992 0.0065912966 0.0256339721
-0.0355371613 1.0442921054 0.4456313237 -0.0470671595 0.0057295231 0.0263074538
-0.0464184265 1.1176124310 0.4585393793 -0.0471037184 0.0084509656 0.0260678795
0.1891449100 1.0484258890 0.4284742500 -0.0456177647 0.0073215258 0.0256433192
-0.2919162749 0.9501970956 0.4806487597 -0.0469933804 0.0066929227 0.0277410861
0.4919317556 1.3347265703 0.2466370027 -0.0455168817 0.0065770088 0.0264826615
-0.2452986171 0.0849818728 -0.3706379663 -0.0464639389 0.0081752554 0.0267808061
0.1187763537 0.7333467747 -0.3429808296 -0.0472042894 0.0084240479 0.0264180646
-0.0884751648 0.5738588284 -0.0881896535 -0.0480036937 0.0060796869 0.0251669226
0.0651484069 0.9021415166 -0.4625262237 -0.0470882498 0.0066476080 0.0245335406
0.1504504781 0.7131821707 -0.4313421172 -0.0471053304 0.0059351371 0.0247798080
-0.4407196900 0.0000000000 0.1715043089 -0.0467827964 0.0052671137 0.0261613672
-0.2937364191 0.7572928719 0.4284698141 -0.0456037938 0.0066002109 0.0261209653
-0.2693398891 0.8060310038 0.3936422050 -0.0469735608 0.0069239208 0.0245151518
-0.3893553542 0.1874214122 0.1287710690 -0.0468013094 0.0072014749 0.0276809774
-0.1141101349 0.2592049767 0.0396041920 -0.0465545340 0.0066840721 0.0276407731
0.3626948522 0.9679527858 0.2677249751 -0.0486502218 0.0070946615 0.0265205923
-0.3402964327 0.2069142444 0.0865276625 -0.0476896592 0.0069761213 0.0246774649
0.2876376214 0.6584340137 0.3372612906 -0.0470380549 0.0052183806 0.0264011930
0.4384750329 0.9603812279 0.1489993357 -0.0455394664 0.0063907179 0.0263132127
-0.0507073058 0.7410428913 -0.3739907835 -0.0473589573 0.0075127198 0.0275572892
0.4248841287 0.9807635467 0.2721097430 -0.0456301072 0.0066071898 0.0263173481
0.4401359018 1.0124120910 0.2501354607 -0.0455343314 0.0065932924 0.0258755308
-0.3054376725 0.0137984993 -0.3433993860 -0.0469757674 0.0055493912 0.0269274676
-0.0982008843 1.0497780299 -0.4134238396 -0.0472067475 0.0064615016 0.0276807961
0.2162954920 0.0635182529 -0.3886078320 -0.0474968466 0.0061571229 0.0250647167
0.0895056717 0.8530167030 0.3680316734 -0.0474059853 0.0067877692 0.0245655557
0.4784997004 1.2155352859 0.1944401370 -0.0454915237 0.0065761938 0.0263628588
0.0014275174 0.4240765713 -0.0427002987 -0.0463441983 0.0068793296 0.0247106396
-0.3006225104 0.1788646932 0.0994894229 -0.0464879331 0.0063765771 0.0274660913
-0.2573338193 1.0271991289 -0.4246036364 -0.0470642915 0.0069419536 0.0277635532
0.3606512131 0.8423067762 0.2984278456 -0.0482647323 0.0070083847 0.0272535850
0.3973943388 0.9400791559 -0.1895420855 -0.0455805183 0.0063379359 0.0259765249
-0.0857226105 0.3320957801 -0.0840979133 -0.0484665016 0.0071973101 0.0269088763
0.4432493995 1.4147709223 -0.2612679307 -0.0481749260 0.0080130763 0.0259045113
0.4771282201 1.2077294651 0.1550455605 -0.0454879600 0.0065761661 0.0263037170
-0.2206771713 0.7295498815 -0.4700470411 -0.0469290432 0.0066589836 0.0245241167
0.0618235772 0.6519624920 0.2149183182 -0.0470966888 0.0051954464 0.0261303140
-0.2972008596 0.7418080314 0.4087300203 -0.0455373366 0.0065980746 0.0258959923
0.0295660076 0.8950383818 -0.4645902752 -0.0470079621 0.0066518528 0.0245337758
0.4524924931 1.3851882734 -0.0065267976 -0.0469239229 0.0072174122 0.0261156376
-0.3641477292 0.6919005822 -0.2988360848 -0.0484826790 0.0076682157 0.0261619535
0.0243298081 0.6548574256 0.3391270647 -0.0470558492 0.0052030019 0.0262755188
0.4136676963 0.8092951253 0.1838937711 -0.0454819512 0.0065314148 0.0261060242
0.2128633753 0.7254590624 0.0557252237 -0.0470882122 0.0084281098 0.0258509438
0.2142048249 0.7740521005 0.4238925261 -0.0468344727 0.0065897205 0.0277123506
0.3700799477 1.0197097108 0.0276534978 -0.0486994073 0.0070809781 0.0261265233
-0.1162197543 1.0609708863 -0.4890892316 -0.0469714588 0.0062651776 0.0246958227
0.2910746738 0.6519624920 0.0618913737 -0.0472653880 0.0052250639 0.0259492463
0.4130031403 0.9576952859 -0.0065267976 -0.0456874803 0.0063950329 0.0255326612
0.3283454641 0.7544234074 -0.0792074874 -0.0486813794 0.0071419639 0.0261117161
-0.0191198225 0.2655505448 -0.0300039214 -0.0474336036 0.0067721210 0.0245501819
-0.0493435443 0.9247734511 0.3857144190 -0.0472347889 0.0067481105 0.0245395134
-0.0373371691 0.6519624920 0.1011618815 -0.0470502145 0.0051992356 0.0260588460
-0.1931657751 0.6557508629 0.3718056896 -0.0461236628 0.0058321260 0.0263006677
-0.1223896395 1.0916469910 0.4170203403 -0.0471980471 0.0078471243 0.0248692485
-0.1645520135 0.7254591130 -0.0347213918 -0.0468113114 0.0084214004 0.0260131278
0.0668057627 1.1092357067 -0.4771948848 -0.0469648098 0.0068952441 0.0245474919
0.4073068768 1.2526745402 -0.2011187573 -0.0487002631 0.0070695518 0.0261750016
0.4108803241 0.8077839329 0.0032011644 -0.0454955742 0.0064895267 0.0260093518
0.0524599361 0.6817971475 -0.4166112029 -0.0469761871 0.0057175269 0.0249630366
0.3349668387 0.7957122960 -0.0414191523 -0.0486987148 0.0070839816 0.0261012535
-0.0357131954 0.8767967225 -0.4680085109 -0.0469136807 0.0066574908 0.0245337758
-0.0401691144 0.6519624920 0.2648086329 -0.0470944741 0.0051946445 0.0261517309
0.0342885803 0.7080933940 -0.0058176553 -0.0469910628 0.0076594108 0.0258777880
0.1158870761 0.6519624920 0.1768439703 -0.0470946865 0.0051961994 0.0261123466
0.4151570569 0.8319641935 -0.0011964752 -0.0454977481 0.0064821803 0.0259955720
-0.2239101907 0.6519624920 0.2590849307 -0.0470643699 0.0051958907 0.0261359406
0.4083348390 0.9708301259 -0.2469383272 -0.0459649462 0.0066281510 0.0269927506
-0.0594027177 0.9636602022 0.3902878673 -0.0472920476 0.0064757714 0.0245986488
0.4148029227 1.0527999149 0.0926501963 -0.0455869239 0.0064149864 0.0258417240
0.4726287372 1.1799379767 0.0773541930 -0.0455067163 0.0064870980 0.0262096038
-0.0257430263 0.8061828755 -0.4613653796 -0.0469719864 0.0066645759 0.0245234079
-0.3188370054 0.7889838320 -0.4098016460 -0.0476178285 0.0070325128 0.0276650939
-0.1806245277 0.9158144625 -0.4824278063 -0.0468082556 0.0066531529 0.0245459305
-0.0087431700 0.7254591130 -0.1924878345 -0.0469843240 0.0084460821 0.0261139227
-0.1448525939 0.6519624920 -0.0554970104 -0.0470381170 0.0052031064 0.0260097078
-0.2798540325 0.2311199626 0.0670042328 -0.0476689968 0.0069555978 0.0246849468
-0.2077128434 0.7254590624 0.2523214039 -0.0470409621 0.0084470833 0.0260489566
0.3479035776 0.6728498204 0.0171696955 -0.0477379105 0.0056892535 0.0258985859
0.3755577500 0.8154334462 0.1152719768 -0.0474195576 0.0064792306 0.0257290979
-0.2991804505 0.7080137449 0.2902972484 -0.0463923418 0.0068801740 0.0268281395
0.4434813677 0.9911327956 0.1696995043 -0.0455420616 0.0063892496 0.0263668587
0.4426099630 1.3305644758 -0.3165541186 -0.0480232830 0.0069728646 0.0248120534
0.3840045017 0.8630427327 0.0345888138 -0.0467397454 0.0064351343 0.0254769393
0.3879881579 0.8854958304 0.1047724822 -0.0463256543 0.0064430229 0.0256807698
0.4706860056 1.4317347065 -0.1624126362 -0.0461906933 0.0077770821 0.0261635296
-0.0716869688 0.6519624920 -0.1748579983 -0.0470847220 0.0051989432 0.0260569334
-0.0261619355 0.3064623454 -0.0431503885 -0.0457304758 0.0069723975 0.0254836308
0.3281240108 0.7532450679 0.1547499409 -0.0486726252 0.0071962615 0.0261158548
0.4227411762 1.1014716548 0.1804233987 -0.0455143681 0.0064037300 0.0261004793
0.0863886495 0.7325644887 -0.3433968937 -0.0471934626 0.0084274630 0.0263955501
-0.0800029767 1.0440362100 -0.4632800992 -0.0470609630 0.0058101358 0.0258553928
0.4642499714 1.1307667099 -0.0711715031 -0.0454966391 0.0065155641 0.0259696701
0.1873320191 0.7254590624 0.0068569246 -0.0470374882 0.0084211848 0.0258297229
0.0756515584 0.2508607020 -0.1526845942 -0.0483488417 0.0068417337 0.0251833091
0.4178361719 1.3191175205 0.0491747799 -0.0487007874 0.0070740465 0.0261449954
0.4418116253 0.9822704027 0.1324130511 -0.0455339950 0.0064049256 0.0262819407
0.0240146434 1.0456204220 0.4182929579 -0.0471388481 0.0060326655 0.0254798122
-0.2406906141 0.6519624414 -0.3567164027 -0.0470912925 0.0051939700 0.0260876893
0.4901504143 1.2990820092 -0.2148243504 -0.0454920676 0.0065778483 0.0258918520
-0.2299623703 0.7254590624 0.0909508903 -0.0468666952 0.0084273062 0.0260163078
0.4885756735 1.3906536646 0.0854150045 -0.0455918808 0.0067322548 0.0262181392
-0.3098815054 0.6519624920 0.0984151742 -0.0470468026 0.0052005863 0.0260634338
0.3362174269 0.8048782329 -0.2156679440 -0.0486977871 0.0070898842 0.0261179601
0.0610125801 0.7388017980 0.3533083357 -0.0475034009 0.0076402951 0.0248653548
0.0886158373 0.7500033269 -0.3697850762 -0.0474836662 0.0073764245 0.0276030743
0.0878483158 1.0801924607 0.3913368397 -0.0472103358 0.0075371843 0.0246854629
-0.2660304856 0.6519624920 0.1277038808 -0.0470219412 0.0051998399 0.0260583397
-0.0989356197 0.9645081322 0.3936102307 -0.0472889101 0.0064325440 0.0246111432
0.3335686416 0.7867926314 0.1348000482 -0.0486978459 0.0070910847 0.0261317366
0.4227175005 0.8671613629 0.0753817231 -0.0454994842 0.0064837841 0.0260795949
-0.2129241847 0.6519625427 -0.3194259252 -0.0470881959 0.0051949924 0.0260805356
0.2835114897 0.6519624920 0.1228420076 -0.0472004709 0.0052111355 0.0260338098
0.3738153864 1.0409240108 0.1227458479 -0.0486995396 0.0070801010 0.0261445299
0.1318226466 0.2419178108 -0.1883762061 -0.0457854806 0.0068854723 0.0269930299
0.3620697214 0.7394103316 -0.1004241670 -0.0485004913 0.0066879837 0.0259347838
0.1448564565 1.0209962601 -0.4654964210 -0.0471518570 0.0066581768 0.0245558738
-0.0944638107 1.0243442184 -0.4107613234 -0.0472259350 0.0063476636 0.0276729728
0.2367977343 0.6594658647 -0.3758249084 -0.0470480325 0.0052251129 0.0258263682
0.4345910119 0.9429264898 -0.1650477512 -0.0455195668 0.0064641018 0.0258649947
0.1291236827 0.7254590117 0.0599380178 -0.0470548415 0.0084270498 0.0258663699
0.0247768061 0.4938267372 -0.0085746717 -0.0454679509 0.0069842158 0.0260827683
-0.3070813972 1.0572594728 0.4520053039 -0.0484487236 0.0074016469 0.0254541636
-0.1811563032 0.7254591130 -0.0875526473 -0.0468389625 0.0084284217 0.0260606556
0.2200602379 0.6746368944 0.3880633466 -0.0470440114 0.0055168633 0.0270282821
0.3903928857 0.8990498507 0.0083592059 -0.0462284738 0.0063958643 0.0253297600
-0.0202545213 0.6519624920 0.2156013790 -0.0470841258 0.0051959119 0.0261251023
0.0473064448 0.5773136506 -0.0881896535 -0.0465552069 0.0058367840 0.0253762507
0.3214226376 0.7254590117 0.0306120140 -0.0477975636 0.0076108671 0.0258659975
0.3681522192 0.6612318043 0.0211375418 -0.0460982183 0.0056146594 0.0258260448
-0.1165431425 0.7254591130 0.1612757553 -0.0470059075 0.0084369375 0.0259895273
0.2584447461 0.7254590624 -0.0372452820 -0.0470681852 0.0084256223 0.0258477687
0.0804750713 0.2523221241 -0.1170806425 -0.0458756772 0.0065916412 0.0271047430
0.4283264386 1.1966019047 -0.2379989018 -0.0463839550 0.0064553246 0.0273769776
0.4745738125 1.1987653922 -0.1096563325 -0.0454797381 0.0065931650 0.0259851387
-0.1623478906 0.7483827782 -0.3889793114 -0.0472460600 0.0072065723 0.0277045110
-0.0514314447 1.0991405951 -0.4310293027 -0.0471825279 0.0079746800 0.0272943707
-0.1412023263 0.9536489273 -0.4825356176 -0.0468005238 0.0066494928 0.0245494208
0.3437684499 0.8518604435 -0.0177419953 -0.0486990300 0.0070819531 0.0261010069
0.4274513443 0.9276904662 -0.2349881067 -0.0457714983 0.0064623297 0.0256574681
0.1665616972 0.8849151585 -0.4521759646 -0.0469759209 0.0066858442 0.0245334720
-0.1864547444 0.7254590624 -0.0182653595 -0.0467977146 0.0084183445 0.0259954201
-0.0955218510 0.7306735934 -0.4582929535 -0.0466015816 0.0063094029 0.0247705703
-0.0335490187 1.0445996363 -0.4524133177 -0.0470911848 0.0057178764 0.0262395299
-0.0157119139 0.6552255176 -0.3646186707 -0.0470615297 0.0052059646 0.0259795758
-0.0127399069 0.8286872117 -0.4622349404 -0.0469619010 0.0066623661 0.0245259656
0.1176290788 1.0782970282 0.3900573689 -0.0469416470 0.0075575266 0.0246927897
0.3545672961 0.7028364979 -0.2017502186 -0.0482124713 0.0064824808 0.0259274014
-0.0274874217 0.3475729198 0.0092908044 -0.0486243101 0.0069946719 0.0257945409
0.3878619055 1.1435768714 -0.2803494957 -0.0486258846 0.0070658574 0.0256758260
0.1984241166 0.6519624920 0.1782815812 -0.0471078995 0.0051956718 0.0261187947
0.2027746677 0.7021626699 -0.0062608347 -0.0471126376 0.0074070383 0.0258263469
0.2459334674 0.7372133492 0.4091446161 -0.0467166217 0.0062806135 0.0275635396
0.4167211815 0.9343612600 0.2389287004 -0.0457505403 0.0066338380 0.0255135602
0.4882242292 1.2834749537 -0.0649077268 -0.0454786210 0.0065773910 0.0260192379
-0.0951142440 0.6386420863 0.0078380221 -0.0478102850 0.0078005160 0.0262178027
-0.2542978165 0.0751269611 -0.3519755065 -0.0462521054 0.0077158137 0.0272040271
-0.0067549979 0.5652823356 0.0165887606 -0.0465487523 0.0059143474 0.0273289141
-0.2680590236 0.7254590624 0.0184852988 -0.0467712950 0.0084181502 0.0260127571
-0.2609186570 0.6993226122 0.4455390153 -0.0462224471 0.0060068371 0.0272162438
-0.2225942722 0.1926721786 -0.2706628731 -0.0483851523 0.0069487022 0.0269697657
-0.3404522928 0.7156175515 0.1515056569 -0.0478351889 0.0082691906 0.0262033223
0.2861230662 0.7254591130 -0.2222026661 -0.0470883494 0.0084580245 0.0261343106
-0.1203989326 0.6519624414 0.2054246241 -0.0470657909 0.0051967906 0.0261124805
0.3725582439 0.8574399748 -0.2401256051 -0.0462924077 0.0066747021 0.0273605568
-0.0658438183 0.7254590624 0.0664810173 -0.0469424342 0.0084259408 0.0259451354
-0.0346550702 0.7305683741 -0.3535697108 -0.0471647352 0.0084362793 0.0263320605
0.1873039826 0.7252481762 0.3654749743 -0.0476894403 0.0066193298 0.0261012584
0.3549429632 0.7107267516 -0.2941088948 -0.0462471485 0.0057376388 0.0266768884
0.4438822066 1.3450554467 -0.0246417194 -0.0462526558 0.0059287037 0.0258303451
-0.3719094880 0.6780197913 -0.4012075565 -0.0486846345 0.0071341096 0.0262481225
-0.2533197976 0.2320988291 0.0845092817 -0.0467065674 0.0070108574 0.0276672384
0.2503296746 0.6519624920 0.0944246583 -0.0472089377 0.0052153918 0.0260019743
0.4192596387 1.3262355082 0.1043756627 -0.0487017657 0.0070672048 0.0261411768
-0.1863774015 0.8180397391 -0.4011069234 -0.0470675858 0.0069242295 0.0277545621
0.4174307484 0.1101031443 0.1229810141 -0.0476730947 0.0073653036 0.0248032077
0.0980735556 0.7135085429 -0.4355334698 -0.0469999200 0.0059527616 0.0248106145
0.3670018901 1.0000737416 -0.0207993334 -0.0486995363 0.0070798364 0.0261138459
-0.0667556037 0.2842546984 -0.0186011964 -0.0456076597 0.0067866455 0.0268047447
-0.3314351603 0.6519624920 -0.3295056352 -0.0471259111 0.0051965276 0.0260953672
0.2104698370 0.7254590624 -0.0911875394 -0.0470400360 0.0084345709 0.0259537867
-0.2427576186 0.6519624920 -0.1334467951 -0.0470299997 0.0052001763 0.0260241213
0.4576046957 1.3299413376 -0.2131778589 -0.0455134943 0.0064452752 0.0260886595
-0.1379211193 0.6913815168 0.4253933505 -0.0466631505 0.0058237898 0.0272788335
-0.3405182339 0.7156655513 0.0564353558 -0.0478421466 0.0082640524 0.0262331537
-0.0464564782 0.7276926297 0.3168570894 -0.0470710042 0.0084571181 0.0260739356
-0.1836027133 0.7164382681 0.4475329364 -0.0465527472 0.0062368226 0.0275169395
-0.0913670001 0.6519624920 -0.2875598163 -0.0471103968 0.0051958204 0.0260864693
-0.1345834113 0.7254590624 0.1741553743 -0.0470077286 0.0084383225 0.0259999671
0.4499913689 1.2806452639 -0.0548525402 -0.0455743854 0.0063757785 0.0258634529
0.0538756711 0.5702996361 0.0652918150 -0.0462409797 0.0058885615 0.0270171678
0.4270328124 1.0870103912 0.2188626847 -0.0469687248 0.0067396567 0.0275477983
0.0876611805 0.7400589895 0.3524384254 -0.0475276809 0.0076121345 0.0248575119
0.4786883073 1.2258214968 -0.2020476314 -0.0454906924 0.0065766756 0.0259052120
-0.1812553178 1.0498375425 -0.4935933987 -0.0469694026 0.0061717520 0.0246829036
-0.3002413605 0.7130093640 -0.2497057393 -0.0465134347 0.0072037990 0.0254181290
0.0807553137 1.0329374586 -0.4724584489 -0.0472109417 0.0060891566 0.0248695081
0.4424306264 1.3444784627 0.0201101789 -0.0463344804 0.0057939600 0.0256354453
-0.2518231968 0.7254590624 0.2013042120 -0.0469632517 0.0084404686 0.0260532929
-0.0728424182 0.6519624920 0.0947938838 -0.0470429596 0.0051996243 0.0260528013
-0.0287540828 0.7172725407 -0.0056435076 -0.0469213064 0.0080598724 0.0259076145
0.1413771991 0.6576753037 0.3543842471 -0.0470503419 0.0052175117 0.0263868710
-0.1202254725 1.1004959274 0.4776980014 -0.0469530259 0.0068197435 0.0277226858
0.0127774408 0.8625728120 0.3752299830 -0.0472885541 0.0069295849 0.0245395330
0.2197743885 0.0881755226 -0.3750034699 -0.0476474493 0.0082359718 0.0267368714
-0.0513229311 0.8964637939 -0.3973151634 -0.0472058100 0.0069242409 0.0277441746
0.3910112385 0.6978992433 -0.0161317100 -0.0454865831 0.0065183896 0.0260271412
0.4023332871 1.2017153028 0.2197791233 -0.0486830911 0.0069038464 0.0259228169
0.0761534158 0.6538156574 -0.3279461719 -0.0470580770 0.0051959870 0.0260528830
-0.0057496138 0.2696245414 0.0425374467 -0.0458515328 0.0064945277 0.0260072269
-0.0777052436 0.6538793071 0.3451931384 -0.0470635419 0.0051995916 0.0262452480
0.4502135703 1.0418695327 -0.0517594729 -0.0455013706 0.0064902045 0.0259599245
0.4831571356 1.4056686840 -0.0322780735 -0.0455663922 0.0071388199 0.0262069089
-0.0648799288 0.9840002556 -0.4793926641 -0.0469816242 0.0066377742 0.0245511618
0.1246854469 0.7148750891 0.4199296547 -0.0470346234 0.0059186886 0.0274557757
-0.3247393206 0.6519624920 0.0620910475 -0.0470922921 0.0052012069 0.0260777575
-0.2822156210 0.1470679046 -0.3951548657 -0.0461116339 0.0068173900 0.0249403098
0.3088624886 0.7327254821 -0.3765675945 -0.0467934093 0.0082969200 0.0255351127
-0.0378042627 0.2483694966 -0.0147337676 -0.0485519324 0.0066536837 0.0254898208
0.4243048516 1.3341950447 -0.2942723806 -0.0485015872 0.0070433936 0.0253530078
0.4043921041 1.0999988930 0.2172374273 -0.0464710583 0.0066057362 0.0247683654
0.3852728582 1.1095354633 0.1307894890 -0.0486997666 0.0070801075 0.0261491341
0.4136832972 1.2973117839 -0.2054836631 -0.0487019781 0.0070611324 0.0261619666
0.4659153775 0.0654459700 0.1502049146 -0.0456560091 0.0074284829 0.0266022584
0.4445176057 1.0057949269 -0.0886903775 -0.0455075852 0.0064806189 0.0259280384
0.4826011357 1.3576144998 -0.0771877592 -0.0455137801 0.0063975416 0.0261696968
0.4964014805 1.3682195061 -0.0055769067 -0.0455271581 0.0064675920 0.0262282115
0.4189515084 0.8391389009 0.1626312623 -0.0454857828 0.0065169311 0.0260808296
0.3871849874 0.7514827672 -0.0065267976 -0.0457521115 0.0060903913 0.0256640273
-0.1536699921 0.9925813346 0.4747330371 -0.0468129251 0.0066427981 0.0277189016
0.4244956520 1.1155604917 0.0911212978 -0.0455473436 0.0064125235 0.0259423833
0.2264019695 0.6519624920 0.0947654668 -0.0471943886 0.0052138581 0.0260073869
0.0264878683 1.0268713604 -0.4016679570 -0.0472250138 0.0064747620 0.0277136066
-0.0006160826 0.0353102398 0.4838098064 -0.0466849757 0.0073061716 0.0250209013
0.3597896259 0.6864382828 -0.0065267976 -0.0473907127 0.0059739858 0.0255548784
0.3365643585 0.8029237876 -0.2518997051 -0.0487002452 0.0070492684 0.0262052609
-0.3002413605 0.7069987916 -0.1493922974 -0.0466712025 0.0075107207 0.0257021279
-0.3501330095 0.6519624920 0.3325227119 -0.0470980297 0.0051936172 0.0261548521
-0.0360402519 1.0915328508 -0.4842866538 -0.0469645502 0.0066968883 0.0245740634
-0.0734467625 1.0442769521 0.4448131011 -0.0470742609 0.0058143725 0.0262214465
-0.2609499829 0.8051382638 0.4668472683 -0.0468385754 0.0066644550 0.0277409946
0.0077384131 0.6732736360 -0.0057136805 -0.0470928686 0.0061449225 0.0258952524
0.4394457266 0.0762375449 0.1750434154 -0.0460785376 0.0079896913 0.0266612467
-0.2202522958 0.6519625427 -0.3404257997 -0.0470920487 0.0051944126 0.0260855873
-0.1574312232 0.2700641832 -0.1820906357 -0.0484621473 0.0071884301 0.0269029018
0.4100757082 0.9156512756 -0.0065267976 -0.0456750136 0.0064083277 0.0255594090
-0.1115026823 0.7649972626 -0.3904718863 -0.0471644968 0.0069253695 0.0277474264
-0.2519894852 0.8757843105 0.3984111639 -0.0469789735 0.0069231303 0.0245156369
-0.2585807442 0.9781569549 -0.4475332353 -0.0468561280 0.0068196292 0.0265908697
0.4555615302 1.3155039000 0.0371617377 -0.0455347332 0.0063515246 0.0259775506
-0.3737379308 0.7148363613 -0.4670637353 -0.0479452394 0.0063914953 0.0253237806
-0.2331006135 0.7254590117 0.3168532529 -0.0470897377 0.0084546584 0.0260755689
0.0247768061 0.4452414750 -0.0011908813 -0.0454685797 0.0068754343 0.0262535727
0.2570214524 0.6519625427 -0.1758413023 -0.0471946973 0.0052035196 0.0260720639
-0.2578598637 0.0394346910 -0.4030066921 -0.0456901866 0.0069405849 0.0258067152
-0.3183727929 0.6852325798 0.4383240840 -0.0466322640 0.0058659262 0.0272770435
0.4491606845 1.4206894867 0.0405137382 -0.0481341419 0.0080697764 0.0262514642
-0.2257468325 0.6519624414 -0.1815375642 -0.0470474086 0.0051988305 0.0260398545
0.3732420919 0.7077935884 -0.0065267976 -0.0460121914 0.0057599393 0.0256430350
0.2039938288 0.7516214307 -0.3651102468 -0.0468629452 0.0076181808 0.0275165574
0.4740209533 1.1976594746 -0.2367099598 -0.0455014752 0.0065780263 0.0259365934
0.4235318866 1.1093199420 0.0698689968 -0.0455832181 0.0064009110 0.0258439469
0.0206207547 0.4214590383 -0.0246384480 -0.0456931167 0.0068494345 0.0253135287
-0.0014878156 0.1736340272 0.4311806273 -0.0455352330 0.0072480880 0.0263618380
0.4244761623 1.0080171300 -0.2523588594 -0.0457948571 0.0065953242 0.0268267610
0.0402654717 0.7254590117 0.0213208471 -0.0469621852 0.0084215016 0.0258915841
-0.1835976535 0.7708810355 0.3833863237 -0.0470803187 0.0069265422 0.0245233622
0.2202725694 0.8374585423 -0.4137260379 -0.0456266072 0.0071493756 0.0267914451
0.0577346510 0.6519624920 -0.0827013233 -0.0471403556 0.0052101310 0.0259999605
0.3961813090 1.1853502347 0.0632424530 -0.0486998385 0.0070797776 0.0261513063
0.4558645256 1.0749051092 0.0529050068 -0.0455086615 0.0064695911 0.0261289437
0.4536341480 1.0666035491 -0.2152218982 -0.0454913620 0.0065741833 0.0258996034
0.3388948711 0.8207701922 -0.0060154918 -0.0486989304 0.0070821703 0.0260972145
-0.2665219130 0.0952838397 -0.3997431684 -0.0471312551 0.0084204743 0.0259009051
0.1203107710 1.0181410507 0.4261019440 -0.0478412728 0.0066157056 0.0270755845
0.4750811152 1.4291006008 -0.2031758789 -0.0456210639 0.0075317783 0.0261478814
0.4409084700 1.0846254014 -0.2351085773 -0.0462125480 0.0064363348 0.0252879143
