0.4166666736 0.2393122301 0.3925880715 0.4392953592 0.0102190616 0.4321909432
0.0035539580 0.9270851519 0.3052565787 0.4580833368 -0.0104123533 0.4375857760
0.4519317540 0.9479184835 0.0487432876 0.4581918368 0.0312454141 0.4375043802
0.1444075088 0.9270851519 0.0128461031 0.4581573368 -0.0104132908 0.4374907760
-0.1167589278 0.9479184835 0.2165149195 0.4583320868 0.0312516016 0.4375933594
-0.2157496904 0.9479184835 -0.0819555140 0.4582461910 0.0312513307 0.4374725469
-0.2535459372 0.4259476103 -0.3333332639 0.4665565445 0.0095995825 0.4216452357
-0.0928527006 0.2908469966 -0.3340733055 0.4558264412 0.0104185616 0.4168180486
-0.3871356761 1.4982827710 0.1903016091 0.4419107132 0.0229971439 0.4377784844
-0.2765666020 0.2135257530 -0.3333332639 0.4625034198 0.0105604366 0.4208827149
0.4444897546 0.9044686121 -0.3541665955 0.4443741088 0.0132692072 0.4362949011
-0.1374595510 0.8636526155 -0.2904470175 0.4605213991 0.0104185616 0.4582046076
0.2356825637 0.9479184835 -0.3808767808 0.4576124827 0.0312325807 0.4375000052
0.3688128859 0.9270851519 -0.3457887212 0.4571213161 -0.0103679158 0.4375191510
-0.3165495570 0.7806661224 0.3105726825 0.4449598171 0.0089684993 0.4310458391
0.5000000000 0.9426111298 -0.1337966347 0.4791666684 0.0104185616 0.4375000052
0.0370550594 0.2836403097 0.3695555109 0.4559448578 0.0109247283 0.4581816493
-0.0908595549 0.9479184002 0.3044275580 0.4579376493 0.0312356432 0.4375550469
0.0847768263 0.9270851519 -0.1918328798 0.4581694618 -0.0104125825 0.4375004844
0.3376155135 0.9479185668 -0.3920100507 0.4574580244 0.0312284557 0.4375000052
-0.3124999323 1.2227108148 -0.1687134443 0.4787267934 0.0117414365 0.4414495674
-0.0953045129 0.9270851519 -0.2056512329 0.4581107952 -0.0104109783 0.4372912969
0.4791666684 0.8412876799 -0.2679426860 0.4786764809 0.0113469574 0.4365997136
-0.0936515547 0.9270851519 0.0749053479 0.4582490451 -0.0104139158 0.4375073802
-0.2724515815 0.9270851519 -0.0576544535 0.4583179201 -0.0104142700 0.4374435260
-0.1179017193 0.9479184835 -0.1125049073 0.4582473576 0.0312513724 0.4374592760
0.5000000000 0.5762578061 -0.3716430732 0.4785467518 0.0105356033 0.4398474008
0.3897443842 0.2961515587 0.3842813846 0.4614311699 0.0249736854 0.4229448814
-0.2453483129 0.7579936243 -0.2950779754 0.4713131066 0.0121069573 0.4404608591
0.4791666684 0.8791449059 -0.2849907263 0.4781417102 0.0150429779 0.4365725678
-0.3124999323 1.1560899870 0.1697856942 0.4783745435 0.0126771448 0.4325451931
0.2495666459 0.9479184835 0.2633476864 0.4575533369 0.0312161224 0.4375227344
0.0268243936 0.9479184835 -0.2138499613 0.4583236285 0.0312516432 0.4375000052
-0.2343713555 0.6895160050 0.2916666840 0.4685460443 0.0117462490 0.4200650692
-0.4157655279 1.6770850894 0.2234395439 0.4583333368 -0.0104147700 0.4375000052
0.4791666684 0.7844452888 0.3679584068 0.4770939811 0.0108702908 0.4325310890
0.0571018077 0.8020850790 0.3576636369 0.4583333368 -0.0104147700 0.4375000052
-0.3294342434 1.4932073131 -0.3022717040 0.4754538979 0.0132955197 0.4379799218
-0.3056468287 1.2192225859 -0.3333331806 0.4581165243 0.0102607283 0.4177723402
-0.3082201618 0.9270851519 0.0647894946 0.4583316910 -0.0104144366 0.4374941927
-0.4583332535 2.0480206627 -0.1597372992 0.4786260018 0.0104985408 0.4417669840
0.2611598741 0.2836482889 0.3959207795 0.4559781495 0.0112931657 0.4581751077
0.4412004632 0.9270851519 0.3016909957 0.4579068160 -0.0104100616 0.4374929219
-0.1324069056 0.9270851519 0.3660703237 0.4577641910 -0.0104068533 0.4374995885
-0.2291666059 0.5464749545 -0.2849391429 0.4703254608 0.0100546658 0.4470528586
-0.2708332691 0.8151619529 -0.2138760655 0.4791172934 0.0104185616 0.4364357345
0.0201418733 0.2256031895 0.3258990562 0.4607675241 0.0104185616 0.4168093611
0.4166666736 0.5759265978 -0.4005729458 0.4381921718 0.0105369158 0.4348183179
-0.2841418722 0.8020851623 0.2050080037 0.4583333368 -0.0104147700 0.4375000052
0.5000000000 0.4424959423 -0.3717327190 0.4780824602 0.0104098950 0.4410122549
0.4375000052 0.8347657429 0.3428544298 0.4380497343 0.0113318741 0.4386542759
0.4298972350 0.8316498682 -0.3826027806 0.4600318992 0.0104408325 0.4429443173
0.0896588050 0.8644964696 0.3770293644 0.4556006079 0.0103903950 0.4581305035
-0.3412375549 0.0007709583 0.3541666788 0.4498539000 -0.0029264998 0.4472562127
0.1126625948 0.9479185668 0.1783874851 0.4581705035 0.0312458099 0.4375361927
-0.2916666007 1.1410146341 -0.2312225641 0.4768115644 0.0104185616 0.4320729015
0.4197123817 0.5736327439 -0.3541665955 0.4427665256 0.0104450200 0.4484627126
-0.2399754800 0.8354317429 0.3370736802 0.4546923163 0.0100948950 0.4580050243
0.0809171599 0.9270851519 -0.2788536643 0.4578880452 -0.0103992700 0.4375061719
-0.4627566281 1.9163822986 0.3273765352 0.4467342128 0.0088780201 0.4414666507
-0.3470273877 1.3181479318 0.3541666788 0.4551352537 0.0100476658 0.4557448579
0.5000000000 0.0304727891 -0.3765860520 0.4768876061 0.0100173117 0.4435034422
-0.2708332691 0.0842169513 0.3448902629 0.4728993564 0.0073573119 0.4482684835
0.0865730345 0.9270851519 0.3689571568 0.4579525243 -0.0104102283 0.4375421927
-0.1125155531 0.8586827826 -0.2941153088 0.4605881491 0.0104185616 0.4581956285
0.2535796455 0.9479184835 -0.2689846443 0.4578969202 0.0312402057 0.4375000052
0.4438909213 0.2487483751 -0.3541665955 0.4583333368 0.0095131867 0.4582477743
-0.2522831040 0.9801677725 -0.2731157272 0.4711663774 0.0114082490 0.4526870664
0.5000000000 0.9404254633 0.2448574379 0.4791666684 0.0104185616 0.4375000052
-0.2046782329 0.9270851519 -0.2305426683 0.4582918160 -0.0104139991 0.4373726927
0.2703414566 0.9479184835 0.1749393813 0.4579214618 0.0312334141 0.4375211510
0.5000000000 0.6444081963 0.3942634255 0.4776459810 0.0105694991 0.4330694639
0.3522718040 0.9224821731 -0.3649730738 0.4608623574 0.0176266444 0.4564741286
-0.3298530767 0.2986528501 0.2955759754 0.4454504420 0.0115947490 0.4231896314
-0.1454336545 0.9479184835 0.2422321048 0.4583003160 0.0312516432 0.4375783385
0.0481039335 0.2400393133 -0.3511590332 0.4558264412 0.0104185616 0.4168180486
0.2129208573 0.9479184835 -0.0405671216 0.4582963993 0.0312516641 0.4374858594
-0.1922433590 0.8814475515 0.3032240164 0.4603747741 0.0104185616 0.4167756319
-0.4519378373 1.7348367304 -0.1726958606 0.4382721301 0.0054032704 0.4349672971
-0.4419715465 1.6949715671 0.1798633600 0.4382836718 0.0054061454 0.4401241300
-0.1553428412 0.9479184002 -0.0321535598 0.4582645660 0.0312513932 0.4374923385
0.1239046147 0.9479184835 0.2257264604 0.4579358160 0.0312346849 0.4375349010
0.4149121321 0.9270851519 -0.1419512590 0.4577103785 -0.0103964158 0.4375069427
-0.4185454860 1.8178838068 -0.2708332691 0.4563100870 0.0101566658 0.4560651912
0.4649425863 0.3847576763 0.3541666788 0.4605777741 0.0100500617 0.4177307569
-0.3055439954 0.2024360665 0.2916666840 0.4536745247 0.0114044990 0.4210925482
0.0010207082 0.9270851519 -0.1029536164 0.4582125660 -0.0104135825 0.4374355260
-0.1935774005 0.2826507056 0.3021544540 0.4586887326 0.0251301021 0.4227884648
0.0829684723 0.9270851519 0.3077171619 0.4580498785 -0.0104119158 0.4375687344
0.0815175765 0.9479184835 -0.0520069957 0.4582813368 0.0312515599 0.4374822760
-0.4999999167 1.9692377942 0.0389446843 0.4375000052 0.0104185616 0.4375000052
0.4791666684 0.8221059732 -0.2012951916 0.4789952518 0.0090109992 0.4368062136
0.1743565480 0.9479184835 -0.0058294162 0.4583017743 0.0312516641 0.4375003385
0.4375000052 0.5717966815 -0.4258108187 0.4406879008 0.0099945200 0.4307685266
0.5000000000 0.6685868193 -0.3801790933 0.4784467935 0.0106123324 0.4369828178
-0.1327429056 0.8020851623 0.3478060127 0.4583333368 -0.0104147700 0.4375000052
0.4305689433 0.9479184835 0.1161533653 0.4579204202 0.0312327057 0.4375061094
-0.1089461159 0.8785664893 0.3529560331 0.4550529829 0.0103603950 0.4580570660
0.4166666736 0.5797959725 0.3752981562 0.4389907343 0.0105589991 0.4310671724
-0.3841839680 1.4421609423 -0.2287531059 0.4388011926 0.0071826452 0.4310281724
0.4375000052 0.8849544471 -0.0603634741 0.4379290677 0.0128314781 0.4372754427
-0.3958332587 1.4869111678 0.2422760631 0.4386151301 0.0074251244 0.4432896714
-0.3840963847 1.2829719764 0.2924981006 0.4457490879 0.0086413326 0.4213049857
-0.2808418516 1.1266418019 0.2916666840 0.4613984199 0.0107288949 0.4178016527
0.2567216036 0.9270851519 -0.2190023359 0.4577540244 -0.0103958533 0.4375074010
-0.3529683873 1.0472922877 0.3510573874 0.4404355466 0.0081165827 0.4457271504
0.4140462988 0.9479184835 0.3947183213 0.4566782953 0.0311741641 0.4375064219
-0.4450428587 1.9751114604 0.3541666788 0.4583785035 0.0105512491 0.4541078580
-0.2979572668 1.2096060659 0.2548071871 0.4785084601 0.0129883531 0.4351748179
0.4071793202 0.9479184835 0.0116786657 0.4583277743 0.0312518307 0.4375055260
0.0266522269 0.8751064896 -0.3145811613 0.4609605866 0.0104035408 0.4581453993
-0.4263490061 1.7364495636 -0.0223018315 0.4787768976 0.0134483947 0.4393186717
0.4593207326 0.6498572583 -0.3541665955 0.4583333368 0.0111638532 0.4582477743
-0.0449486838 0.2575318327 0.3182413485 0.4607675241 0.0104185616 0.4168093611
0.0670310152 0.9270851519 -0.1382115926 0.4581871493 -0.0104133950 0.4374232344
0.4166666736 0.7659607695 0.4078220493 0.4389113384 0.0106958324 0.4405127341
-0.4026146748 1.6862534011 0.2916666840 0.4509555249 0.0093947701 0.4200727150
-0.2181851277 0.8998935083 0.2994090584 0.4603053575 0.0104185616 0.4167662778
0.2373508969 0.1979185460 0.3884115926 0.4596514825 -0.0101930825 0.4375000052
-0.2637871239 0.6105356783 0.3541666788 0.4602824200 0.0104185616 0.4545476913
-0.4255893187 1.7812517474 0.1073658661 0.4536857955 0.0299342267 0.4379225052
-0.2927557673 0.3146193071 -0.3333332639 0.4584749826 0.0103245825 0.4213775066
-0.2848790596 0.8020851623 -0.2545317080 0.4583333368 -0.0104147700 0.4375000052
-0.2565661453 0.7818849140 0.3541666788 0.4693541901 0.0120193323 0.4531130456
0.4375000052 0.8028264123 -0.1966620044 0.4387021718 0.0040202080 0.4368865886
0.4463179628 0.0338947472 -0.4374999219 0.4480562752 0.0090586867 0.4215102357
-0.3453332629 1.0167517486 -0.3325258890 0.4460891295 0.0090183742 0.4211498191
-0.1122976365 0.2081741285 -0.3000622667 0.4588933784 -0.0004198750 0.4549952954
-0.3494784084 1.4851141262 -0.2075878994 0.4782105643 0.0131994572 0.4430758172
-0.0417930590 0.9479185668 0.3279297227 0.4577481285 0.0312265182 0.4375502552
-0.3218610357 0.9270851519 0.2082790035 0.4583333368 -0.0104098325 0.4377249010
0.5000000000 0.9277496935 0.1191662192 0.4791666684 0.0104185616 0.4375000052
-0.1046741996 0.3020852040 -0.3120893698 0.4567209619 0.0310167891 0.4375000052
0.3718232607 0.9270851519 0.1019014498 0.4580261077 -0.0104122075 0.4375206510
-0.1176803444 0.9270851519 0.1920271298 0.4582582951 -0.0104140408 0.4375562760
-0.4271216311 1.7320499390 -0.2708332691 0.4508827124 0.0094059159 0.4559585037
-0.3782868435 1.5071314369 0.2754204562 0.4470756919 0.0274708102 0.4375754427
-0.1759263603 0.9479184835 -0.1300574475 0.4582374826 0.0312513099 0.4374526094
0.3057377245 0.9479184835 -0.1575893827 0.4581383368 0.0312466641 0.4375000052
-0.1580781327 0.2238259397 0.3049319954 0.4607675241 0.0104185616 0.4168093611
0.4684114610 0.8020851623 0.3001070583 0.4676767319 -0.0040739997 0.4380496093
-0.1418911132 0.8473599711 -0.3281293060 0.4549623579 0.0105756450 0.4169564028
0.4551050246 0.6231435731 0.3541666788 0.4584326493 0.0109901866 0.4178608818
-0.3333332639 0.8673806152 -0.2915323715 0.4447555671 0.0092362284 0.4428029006
0.4479291710 0.9479184835 -0.3310893474 0.4574905660 0.0312293307 0.4375000052
0.1143973655 0.8407400341 -0.3591945951 0.4556688370 0.0104172075 0.4168605069
0.5000000000 0.8306229099 -0.3643532613 0.4786924601 0.0107829991 0.4393384009
-0.4377300052 1.7340469388 0.2363541053 0.4385262135 0.0076751244 0.4428494631
-0.0128862906 0.9479184835 -0.2297119392 0.4583285035 0.0312517682 0.4375000052
-0.1721519857 0.8020851623 -0.2946001004 0.4583333368 -0.0104147700 0.4375000052
-0.1714344232 0.9270851519 0.0342255805 0.4582790035 -0.0104140825 0.4374868385
-0.4791665851 1.9597003992 0.2328066473 0.4383529843 0.0086899368 0.4425638590
0.4166666736 0.6009707624 -0.3550676579 0.4398125050 0.0105072700 0.4459458795
0.3932516756 0.9270851519 0.0482789335 0.4580418160 -0.0104125616 0.4375195677
0.2934242255 0.9270851519 -0.1138747405 0.4580333785 -0.0104096241 0.4375014844
-0.2454326254 0.9479184835 0.3673550319 0.4583333368 0.0312518932 0.4375000052
0.4166666736 0.0963413461 -0.3915256757 0.4394082342 0.0100759783 0.4327329639
0.4622971906 0.9479184835 0.2068312953 0.4574537744 0.0312105599 0.4375026719
-0.3771768436 1.5258339353 0.3541666788 0.4554150454 0.0100591658 0.4559538995
0.4166666736 0.4643385655 -0.4119352573 0.4391675467 0.0104453950 0.4311055682
0.3162826195 0.3006783083 0.4024057998 0.4559062537 0.0104972075 0.4581892535
-0.3067474536 0.2336049180 -0.2708332691 0.4537413580 0.0111735199 0.4540854830
-0.3333332639 1.4618903990 0.2688219568 0.4777722727 0.0125676656 0.4387015884
0.1886723384 0.9479184835 0.3809802183 0.4570883161 0.0311947266 0.4375262344
0.2656617070 0.2698653525 -0.3775296352 0.4558264412 0.0104185616 0.4168180486
-0.4227813814 1.7604184158 -0.0415356007 0.4726593356 0.0189209984 0.4398876717
-0.3691621776 1.1677647152 0.2978505585 0.4453986504 0.0085969785 0.4233552356
0.4375000052 0.8269459311 -0.3071208077 0.4385978385 0.0054062079 0.4365007970
-0.3249975146 1.1381543218 0.1222060940 0.4783988976 0.0127950198 0.4327471098
-0.1348746971 0.8494057625 0.3498131792 0.4549818163 0.0102094991 0.4580456285
0.3746928854 0.8908277383 -0.3657635945 0.4618919823 0.0103237491 0.4580196702
0.1774584227 0.2619009782 -0.3367585344 0.4613644616 0.0104185616 0.4581116493
0.3468710336 0.9479184835 -0.2101823992 0.4579443785 0.0312414766 0.4375000052
-0.1675477985 0.8309339724 -0.2860222887 0.4604408783 0.0104185616 0.4582154618
-0.3948997796 1.4062517786 0.0910061591 0.4583333368 -0.0104147700 0.4375000052
-0.3229614106 1.3613210116 -0.3333332639 0.4641084197 0.0114183324 0.4228867564
0.4721276898 0.8970043627 -0.3541665955 0.4710113774 0.0163192070 0.4363429428
-0.2831053097 1.2268160644 0.3107751199 0.4744280230 0.0130713947 0.4355153179
0.3841089055 0.9479184835 0.4084071535 0.4566661703 0.0311737266 0.4375092135
0.3451092837 0.3020295998 -0.3871596761 0.4558264412 0.0104185616 0.4168180486
0.1216240940 0.2457336254 0.3378381385 0.4607675241 0.0104185616 0.4168093611
-0.1973567544 0.9479185668 0.0455290795 0.4582806701 0.0312514349 0.4375243385
-0.3749999271 1.4115399032 -0.2486164793 0.4411591924 0.0085808118 0.4270593602
0.0739572855 0.2429867506 0.3751261354 0.4558632953 0.0104836241 0.4581830035
0.4166666736 0.4637760655 0.4033350914 0.4379559427 0.0104172908 0.4367572969
-0.3949515088 1.6306546558 -0.3333332639 0.4511354207 0.0094089992 0.4199698400
0.0964925128 0.9479184835 0.3599451367 0.4573700036 0.0312081016 0.4375369010
0.4176701319 0.9204170691 -0.3541665955 0.4418368382 0.0109034158 0.4494932334
0.3347207013 0.8144054321 0.4067338203 0.4562763370 0.0102568325 0.4582215451
-0.0152004987 0.2275437310 -0.3434857630 0.4558264412 0.0104185616 0.4168180486
0.5000000000 0.8206520774 0.4105640283 0.4778662518 0.0107540616 0.4354128179
0.1932388381 0.9479184835 -0.1854657554 0.4581988785 0.0312482891 0.4375000052
0.0569455578 0.9479184835 0.3398657425 0.4575279410 0.0312157266 0.4375407760
-0.2114982115 0.9479184835 -0.3048634746 0.4583081076 0.0312517682 0.4374810677
-0.4937687714 2.1334671764 0.3268341603 0.4471014836 0.0089017909 0.4413949007
0.4791666684 0.8629607406 0.2286720434 0.4786988143 0.0094192909 0.4382666301
-0.1525348623 0.9270851519 0.2662498736 0.4581646493 -0.0104135200 0.4376215260
0.2032161289 0.9479184835 0.3581518452 0.4571989827 0.0311996016 0.4375267135
-0.4999999167 1.9576757535 0.0794403475 0.4376020677 0.0099244992 0.4384881301
0.4791666684 0.8619798865 -0.2558887912 0.4784258143 0.0131964781 0.4366558803
0.4791666684 0.2280627935 -0.4274513810 0.4732828981 0.0102229575 0.4283674435
-0.1836296930 0.9479184002 0.2446879379 0.4583331493 0.0312515807 0.4376054010
-0.4583332535 1.7450381879 0.1200362817 0.4377647552 0.0087222909 0.4392350259
-0.4374999219 1.7802557891 -0.0410508716 0.4785390643 0.0104185616 0.4425288590
-0.0453575796 0.8234014522 -0.3039914122 0.4607678783 0.0104185616 0.4581713993
0.4740110647 0.5633908281 -0.3541665955 0.4583333368 0.0108080199 0.4582477743
-0.3541665955 0.0479421210 0.3159924737 0.4467945878 0.0043052705 0.4301558600
0.4768292519 0.4729192939 0.4375000052 0.4583333368 0.0104357075 0.4582477743
-0.3124999323 0.8472837627 0.0656536404 0.4375493802 0.0104185616 0.4377621094
-0.2499999375 0.3513265749 0.3362501386 0.4719597940 0.0097941450 0.4439378380
0.3601427408 0.2328505639 0.4098152992 0.4558945453 0.0099488325 0.4581781910
-0.4619111907 1.9622301906 -0.0633914322 0.4787758143 0.0132218739 0.4394251509
0.2523350415 0.9270850686 -0.3263098478 0.4574062952 -0.0103794158 0.4375144219
0.4059267787 0.9479184835 -0.2834740597 0.4576719619 0.0312341849 0.4375000052
0.4056115287 0.9479184835 -0.1668654444 0.4579914827 0.0312427474 0.4375000052
-0.3749999271 1.1420484048 0.0551856829 0.4377095052 0.0092379784 0.4398611925
-0.4214970274 1.7258572520 0.2820058307 0.4443041713 0.0096641659 0.4518775040
0.4776057519 0.4896254800 -0.3541665955 0.4583333368 0.0105044575 0.4582477743
-0.2499999375 0.2252200437 0.3184164318 0.4704824816 0.0097166034 0.4348576304
-0.3333332639 0.2699154775 -0.3130722864 0.4456098170 0.0115609157 0.4316059849
0.0498832875 0.9270852352 -0.3609868033 0.4576742535 -0.0103886866 0.4375107344
0.3683557401 0.9479184835 0.1726253189 0.4577674410 0.0312257474 0.4375117969
0.1050129704 0.8020851623 -0.3536215747 0.4583333368 -0.0104147700 0.4375000052
0.3738952397 0.2275295019 -0.3906488424 0.4558264412 0.0104185616 0.4168180486
-0.3333333472 0.9318880057 -0.0646360154 0.4375000052 0.0104185616 0.4375000052
-0.0716053482 0.2809207058 0.3574821785 0.4558490662 0.0111246866 0.4581716285
-0.3124999323 0.8451783671 -0.1791992351 0.4375493802 0.0104185616 0.4366002761
-0.4059548412 1.4062517786 0.0356143720 0.4583333368 -0.0104147700 0.4375000052
0.4348457763 0.3967002169 0.4375000052 0.4561252745 0.0108856033 0.4570879827
-0.4583332535 1.7537455622 -0.1129978864 0.4379014843 0.0076999160 0.4351611096
0.4756020854 0.7962651211 -0.3541665955 0.4583333368 0.0117663740 0.4582477743
0.2661170403 0.9479184835 0.0488603501 0.4583243160 0.0312517682 0.4375218594
-0.3066763911 0.8492991792 -0.2916666007 0.4433590881 0.0104185616 0.4360666303
0.4246106729 0.9479184835 -0.1800866308 0.4579321910 0.0312411432 0.4375000052
-0.3014294332 1.0381977468 -0.2708332691 0.4575241494 0.0101864783 0.4508361708
0.5000000000 0.8166623069 -0.3991684876 0.4769513769 0.0107292074 0.4311186516
-0.0590975159 0.2575403119 -0.3019708915 0.4613644616 0.0104185616 0.4581116493
0.1529651748 0.9479185668 0.2104453366 0.4579566910 0.0312355599 0.4375321927
0.3269457436 0.9479184835 -0.0190991026 0.4583124410 0.0312517474 0.4374936510
0.1028116581 0.9479184835 -0.2204406066 0.4582131701 0.0312486849 0.4375000052
0.1927261923 0.9479184835 -0.2401317925 0.4580498993 0.0312443099 0.4375000052
0.1006866999 0.3020852040 -0.3457417629 0.4585854618 0.0310167891 0.4375000052
0.3784328643 0.9479184835 0.3325120348 0.4570216702 0.0311905182 0.4375101094
-0.2854298929 1.0552845579 -0.2708332691 0.4643168155 0.0112088741 0.4525791706
0.0212314149 0.9270851519 -0.3632260947 0.4577210244 -0.0103904158 0.4375100260
0.4931563547 0.9479184002 0.2217316690 0.4576896910 0.0312215599 0.4375000052
-0.4326885473 2.0079928743 0.2767585603 0.4782934601 0.0128503948 0.4392764426
-0.0662728486 0.9479184835 0.0273337061 0.4582880868 0.0312514974 0.4375158385
0.2174992527 0.9270851519 0.2159159612 0.4580369618 -0.0104119991 0.4375460677
0.0458168503 0.2736466022 0.3289196393 0.4607675241 0.0104185616 0.4168093611
-0.4583332535 2.1544357580 0.3523318040 0.4774603769 0.0117694157 0.4435137755
-0.4251426937 2.0435312464 0.3198489733 0.4758066062 0.0134476864 0.4340599222
-0.4490494001 1.8204318691 0.3468715336 0.4481984627 0.0090423534 0.4519829623
0.5000000000 0.2859595595 -0.3688763859 0.4773868352 0.0102662283 0.4430851297
-0.3139580155 1.4042191746 -0.3036547664 0.4747427938 0.0131521031 0.4383480676
0.4052114454 0.2716553315 0.3712013649 0.4607675241 0.0104185616 0.4168093611
-0.4870763552 2.0108898324 -0.2031662747 0.4383451718 0.0070106452 0.4333695264
0.1679244652 0.9270851519 -0.3018125790 0.4576472535 -0.0103893741 0.4375102760
-0.1450621129 0.9270851519 0.2126406281 0.4582688368 -0.0104141241 0.4375639219
-0.2915399132 0.6533827164 0.3541666788 0.4524575456 0.0104403325 0.4545634205
0.2991036001 0.9270851519 0.3988193209 0.4567428578 0.0222117065 0.4521525873
-0.3087852868 0.8020851623 -0.0204791650 0.4583333368 -0.0104147700 0.4375000052
-0.2406604383 0.9137310072 -0.3160496612 0.4551966912 0.0137401447 0.4176970277
0.0106936241 0.2648616863 -0.3466244711 0.4558264412 0.0104185616 0.4168180486
-0.4902811883 2.1090537409 0.3222694315 0.4466694211 0.0088571034 0.4388842343
0.2437602714 0.2899810383 0.3609362616 0.4606888366 0.0250189979 0.4228995689
0.4388557551 0.9062518203 -0.2351436054 0.4392174217 0.0146595404 0.4367573594
-0.3541665955 1.2034527955 -0.1840936513 0.4377596302 0.0084794785 0.4348808596
0.4339771097 0.8465823253 0.3993562376 0.4611202741 0.0104377491 0.4239780480
-0.2378657093 0.9479185668 -0.0933658256 0.4582412118 0.0312513099 0.4374680677
0.4583333368 0.9083951951 0.1881190052 0.4375000052 0.0104185616 0.4375000052
-0.4374999219 1.9686906901 0.1995842750 0.4781183143 0.0129313739 0.4317591515
-0.3491853251 1.6067765744 0.3150428904 0.4765505020 0.0135173739 0.4339193805
-0.2926558714 0.9479184835 -0.0735586814 0.4582892326 0.0312484974 0.4373062761
-0.1451225504 0.9479184835 -0.1418552173 0.4582372951 0.0312513307 0.4374475469
0.4375000052 0.8308503683 -0.0573295994 0.4380594427 0.0077680410 0.4373276927
0.4166666736 0.3136650989 0.4035639039 0.4384704010 0.0102760616 0.4354807762
0.0635088280 0.1979185460 0.3615098657 0.4581636702 -0.0101930825 0.4375000052
0.3812693849 0.9270851519 -0.0699955150 0.4580127743 -0.0104101033 0.4375011510
-0.2948598921 0.8020851623 0.2546893538 0.4583333368 -0.0104147700 0.4375000052
-0.3015728915 1.3330045139 -0.2760811853 0.4701253358 0.0122839781 0.4517353790
0.4791666684 0.9470480252 -0.4374690885 0.4577299410 0.0295046642 0.4375000052
-0.2736120397 0.9946083963 -0.2708332691 0.4645444405 0.0106707491 0.4523336498
-0.2862618928 0.8412837216 0.2916666840 0.4596581284 0.0099128325 0.4214010899
0.0970397419 0.9270851519 -0.0168075194 0.4581755868 -0.0104133950 0.4374761927
-0.3100279325 1.3816212390 0.3500264708 0.4704641275 0.0123530823 0.4516950040
0.4746536896 0.9062518203 -0.1762332770 0.4735115647 0.0207881649 0.4366913594
0.4166666736 0.1402204258 -0.3580190327 0.4380455885 0.0100780408 0.4411521299
0.1691371317 0.9044866538 0.3563682203 0.4613419199 0.0104185616 0.4169059444
0.4375000052 0.8362065970 -0.1136685114 0.4380982343 0.0078218327 0.4371363386
0.1240696772 0.8806312808 0.3812003641 0.4556955454 0.0104937908 0.4581427535
-0.2007433374 0.9270851519 -0.0818479307 0.4582902951 -0.0104140825 0.4374361927
-0.2289001268 0.9479184835 -0.2362321470 0.4582052951 0.0312512057 0.4374097760
-0.2046689413 0.9479184835 0.3206098691 0.4576645869 0.0312268516 0.4375435885
-0.0451713296 0.9270851519 -0.1928766089 0.4580157327 -0.0104093533 0.4372461511
-0.2988581834 0.8601666158 0.3125000156 0.4511588374 0.0104185616 0.4389333801
-0.4166665903 1.7408674591 -0.1122329490 0.4791551267 0.0106040824 0.4375000052
0.4893998759 0.4303224433 -0.3541665955 0.4668463569 0.0104074366 0.4537602539
-0.3746182188 1.4062517786 -0.1372570511 0.4583333368 -0.0104147700 0.4375000052
-0.3333332639 0.2138917947 0.3390908259 0.4457896712 0.0114260407 0.4461647337
0.4741117730 0.9062518203 0.2111620449 0.4737280230 0.0181827485 0.4379468177
0.0786769309 0.9479184835 0.2518388540 0.4578927327 0.0312328307 0.4375390885
0.4166666736 0.0187851651 -0.3904301341 0.4396237759 0.0100018742 0.4323076723
0.0476314544 0.8622952198 -0.3176663069 0.4610167324 0.0104151241 0.4581378577
0.3123923490 0.8785221560 -0.3831939056 0.4562147745 0.0105109783 0.4167869861
0.4415606715 0.0807963058 -0.3541665955 0.4583333368 0.0088220201 0.4582477743
-0.4583332535 2.0443367671 -0.1267303853 0.4791666684 0.0104185616 0.4375000052
-0.0286544976 0.1980188377 -0.3200579525 0.4588890243 -0.0024113956 0.4535381914
-0.2149663988 0.2664996028 -0.2790490184 0.4613644616 0.0104185616 0.4581116493
-0.3034382872 0.8020852457 0.0546482871 0.4583333368 -0.0104147700 0.4375000052
-0.3893083842 1.8374838677 -0.2807731016 0.4759256062 0.0134262489 0.4439272963
0.1982862543 0.2161910653 0.3494180334 0.4617625865 -0.0040533330 0.4230281106
-0.3448807421 1.4986055834 0.2499364792 0.4784341685 0.0130555197 0.4345058596
0.1618426948 0.8024080581 -0.3649454904 0.4557997537 0.0101898117 0.4168439861
-0.3124999323 0.8468409294 -0.2024449415 0.4375493802 0.0104185616 0.4364899845
0.4215903815 0.9270851519 -0.2134687322 0.4574604619 -0.0103847491 0.4375119010
0.2441891463 0.8616228865 -0.3465718461 0.4615427532 0.0103814575 0.4580668993
-0.3309192016 1.1354184679 0.2457418129 0.4583333368 -0.0104147700 0.4375000052
-0.0618711615 0.2354415012 0.3162504528 0.4607675241 0.0104185616 0.4168093611
-0.2810403724 0.8077235160 0.3541666788 0.4614550865 0.0112083949 0.4531524414
-0.3383591176 0.1571305494 0.3541666788 0.4473605252 0.0114750407 0.4545286080
0.4791666684 0.5422537881 -0.4333727347 0.4721057315 0.0107881449 0.4245069021
0.4375000052 0.8490113459 -0.2817496640 0.4382560676 0.0076837077 0.4365679011
0.1577664035 0.9479184835 0.2779192060 0.4576410452 0.0312206432 0.4375314219
-0.3095356825 0.7827144556 -0.3333332639 0.4480456502 0.0094802700 0.4214374232
-0.2708332691 0.8087718493 -0.0893935342 0.4791172934 0.0104185616 0.4370264011
-0.3293965767 0.3009351208 0.3457759295 0.4450106921 0.0122460198 0.4492652126
0.2214013774 0.2847230179 -0.3466918461 0.4602008366 0.0204384358 0.4555017120
-0.4210289441 2.0198766233 0.2948113088 0.4746210438 0.0132382697 0.4257258395
0.4498334625 0.4946637504 -0.4374999219 0.4545808788 0.0106088116 0.4183214235
-0.4564386286 1.8939393213 -0.2708332691 0.4497026917 0.0092216659 0.4560624620
-0.2708332691 0.9146064863 0.0341732472 0.4782704810 0.0141544363 0.4376305052
-0.0378211635 0.2458567503 -0.3050997454 0.4613644616 0.0104185616 0.4581116493
0.5000000000 0.0227005398 -0.4145297155 0.4788112309 0.0099656658 0.4344790888
-0.2304930850 0.6837175055 -0.3326060973 0.4694879609 0.0118688323 0.4203406316
0.3458649712 0.3020852040 0.3977316960 0.4615507532 0.0308169974 0.4375000052
0.0906859091 0.2307484183 0.3341983472 0.4607675241 0.0104185616 0.4168093611
-0.3124999323 0.9002273833 -0.2375064802 0.4375493802 0.0104185616 0.4363236095
0.3857450095 0.3014291415 0.4105778408 0.4559024620 0.0104552283 0.4581899827
-0.1191671151 0.8987967168 0.3517171165 0.4550247954 0.0104600200 0.4580531077
-0.3405817425 1.3418069298 0.3541666788 0.4575423369 0.0103771866 0.4558688787
0.5000000000 0.1679622777 0.4094425909 0.4776594602 0.0101398325 0.4409328591
-0.2708332691 0.1995459417 -0.3049038288 0.4552123996 -0.0095360617 0.4375000052
-0.3202625150 1.1354184679 -0.1578356743 0.4583333368 -0.0104147700 0.4375000052
-0.0743083896 0.9270851519 0.2754743104 0.4581286077 -0.0104130408 0.4376042760
-0.4999999167 1.9685678360 0.0137612072 0.4375000052 0.0104185616 0.4375000052
-0.3607289074 1.1993561292 0.1740995063 0.4379634218 0.0072263744 0.4401588592
0.3130178906 0.9479184835 -0.1366431553 0.4581868160 0.0312479766 0.4375000052
-0.3333332639 1.1742242771 -0.0382577885 0.4791666684 0.0104185616 0.4375000052
0.4375000052 0.3990429251 0.3721471982 0.4383397343 0.0102355616 0.4354869220
-0.4011813832 1.4147709446 -0.2952818296 0.4416196715 0.0082690410 0.4369509011
-0.3137002030 1.2174412944 -0.2708332691 0.4602024616 0.0103330825 0.4260142978
0.2306126058 0.9270851519 0.0017957290 0.4581241493 -0.0104130825 0.4374896302
-0.0007078333 0.9479184835 0.0158894153 0.4582911910 0.0312515391 0.4375106302
-0.4368566719 1.7729673314 0.1679476943 0.4437515880 0.0227003106 0.4383107135
-0.3772738019 1.2303406891 -0.3007648083 0.4425273590 0.0083351868 0.4344004013
-0.3157081820 0.2095906909 -0.2708332691 0.4511280874 0.0110488324 0.4541483372
0.2931231006 0.9270851519 -0.0805228058 0.4579751910 -0.0104107283 0.4374223385
-0.2708332691 1.1007731583 0.3032196206 0.4646047946 0.0112651241 0.4257162770
-0.0343720805 0.9270851519 0.1571382994 0.4582262118 -0.0104138116 0.4375448594
-0.1033923039 0.9479185668 -0.2121712532 0.4582230660 0.0312513099 0.4374185260
-0.2782666018 0.3130772656 0.3541666788 0.4625541490 0.0107741033 0.4535803164
-0.4357577137 2.1045676580 0.3270260561 0.4760244812 0.0134939155 0.4362657136
-0.2070133994 0.8258891812 -0.3202356608 0.4547826704 0.0105029575 0.4169798819
-0.3128463489 0.0102453533 -0.2757458104 0.4569732119 -0.0011754791 0.4480223168
0.4166666736 0.6951898796 -0.3968018003 0.4379970468 0.0106444991 0.4367798178
-0.4401675050 2.1121487407 0.3541666788 0.4756142312 0.0134388322 0.4460787545
0.2964810170 0.9270851519 -0.3045297663 0.4573950452 -0.0103796033 0.4375142760
-0.1550288412 0.9479184835 0.3061616203 0.4580375035 0.0312406224 0.4375611719
0.4166666736 0.1623014656 -0.4072250494 0.4399841925 0.0101562700 0.4295555892
-0.2772240811 1.0770323894 0.3541666788 0.4687051068 0.0119145198 0.4541028788
-0.1708766108 0.9479184835 0.1008608249 0.4582973368 0.0312514766 0.4375466719
0.4166666736 0.3324092223 -0.4027497789 0.4391577759 0.0103107700 0.4321367973
0.0790993267 0.9270851519 -0.2266731061 0.4580646077 -0.0104075408 0.4375026510
-0.2486624793 0.3921055715 -0.2721584773 0.4720698982 0.0094292075 0.4524516915
0.4852442304 0.4536674414 0.3750000104 0.4633892531 0.0107068324 0.4194165067
0.5000000000 0.9443932963 -0.2339815430 0.4791666684 0.0104185616 0.4375000052
0.3755795937 0.2792849976 -0.3658939278 0.4613644616 0.0104185616 0.4581116493
-0.4498546083 1.6770850894 0.0691055359 0.4583333368 -0.0104147700 0.4375000052
-0.3541665955 1.4476024627 0.1871029636 0.4787541059 0.0119503115 0.4336861514
-0.3761217603 1.4114082990 0.2503345208 0.4388641718 0.0071780411 0.4440852130
-0.2325590640 0.9270851519 0.0413468299 0.4583025451 -0.0104142283 0.4374873385
0.3483601168 0.9479184835 0.3172834111 0.4571415869 0.0311962891 0.4375130469
-0.0612271199 0.2419165215 0.3587401576 0.4558488787 0.0105971241 0.4581823160
-0.4166665903 1.4760637520 0.0721861398 0.4376714844 0.0093944784 0.4387625051
0.2833724556 0.9479184835 0.3607984699 0.4570523369 0.0311923516 0.4375190469
-0.2945482046 0.5035842080 0.2916666840 0.4508615458 0.0103724366 0.4212775274
-0.4583332535 1.7297401475 -0.0799137225 0.4376008594 0.0099303117 0.4365235261
0.4375000052 0.8295570975 -0.0801213892 0.4381209843 0.0074644369 0.4372529844
-0.3027937456 1.2714117690 -0.2708332691 0.4640751072 0.0112891032 0.4560776287
0.4103095700 0.1979185460 -0.3749990521 0.4613965657 -0.0101796658 0.4375000052
0.4791666684 0.8476347835 0.1037665539 0.4787391268 0.0089755409 0.4378396927
-0.4304672141 1.6406896966 0.3205302233 0.4421701090 0.0083432493 0.4334734222
0.4375000052 0.9021776540 0.3594715950 0.4490140876 0.0116967490 0.4226410898
-0.3828216556 1.7915547674 -0.3333332639 0.4741095022 0.0131360197 0.4253862146
0.4652151279 0.9479184835 -0.3664165320 0.4573728786 0.0312261849 0.4375000052
-0.4583332535 1.9814975849 -0.1170862819 0.4789850643 0.0113583324 0.4393795467
0.2325095223 0.9270851519 0.3023974540 0.4579914410 -0.0104111658 0.4375372552
0.4375000052 0.0456493087 0.3683401151 0.4394603384 0.0099913325 0.4328004431
-0.2856796637 0.5557244120 -0.3333332639 0.4542278163 0.0104185616 0.4208735066
0.4618462323 0.8899764883 0.4375000052 0.4583333368 0.0121520198 0.4582477743
0.1167795528 0.9270851519 -0.2978439543 0.4577571910 -0.0103936866 0.4375085052
0.3440545963 0.9479185668 0.0593544117 0.4583227743 0.0312518307 0.4375172552
-0.2291666059 0.6292995726 0.3231550564 0.4716127315 0.0109310199 0.4373345469
-0.0352213721 0.3019545165 0.3610523866 0.4558997953 0.0104258741 0.4581905035
-0.3062140995 0.9479184835 0.1737306730 0.4583193785 0.0312505182 0.4375214844
-0.0510955166 0.9479184835 -0.0701728900 0.4582644201 0.0312514557 0.4374759844
-0.2371571261 0.2948797671 0.3092564534 0.4582331285 0.0251385187 0.4227800481
0.1629872573 0.3020852040 0.3835177180 0.4611633366 0.0307440599 0.4375000052
0.4343926305 0.0611794949 0.4375000052 0.4554469620 0.0097926450 0.4561766078
-0.2916666007 1.1463250920 0.2617448324 0.4748370229 0.0117100615 0.4432542131
0.4255693812 0.1757982354 0.3750000104 0.4484082335 0.0096260200 0.4220299023
-0.2666919361 0.5028829789 0.3541666788 0.4578589827 0.0095521242 0.4538698163
-0.0987438668 0.8146824738 -0.2961405170 0.4606250033 0.0104185616 0.4581906493
0.4966888753 0.0104185616 -0.3906384258 0.4747852938 0.0095972700 0.4417580049
-0.0686713484 0.9270852352 -0.2020708165 0.4579986077 -0.0104088950 0.4372230677
-0.1534178830 0.9479184835 -0.2669956861 0.4582813160 0.0312516224 0.4374609844
-0.4700860233 1.9676880652 -0.2953717879 0.4470220461 0.0089052493 0.4427454839
-0.2143518363 0.9479184835 0.1659796112 0.4583100660 0.0312514974 0.4375735677
-0.3063657453 0.0738035772 -0.2708332691 0.4601067325 0.0085616035 0.4543975246
0.0638027655 0.9112474032 -0.3518688665 0.4556962745 0.0126371656 0.4173680277
-0.3177155777 0.1291336351 0.3541666788 0.4556234204 0.0107477283 0.4547368579
0.3947614671 0.2343714596 0.4140114863 0.4558982745 0.0099376033 0.4581781285
-0.4756522104 2.0183407276 0.0630732447 0.4784412935 0.0151738321 0.4349185888
-0.3471357836 1.5104184366 0.2690554359 0.4583333368 0.0300710600 0.4414000257
-0.2471787294 0.7671457902 0.3322617015 0.4715183774 0.0121018740 0.4417791715
-0.3958333420 1.7119304407 0.2313526057 0.4788937309 0.0119603740 0.4345965680
0.2326875848 0.8064808911 -0.3448804296 0.4615119824 0.0104185616 0.4580711493
-0.3124999323 0.6894576717 -0.3076695785 0.4445219838 0.0102687075 0.4361441720
0.1225542606 0.9479184835 -0.0406082883 0.4582880451 0.0312516016 0.4374865885
-0.3940746130 1.7407423758 0.2715819149 0.4787370018 0.0126191656 0.4374981302
-0.0123525823 0.9270851519 -0.0426318089 0.4582177326 -0.0104136450 0.4374606719
-0.3154092654 0.8868415303 -0.2708332691 0.4505797333 0.0095099992 0.4538065038
0.4532368164 0.7156392112 0.4375000052 0.4583333368 0.0114345615 0.4582477743
-0.3026098498 0.3779750310 0.2916666840 0.4495949000 0.0115327282 0.4219968398
0.4671341277 0.9479184835 -0.2865195386 0.4575891910 0.0312319766 0.4375000052
0.4166666736 0.1106566158 0.3984926960 0.4394427967 0.0100913533 0.4324649431
-0.3077615994 0.5525486623 0.2916666840 0.4475590460 0.0104185616 0.4206718608
-0.4760848562 1.9479184002 -0.2284904601 0.4583333368 -0.0104147700 0.4375000052
0.4210492149 0.2643832488 0.4375000052 0.4430007339 0.0101390408 0.4468362753
0.1733733814 0.9270851519 -0.3262839520 0.4575557535 -0.0103851450 0.4375120677
-0.4707956274 2.0520850582 0.1697475067 0.4480065460 0.0280483310 0.4384921301
0.1501227167 0.9270851519 -0.1371310511 0.4579416285 -0.0104095825 0.4373750886
-0.2708332691 0.8857556970 0.2275293977 0.4791172934 0.0104185616 0.4385301926
0.3958857795 0.9270851519 0.1096897409 0.4580127535 -0.0104119991 0.4375150260
-0.3184254318 1.4299067142 -0.3138318905 0.4764409811 0.0134713114 0.4334136514
0.2033503581 0.9270852352 -0.3244354105 0.4575051910 -0.0103832700 0.4375128385
-0.3333332639 1.1629338823 -0.0110690199 0.4791666684 0.0104185616 0.4375000052
-0.3370139719 0.1581536118 -0.3333332639 0.4467840461 0.0117943740 0.4211162982
-0.4422579631 1.9479184002 -0.2086103159 0.4583333368 -0.0104147700 0.4375000052
-0.3208139108 0.8019885165 0.3532202414 0.4446907963 0.0088699993 0.4526851706
-0.0787016393 0.1979185460 0.3523215123 0.4569465661 -0.0101930825 0.4375000052
0.2546181871 0.9479184835 0.1412494466 0.4581014410 0.0312419557 0.4375227969
0.4517215665 0.3393279717 -0.4374999219 0.4538368580 0.0100498117 0.4189957984
-0.3134807864 0.8659170528 -0.3333332639 0.4509793791 0.0090508742 0.4215621315
-0.2501008750 0.8256921812 -0.2708332691 0.4710264191 0.0113281241 0.4539006913
-0.3674606569 1.1885947968 0.1425074881 0.4382035885 0.0059263120 0.4403107133
0.2440918338 0.9270851519 -0.0317601224 0.4581189410 -0.0104130200 0.4374759010
0.4681157943 0.2563909161 -0.3541665955 0.4583333368 0.0095446450 0.4582477743
0.4375000052 0.1983960668 0.3698577192 0.4390136301 0.0100886867 0.4338713597
0.0488093709 0.2964342878 -0.3292715559 0.4595862117 0.0180403318 0.4564682120
-0.0533781414 0.2038805455 0.3589163034 0.4559003370 0.0100708533 0.4581805660
0.1750483812 0.9270851519 -0.0317918099 0.4581455452 -0.0104131866 0.4374730260
-0.4216814857 2.0236291647 -0.3102127866 0.4756008979 0.0134091864 0.4324260681
0.4621193157 0.8020851623 0.0751012021 0.4618432948 -0.0080327910 0.4377064635
0.1379066135 0.2260555020 0.3397537217 0.4607675241 0.0104185616 0.4168093611
-0.1100334908 0.9479184835 0.1946666504 0.4583270868 0.0312516016 0.4375844010
-0.4089454034 1.4875191260 -0.3333332639 0.4457536712 0.0086735826 0.4211909649
-0.2924071215 0.7112307532 0.3541666788 0.4518638373 0.0098379783 0.4536597122
-0.3333332639 0.9474681085 -0.2139841488 0.4375000052 0.0104185616 0.4375000052
-0.2923549965 0.2357100012 0.2916666840 0.4580979618 0.0113302491 0.4212925274
-0.2711611024 1.1581369035 -0.2894462050 0.4702309191 0.0122818115 0.4475982335
-0.2499999375 0.2155137529 0.3528193873 0.4707852524 0.0090336659 0.4533925039
-0.3124999323 0.4482936293 0.3101251825 0.4449171296 0.0108797491 0.4307274016
0.2980831002 0.1979185252 0.3827130098 0.4601712742 -0.0101930825 0.4375000052
-0.2678975402 0.2094065450 0.3336787430 0.4559014203 0.0097485617 0.4581712118
0.3448537421 0.9479184835 0.3894139884 0.4568186494 0.0311810807 0.4375130469
-0.0949482421 0.9479184835 0.2455677087 0.4582128368 0.0312486432 0.4375557135
0.4975566669 0.6937213797 -0.3541665955 0.4756505020 0.0106948324 0.4450341921
-0.2431317297 0.7469107294 0.3521644915 0.4718956690 0.0120438115 0.4520835040
-0.3152138487 0.0401554133 0.2916666840 0.4615908157 0.0022253956 0.4218071940
-0.3958332587 1.4447538379 0.2006306916 0.4377734427 0.0085241660 0.4402223591
-0.3426582214 1.4062517786 0.2528736039 0.4583333368 -0.0104147700 0.4375000052
-0.2279176893 0.9479184835 0.2183925443 0.4583222951 0.0312515182 0.4375950469
0.4791666684 0.8283666810 -0.0855727845 0.4788527518 0.0086756451 0.4371955677
-0.1092486992 0.9270851519 -0.2225908148 0.4579230243 -0.0104073116 0.4371723386
0.3199687442 0.2670629569 0.3611728032 0.4607675241 0.0104185616 0.4168093611
-0.2708331858 0.8818626348 0.1227488856 0.4791172934 0.0104185616 0.4380330260
0.5000000000 0.7434645630 -0.3733569064 0.4785350643 0.0106906241 0.4379536718
0.4166666736 0.1792690892 0.4359806928 0.4383024218 0.0101119783 0.4420575673
0.2825371640 0.2163637945 0.3591571784 0.4622526281 -0.0040010205 0.4230804231
0.0029254373 0.9270851519 0.0674795985 0.4582118368 -0.0104136658 0.4375082135
-0.3496678042 1.6095504909 -0.3051100787 0.4767840644 0.0135583739 0.4355388387
-0.3124999323 0.9026231748 -0.1844893180 0.4375493802 0.0104185616 0.4365751720
0.2773678311 0.2572160619 0.3561609287 0.4607675241 0.0104185616 0.4168093611
0.0082981660 0.9270852352 -0.0728665564 0.4582097743 -0.0104135825 0.4374486510
0.1269362603 0.8020851623 -0.3542153871 0.4583333368 -0.0104147700 0.4375000052
0.4791666684 0.8431697631 -0.1070904702 0.4789649393 0.0102394575 0.4371356302
-0.2708332691 0.8567570744 -0.2911179132 0.4574587119 0.0104243741 0.4381710468
-0.2926742464 0.9260775895 -0.2352411887 0.4508906916 0.0297031017 0.4369094428
-0.3127505156 0.9479185668 -0.1696872567 0.4583333368 0.0312441641 0.4370242969
0.1209864899 0.8889956343 -0.3599932200 0.4556872537 0.0106542699 0.4168591528
-0.2518183540 0.1888265259 -0.2714871649 0.4709909608 0.0086683118 0.4536058580
-0.3387109509 0.0511075166 -0.3333332639 0.4556120870 0.0053267079 0.4195511317
0.2949810171 0.2404399383 0.4019169040 0.4558873162 0.0101733950 0.4581802743
-0.1772626936 0.9479184835 0.3100978283 0.4579806077 0.0312387474 0.4375589219
-0.2965731003 1.1223276148 -0.3333332639 0.4576880035 0.0101875408 0.4177817152
0.1572006536 0.2530111247 -0.3337794305 0.4613644616 0.0104185616 0.4581116493
-0.4051939662 1.4436944630 -0.1009582624 0.4383439426 0.0054656870 0.4343700680
-0.1453605712 0.2600832075 -0.2892851217 0.4613644616 0.0104185616 0.4581116493
0.3726155939 0.9270851519 -0.1704879858 0.4576957327 -0.0103950200 0.4375075885
0.4195677775 0.1041934913 -0.4166665903 0.4434154839 0.0100481242 0.4246619646
0.2061593162 0.9270851519 -0.2764051020 0.4576592327 -0.0103905616 0.4375097135
0.2568638119 0.9270851519 0.0258377062 0.4581140243 -0.0104130200 0.4375009635
-0.2708332691 0.8587933243 -0.0459696003 0.4791172934 0.0104185616 0.4372324636
-0.4549162329 1.7467503544 -0.1431153006 0.4381353593 0.0061613120 0.4347771929
0.2819091015 0.9184915068 -0.3775284269 0.4567138369 0.0193029776 0.4214608190
-0.3469393253 1.2259790645 -0.2423058548 0.4433102756 0.0238729980 0.4371776094
0.4186117776 0.9270851519 0.1626261114 0.4579793785 -0.0104114158 0.4375067552
-0.3072954119 0.5574098285 0.3541666788 0.4464753586 0.0103201241 0.4535374414
-0.2708333524 0.8506314708 -0.1122457823 0.4791172934 0.0104185616 0.4369179844
-0.4399884633 2.1215419482 -0.2708332691 0.4729632106 0.0103682700 0.4512330041
-0.4231759647 1.8813870724 -0.2708332691 0.4604956075 0.0108681866 0.4539020455
0.1641838405 0.9270851519 0.2123778573 0.4580602743 -0.0104123325 0.4375576510
0.3736652189 0.8217154315 0.3864458636 0.4618892323 0.0105081866 0.4169799653
0.4375000052 0.8140261197 0.3530906581 0.4377949219 0.0094633742 0.4387044426
-0.0388916218 0.8020851623 -0.3296455559 0.4583333368 -0.0104147700 0.4375000052
-0.0414648715 0.9270850686 -0.1567219036 0.4582289410 -0.0104136450 0.4374108802
-0.2778541435 0.6834209014 0.2916666840 0.4538758580 0.0109523741 0.4220549648
-0.4683972110 2.0158260403 0.2715386857 0.4422774215 0.0099293325 0.4492426917
-0.2828331848 0.6932885047 -0.3333332639 0.4525919206 0.0107451033 0.4219909023
-0.4246561521 1.6496787167 0.3540830330 0.4484827126 0.0090852701 0.4557337745
-0.4374999219 1.7050859204 0.2431715839 0.4386691301 0.0074194785 0.4434297964
0.4583333368 0.9157989029 0.2706753733 0.4375000052 0.0104185616 0.4375000052
-0.2708332691 0.8388992843 0.0739674938 0.4791172934 0.0104185616 0.4378015468
0.3178373068 0.2073534202 0.4025887165 0.4560052953 0.0096275825 0.4581669202
-0.1606110908 0.9194704650 -0.3254672020 0.4556874620 0.0162891236 0.4182277568
0.4472548794 0.9062518203 -0.1908952549 0.4476467960 0.0225777065 0.4373951511
0.4375000052 0.8694531150 -0.2660687903 0.4379546927 0.0097311659 0.4366040678
-0.1000061792 0.2777010810 -0.2959549545 0.4613644616 0.0104185616 0.4581116493
0.4375000052 0.8713560941 -0.1314132807 0.4376671302 0.0109853949 0.4370499844
-0.4166665903 1.4524256706 0.0744919313 0.4377761927 0.0087906451 0.4397831925
-0.3749999271 1.4091318826 0.2766941019 0.4419412757 0.0091933534 0.4493275251
0.5000000000 0.6946404838 0.4154798195 0.4785607310 0.0106414783 0.4377085052
-0.1489059876 0.9479184835 -0.0628430364 0.4582572743 0.0312513932 0.4374797760
0.4980168127 0.5309216849 -0.3541665955 0.4755335645 0.0105365825 0.4460938587
0.1185536360 0.2786897893 0.3805317600 0.4558686703 0.0109761241 0.4581781285
-0.0054643537 0.9270852352 -0.1586735493 0.4582150660 -0.0104135616 0.4374115260
-0.4374999219 1.7616929990 -0.1384077385 0.4378634635 0.0141337488 0.4371464011
-0.0587577451 0.2809266016 -0.3020208082 0.4613644616 0.0104185616 0.4581116493
-0.3459067420 1.0190457276 0.3531608039 0.4425039006 0.0082786243 0.4493020667
-0.3124999323 0.8256314520 -0.0237564980 0.4375493802 0.0104185616 0.4373378594
-0.2916666007 1.1645918405 -0.2338675847 0.4773733977 0.0125794781 0.4375504635
-0.0996921792 0.9270851519 0.1502841125 0.4582513576 -0.0104139783 0.4375392344
-0.4250400062 1.7812517474 -0.1428204673 0.4521038165 0.0296436434 0.4368959428
0.0314449557 0.9270851519 0.1925987756 0.4581233160 -0.0104132075 0.4375871719
-0.1901684008 0.9270851519 -0.1354331345 0.4582862118 -0.0104140200 0.4374137969
0.5000000000 0.5986372001 -0.3558894078 0.4778152310 0.0105750408 0.4434242964
0.4455597754 0.1386941759 -0.3541665122 0.4583333368 0.0090602909 0.4582477743
-0.0709061608 0.9270851519 0.1273031769 0.4582402743 -0.0104138950 0.4375306302
-0.0067924578 0.9479184835 -0.2593651867 0.4582399410 0.0312493932 0.4375000052
0.2185227943 0.9479185668 0.2317871057 0.4577493369 0.0312254974 0.4375258385
0.0421413090 0.9479184835 -0.1800652558 0.4582812743 0.0312516224 0.4374609635
-0.2874966635 0.1466691961 0.3541666788 0.4635220239 0.0097709784 0.4540861705
-0.2602490825 0.8552599704 0.3541666788 0.4672961069 0.0105252283 0.4542627121
-0.2708332691 0.0382165801 -0.3284695976 0.4712343982 -0.0010356249 0.4287069018
0.2445324380 0.3015887040 0.3939646130 0.4559016495 0.0104463116 0.4581901493
0.1951416087 0.9479184835 -0.2701204775 0.4579648993 0.0312420182 0.4375000052
-0.2609389783 0.1432234047 0.2928958298 0.4712118774 0.0088564993 0.4219070690
-0.3124999323 0.5430550797 0.3360826595 0.4447907754 0.0104185616 0.4433270047
-0.0091890826 0.9270851519 0.0485113085 0.4582165035 -0.0104136866 0.4374996302
0.4375000052 0.6979740460 0.3543313455 0.4507588166 0.0114428949 0.4188836734
-0.3494808667 1.1815448390 0.2407681049 0.4385787760 0.0075602494 0.4432166297
0.4791666684 0.8758970937 0.0469075378 0.4788313768 0.0120872073 0.4376727969
0.4166666736 0.4442240671 -0.3708822816 0.4384499218 0.0103785408 0.4407656508
-0.2887272884 0.8020851623 0.2310695224 0.4583333368 -0.0104147700 0.4375000052
-0.4583332535 1.7209262941 0.1034761580 0.4376612344 0.0096380200 0.4390610884
-0.1451482587 0.2145776905 -0.2897938925 0.4589770868 0.0009896666 0.4560201495
-0.3124999323 0.4538786705 -0.2928187881 0.4442800880 0.0107367283 0.4414179215
-0.0754823687 0.9479184835 0.1159778028 0.4583100451 0.0312515599 0.4375520469
-0.3469558669 0.1281233018 0.3541666788 0.4469339628 0.0117084157 0.4548012121
-0.3912731757 1.5127113948 -0.3333332639 0.4493370251 0.0091512492 0.4203058608
0.4258375270 0.7028865039 0.3750000104 0.4476183585 0.0107818741 0.4244292146
-0.2700938525 0.7307382516 -0.2708332691 0.4596033784 0.0101907908 0.4531605456
0.1329786139 0.9479184835 0.3978268002 0.4565554203 0.0311749141 0.4375001302
-0.4166665903 1.7102026908 -0.1270134686 0.4788871268 0.0115812490 0.4398925050
-0.3124999323 0.8167440986 -0.1017263249 0.4375493802 0.0104185616 0.4369678803
-0.4275358602 2.0572914744 -0.3024006831 0.4759117312 0.0134678530 0.4349377138
0.3279842227 0.2986339334 0.3794978434 0.4612192741 0.0249815813 0.4229369856
0.3784548643 0.9479184002 -0.4010405499 0.4573836494 0.0312264557 0.4375000052
-0.0602578700 0.1979185460 -0.3166740778 0.4583333368 -0.0075647702 0.4323246306
-0.3958332587 1.7624910615 -0.2503164791 0.4789861268 0.0124380823 0.4385216093
-0.4340955472 2.0749613271 -0.3333332639 0.4723225648 0.0128877073 0.4243583396
-0.3333332639 1.1609151116 -0.0866749511 0.4789223143 0.0115744990 0.4398118800
0.3088640784 0.8868559886 0.3769163019 0.4617158574 0.0104191241 0.4169563403
-0.3206605983 1.1248399896 -0.2708332691 0.4567603994 0.0102803741 0.4548931704
0.4583333368 0.9075995910 -0.2159328570 0.4791666684 0.0104185616 0.4375000052
0.4791666684 0.8005486416 -0.4229611523 0.4773138561 0.0108223533 0.4330582347
0.4973719169 0.6172055111 0.4375000052 0.4752000646 0.0106251241 0.4458671087
-0.3409049508 1.2106495449 0.2724721440 0.4423424840 0.0080449993 0.4492449417
0.1857025054 0.3015697457 0.3656946570 0.4603938158 0.0250201437 0.4228984231
0.0086010618 0.9479184835 -0.2388162093 0.4582774618 0.0312503932 0.4375000052
-0.3749999271 1.4802781891 -0.0628131614 0.4791442726 0.0105625825 0.4377880469
0.3816739474 0.9479184835 0.3597088867 0.4568922536 0.0311843932 0.4375096719
0.0325197681 0.3005014333 -0.3492699501 0.4558264412 0.0104185616 0.4168180486
