-0.4221328495 0.0823690129 -0.2744656019 0.4980260696 0.0913297453 0.3244576003
-0.4203604573 0.1735629807 -0.3159367724 0.5004503955 0.0920158232 0.3226636778
-0.4173859896 0.0872075699 -0.2596498651 0.5020706867 0.0918575642 0.3243362657
-0.4503517045 0.0813923899 -0.2338262746 0.4996145385 0.0909326639 0.3243246458
-0.4889495930 0.1777781148 -0.3131278096 0.4998689304 0.0913079364 0.3231260551
-0.4825194978 0.0942438199 -0.2504687864 0.5000638952 0.0899630707 0.3244313320
-0.4444393057 0.0894678579 -0.2366862875 0.4998603628 0.0903312534 0.3237693013
-0.4479957911 0.1831488923 -0.3137948674 0.4999488535 0.0918294089 0.3224364945
-0.4691831191 0.0921019149 -0.3029236286 0.4999748797 0.0900112957 0.3240479803
-0.4945395409 0.0912548364 -0.3160193942 0.5010793338 0.0919818825 0.3259418334
-0.4803721673 0.0874981107 -0.3137948674 0.4999558768 0.0916651526 0.3264428464
-0.4543073126 0.1348285458 -0.3116529624 0.4998599623 0.0923338746 0.3223794984
-0.4639160783 0.0942438199 -0.2527168464 0.5000347674 0.0899618798 0.3244519864
-0.4216526729 0.0942438199 -0.3068919167 0.5008757628 0.0910331236 0.3258816716
-0.4239027591 0.0400462831 -0.3131116639 0.4990001673 0.0918117938 0.3261791457
-0.4519371491 0.0942438199 -0.2642115445 0.5000097799 0.0899605347 0.3244795377
-0.4571794830 0.0942438199 -0.2662976271 0.5000162999 0.0899607146 0.3244775736
-0.4896904479 0.0477313526 -0.3120443077 0.4989596039 0.0923869767 0.3227767446
-0.4752408248 0.0888074551 -0.3137948674 0.4999567314 0.0913434470 0.3262970598
-0.4145934338 0.0330045498 -0.2382440179 0.5016388336 0.0917983170 0.3235071021
-0.4188772438 0.0217028845 -0.3175099309 0.5020237961 0.0920276893 0.3247398113
-0.4895601087 0.0963919107 -0.3144451262 0.4994428562 0.0903721660 0.3247305347
-0.4342174753 0.1580565716 -0.3095110574 0.4994664001 0.0920728000 0.3264559356
-0.4240875477 0.0921019149 -0.2662278160 0.4999771523 0.0899727499 0.3242773269
-0.4953193550 0.0541758178 -0.2388281925 0.5006055915 0.0929205081 0.3231441285
-0.4813976900 0.0942438199 -0.3061207324 0.4997342710 0.0900237723 0.3248801275
-0.4292592201 0.1564471892 -0.3095110574 0.4995099064 0.0919384490 0.3264809787
-0.4980446485 0.0860900866 -0.2324024775 0.4986876591 0.0911375714 0.3258399451
-0.4959858237 0.0587212187 -0.3146675009 0.5020392756 0.0920990212 0.3239257953
-0.4906596921 0.0942438199 -0.2816298179 0.5000566962 0.0899617470 0.3244678900
-0.4145934338 0.0592039955 -0.2363035055 0.5016135270 0.0917862431 0.3243920002
-0.4845462947 0.1583424367 -0.3137948674 0.4992164997 0.0924008777 0.3225696331
-0.4405520694 0.1529746386 -0.3137948674 0.4992810246 0.0915893270 0.3227155826
-0.4353253585 0.0921019149 -0.2602936511 0.4999866538 0.0899797647 0.3242463549
-0.4241512137 0.0063187204 -0.3177960359 0.4990049952 0.0918271342 0.3257501907
-0.4183562790 0.0850597382 -0.2906974207 0.5018455489 0.0928106134 0.3245412888
-0.4959858237 0.1533274703 -0.3158098324 0.5012567221 0.0920395233 0.3261205282
-0.4981277287 0.0369182344 -0.2347304134 0.4983366416 0.0919169121 0.3251385312
-0.4340470653 0.0921019149 -0.2569584309 0.4999882517 0.0899782782 0.3242568396
-0.4687766755 0.1777781148 -0.3104763797 0.4999104727 0.0913074588 0.3255826402
-0.4421023502 0.0942438199 -0.3114998761 0.4995489619 0.0902793037 0.3244084307
-0.4959858901 0.0852204239 -0.3081991663 0.5020836580 0.0918004118 0.3241937219
-0.4239810007 0.1824788594 -0.3159367724 0.4992388762 0.0922110771 0.3227246171
-0.4958491445 0.0872368518 -0.2752860072 0.5020717533 0.0918416392 0.3245246912
-0.4331594642 0.1572492491 -0.3137948674 0.4993846671 0.0919624083 0.3225442023
-0.4739440341 0.0921019149 -0.3052503221 0.4999756722 0.0900150997 0.3240264541
-0.4247249293 0.1119357238 -0.3077622626 0.4999312748 0.0903924091 0.3249510931
-0.4512616608 0.0942438199 -0.2985501349 0.4997912821 0.0900012030 0.3247891458
-0.4904692146 0.0908995158 -0.2928233770 0.4992145634 0.0904082056 0.3241924368
-0.4980889024 0.0942438199 -0.2431567790 0.5000916414 0.0899643815 0.3244063445
-0.4293061535 0.0923246087 -0.2281186675 0.4994663422 0.0902084302 0.3238054245
-0.4324520123 0.0813923899 -0.2352463447 0.4993386997 0.0911876235 0.3234463791
-0.4330555325 0.0870449564 -0.3137948674 0.4999942597 0.0918098297 0.3265289145
-0.4581678136 0.0930743462 -0.2281186675 0.4997334571 0.0901125328 0.3240322201
-0.4827385397 0.0921019149 -0.3000296900 0.4995032515 0.0900366108 0.3242795716
-0.4315516625 0.0921019149 -0.2989936420 0.4999589504 0.0899837143 0.3241930215
-0.4253029588 0.0509552880 -0.3198552526 0.4987577765 0.0912708322 0.3239218285
-0.4959857573 0.1750364293 -0.3135848472 0.5014079555 0.0920288866 0.3252241881
-0.4190717716 0.0358474211 -0.3136948576 0.5012227622 0.0919162267 0.3256519608
-0.4168460025 0.0896939810 -0.2423683373 0.5019695780 0.0914608256 0.3243154035
-0.4629429788 0.0942438199 -0.2968319308 0.4997666480 0.0900112528 0.3248216770
-0.4566142000 0.0921019149 -0.2478261148 0.4999403522 0.0900054483 0.3241771757
-0.4957749532 0.0098266960 -0.2388281925 0.4995543038 0.0919797877 0.3230557021
-0.4253029588 0.0050859620 -0.3189705923 0.4983898186 0.0918493265 0.3254476509
-0.4959858237 0.0943075394 -0.3107969329 0.5020339144 0.0919448576 0.3239672433
-0.4149653007 0.0680277937 -0.2324024775 0.5013734516 0.0919493941 0.3260292402
-0.4188772438 0.0442211409 -0.3134071826 0.5018670515 0.0916750611 0.3252592425
-0.4930029875 0.0853079850 -0.2522820332 0.4984972202 0.0918957287 0.3238358524
-0.4169808525 0.0870819600 -0.2466848949 0.5020724537 0.0918776082 0.3242836819
-0.4292949771 0.0921019149 -0.2303984298 0.4997956130 0.0906972921 0.3251011785
-0.4208266472 0.1207223300 -0.3159367724 0.5005476658 0.0918927386 0.3229137666
-0.4481692062 0.0909199689 -0.3095110574 0.4998717834 0.0903120255 0.3239449054
-0.4189500622 0.0714462634 -0.3179401025 0.5014040187 0.0921615091 0.3229504746
-0.4388033410 0.0921019149 -0.2823331531 0.4999736524 0.0899860383 0.3241953133
-0.4146854693 0.0042838100 -0.2374808079 0.5015405759 0.0919862392 0.3236867544
-0.4705782853 0.0813923899 -0.2360001432 0.5004099328 0.0912011303 0.3230916047
-0.4558020967 0.0921019149 -0.2915365205 0.4999758864 0.0899997722 0.3241168982
-0.4483590282 0.0921019149 -0.2713811881 0.4999856749 0.0899909883 0.3241792319
-0.4959858237 0.1051837517 -0.3128228795 0.5019772289 0.0920662350 0.3237558544
-0.4224862188 0.0587719090 -0.3186016685 0.4997454196 0.0922182375 0.3227536399
-0.4158279315 0.0942438199 -0.2656510953 0.5006503059 0.0905437433 0.3250591051
-0.4917019473 0.0398216423 -0.2335957949 0.5012181464 0.0917586318 0.3255997112
-0.4253029588 0.1624374271 -0.3121518999 0.4994615079 0.0922684608 0.3240070827
-0.4324182173 0.0858340733 -0.2324024775 0.5000000000 0.0920852744 0.3266320259
-0.4145934338 0.0318302569 -0.2356735113 0.5015516859 0.0919710488 0.3245069884
-0.4857223547 0.0942438199 -0.2758179536 0.5000529415 0.0899617984 0.3244642809
-0.4972441137 0.0942438199 -0.2609150199 0.5000793640 0.0899633127 0.3244323258
-0.4810307282 0.1509175295 -0.3137948674 0.4998098824 0.0920663935 0.3223896510
-0.4479486628 0.1906295533 -0.3135295475 0.5001240698 0.0941711772 0.3241888769
-0.4212175985 0.0518814884 -0.3194801194 0.5002444128 0.0921965914 0.3227534493
-0.4237218260 0.0921019149 -0.2927331064 0.4993393401 0.0904615134 0.3246659456
-0.4286733470 0.0942438199 -0.2863765493 0.4998593047 0.0899802509 0.3246823483
-0.4831043257 0.0921019149 -0.2662206257 0.4998083659 0.0900356127 0.3241069897
-0.4708938072 0.0921019149 -0.2929395325 0.4999823893 0.0900108030 0.3240590325
-0.4981277287 0.0220887466 -0.2327983979 0.4984933476 0.0918242533 0.3258263847
-0.4710751966 0.0838713815 -0.2366862875 0.5002463105 0.0910601694 0.3229434041
-0.4450631569 0.1612349080 -0.3095110574 0.4996869349 0.0927693732 0.3263229125
-0.4497935455 0.0921019149 -0.2384391347 0.5000162442 0.0899974889 0.3241718166
-0.4599772028 0.1849573734 -0.3137948674 0.4999197000 0.0920077268 0.3224143472
-0.4956630472 0.0547169123 -0.3110740826 0.5006894856 0.0923334741 0.3229139701
-0.4715169388 0.0942438199 -0.2530317792 0.5000459032 0.0899622953 0.3244452972
-0.4651377631 0.1627847798 -0.3130170796 0.4999539148 0.0938969127 0.3237018655
-0.4167793957 0.0942438199 -0.2812007579 0.5010404625 0.0908175237 0.3252690632
-0.4286673347 0.0942438199 -0.2813290709 0.4998659596 0.0899797518 0.3246680339
-0.4172309414 0.0935815386 -0.2870647840 0.5008832231 0.0909198768 0.3251114147
-0.4845174025 0.1801184458 -0.3137948674 0.4998732678 0.0915375122 0.3224779125
-0.4188772438 0.1113446052 -0.3078153390 0.5016311485 0.0914201765 0.3256360850
-0.4706209050 0.0942438199 -0.2896583011 0.4999606532 0.0899761920 0.3245819593
-0.4506129698 0.1268072251 -0.3116529624 0.4996667474 0.0917408882 0.3224646134
-0.4234702335 0.1578378189 -0.3159367724 0.4993881477 0.0919250064 0.3227799254
-0.4895601751 0.1478573941 -0.3109656422 0.4985370853 0.0910089372 0.3253807635
-0.4959858237 0.0854316822 -0.3164974139 0.5016478253 0.0920450837 0.3258228955
-0.4188772438 0.0461562706 -0.3181526052 0.5016535185 0.0921039176 0.3236464844
-0.4537702663 0.0923414184 -0.3159367724 0.4990510226 0.0910111112 0.3253692593
-0.4735993609 0.0921019149 -0.2674770864 0.4997849292 0.0900251152 0.3241717545
-0.4829335237 0.0942438199 -0.2960473467 0.5000428381 0.0899612286 0.3245135083
-0.4397957884 0.0921019149 -0.2579924505 0.4999903957 0.0899825663 0.3242339297
-0.4468507801 0.0942438199 -0.2703878903 0.4998384939 0.0899945845 0.3246952597
-0.4439502402 0.0887292563 -0.3095110574 0.4997059743 0.0908921562 0.3236474954
-0.4761487548 0.1362811558 -0.3106603179 0.4999130087 0.0934244791 0.3237458796
-0.4880087826 0.0921019149 -0.2704110936 0.4997768563 0.0900412288 0.3240979488
-0.4305909838 0.0921019149 -0.3158108134 0.4992109265 0.0902356238 0.3250518847
-0.4653257560 0.1518715018 -0.3095110574 0.4989708296 0.0913578342 0.3260480654
-0.4461086165 0.0860667913 -0.3095110574 0.4995080494 0.0916024226 0.3232592816
-0.4400570559 0.1244234990 -0.3116529624 0.4994186613 0.0914832813 0.3225695303
-0.4944844383 0.0664770974 -0.3184367503 0.5008505419 0.0919833069 0.3261151585
-0.4197327507 0.0921019149 -0.2923186221 0.5003540976 0.0905505931 0.3245273836
-0.4891062091 0.0942438199 -0.3150789116 0.4996970468 0.0900329546 0.3249394540
-0.4930515552 0.0820650359 -0.2515065994 0.4982511624 0.0926583025 0.3237155309
-0.4747746371 0.0921019149 -0.2834685577 0.4996423297 0.0900270836 0.3242450955
-0.4580610054 0.1905702997 -0.3137948674 0.5000259085 0.0939760111 0.3236263998
-0.4938668628 0.1118986517 -0.3159367724 0.5008856734 0.0913800222 0.3256453937
-0.4533151908 0.0921019149 -0.2906402918 0.4999752589 0.0899978402 0.3241275884
-0.4256512283 0.0921019149 -0.2771466437 0.4999706302 0.0899757443 0.3242526243
-0.4435523578 0.0942438199 -0.3039169906 0.4998019680 0.0899949851 0.3247796636
-0.4793403046 0.0921019149 -0.3004820861 0.4999815175 0.0900181390 0.3240149135
-0.4933734814 0.0802967562 -0.2324024775 0.5002410500 0.0914708133 0.3262429081
-0.4382209314 0.0942438199 -0.2618610565 0.4998695837 0.0899862011 0.3246434813
-0.4517267369 0.0856761999 -0.2343046862 0.5000000000 0.0942438199 0.3244928218
-0.4690947441 0.0921019149 -0.2616737854 0.4998314813 0.0900198740 0.3241702123
-0.4735338636 0.0873387573 -0.2324024775 0.5000000000 0.0919249079 0.3266050207
-0.4694558264 0.0942438199 -0.2949984216 0.4997540665 0.0900167725 0.3248373344
-0.4877801985 0.0942438199 -0.2939634210 0.5000447530 0.0899608731 0.3244880882
-0.4442424239 0.0921019149 -0.2570766105 0.4998412313 0.0899921020 0.3242998404
-0.4540404891 0.1302575385 -0.3095110574 0.4999036271 0.0919496319 0.3266011010
-0.4253029588 0.0648271301 -0.3148960850 0.4982195436 0.0926808632 0.3249615970
-0.4188772438 0.1525159753 -0.3108020307 0.5018841117 0.0920954185 0.3254477987
-0.4959858237 0.0663844428 -0.3118552696 0.5020720639 0.0919619307 0.3240728735
-0.4570657478 0.0921019149 -0.2931969424 0.4999754002 0.0900009610 0.3241093737
-0.4182697996 0.0847524348 -0.2879302936 0.5019613810 0.0925327805 0.3245143929
-0.4214235019 0.1807443319 -0.3092914286 0.5007792657 0.0919876935 0.3256812492
-0.4903760032 0.0858546249 -0.2366862875 0.5005244883 0.0908216040 0.3231909677
-0.4905484394 0.0166998378 -0.3232931001 0.4989410357 0.0920223774 0.3261197786
-0.4253029588 0.1199969289 -0.3144260397 0.4988632567 0.0911692866 0.3229621265
-0.4471850608 0.0942438199 -0.2375532985 0.5000192343 0.0899617941 0.3244461861
-0.4895601087 0.1767137893 -0.3107653612 0.4989903638 0.0921720815 0.3233301015
-0.4393811070 0.1513795791 -0.3095110574 0.4993068903 0.0914135023 0.3263012193
-0.4834986761 0.0921019149 -0.3029000955 0.5000045580 0.0900175372 0.3240374656
-0.4177101391 0.0828343739 -0.2700206650 0.5017534041 0.0914758875 0.3244349775
-0.4253029588 0.1886645932 -0.3120094011 0.4988842431 0.0922858231 0.3248192460
-0.4598065337 0.1274973598 -0.3095110574 0.4997824446 0.0918043507 0.3265486822
-0.4917020137 0.0394322183 -0.2366621675 0.5011997902 0.0914159634 0.3235545946
-0.4812751302 0.0901901383 -0.3137948674 0.4999449166 0.0909428787 0.3260787589
-0.4209026013 0.0061710511 -0.2388281925 0.4982145465 0.0920262607 0.3234248230
-0.4481746316 0.0942438199 -0.2462567495 0.5000153103 0.0899613507 0.3244576025
-0.4649332990 0.0942438199 -0.2613785924 0.5000309098 0.0899614407 0.3244633171
-0.4959858237 0.0266086823 -0.3173327225 0.5020194244 0.0921695798 0.3242699245
-0.4208399163 0.1493309883 -0.3159367724 0.5003548408 0.0918915498 0.3227688132
-0.4188772438 0.1262904027 -0.3132841644 0.5017826197 0.0921581463 0.3244121812
-0.4946356932 0.0813923899 -0.2746052220 0.5001045228 0.0935830015 0.3239430462
-0.4253029588 0.0233484501 -0.3156578557 0.4985890479 0.0919129132 0.3256178553
-0.4895601087 0.0940223341 -0.3112427276 0.4990742280 0.0909932327 0.3240093339
-0.4198118426 0.0921019149 -0.2586695752 0.4997153151 0.0906490800 0.3244064645
-0.4959858237 0.0207249314 -0.3207704394 0.5014697859 0.0921017435 0.3255105522
-0.4905570027 0.0898528118 -0.3161562063 0.4994127346 0.0918161719 0.3262964300
-0.4279575266 0.0921019149 -0.2750145422 0.4999731919 0.0899770273 0.3242478564
-0.4720882341 0.0886713456 -0.3137948674 0.4999607367 0.0913964699 0.3263329238
-0.4736894345 0.0870984741 -0.3137949338 0.4999641659 0.0917984091 0.3265244444
-0.4308778727 0.0921019149 -0.2692135930 0.4999785060 0.0899781175 0.3242472031
-0.4253029588 0.0265700509 -0.3194224015 0.4984713117 0.0920370644 0.3241409625
-0.4495050202 0.0942438199 -0.2638269976 0.5000098463 0.0899608110 0.3244906456
-0.4904633329 0.1193034358 -0.3159367724 0.4997559492 0.0905365572 0.3253179757
-0.4959858237 0.0638498196 -0.3157281251 0.5019569322 0.0921270459 0.3242667501
-0.4946117038 0.0400922077 -0.2324024775 0.4998432297 0.0917588952 0.3261595238
-0.4895600423 0.0629928327 -0.3157406103 0.4986482009 0.0926114698 0.3250269808
-0.4895601087 0.1714260342 -0.3154536550 0.4987520233 0.0914756797 0.3257210180
-0.4975908152 0.0872741467 -0.2474189515 0.5020701876 0.0918354212 0.3245114221
-0.4397792508 0.0921019149 -0.2461765459 0.4999337616 0.0899866959 0.3242723662
-0.4145934338 0.0624369719 -0.2328500371 0.5015163295 0.0919543805 0.3257987991
-0.4924869255 0.1588241426 -0.3159367724 0.5000772200 0.0913413244 0.3258950606
-0.4777776693 0.0921019149 -0.2683210248 0.4997826502 0.0900297867 0.3241503183
-0.4785678758 0.0942438199 -0.2793310355 0.5000400986 0.0899611879 0.3244759800
-0.4464907452 0.0942438199 -0.3057690637 0.4997927664 0.0899977374 0.3247943163
-0.4576371738 0.1867772151 -0.3137948674 0.4999299426 0.0921798053 0.3223900001
-0.4189631342 0.0167286164 -0.3232763654 0.5009388484 0.0921555310 0.3226112932
-0.4391625899 0.1318727919 -0.3116529624 0.4997892858 0.0920367967 0.3223833388
-0.4434631346 0.0921019149 -0.2485789322 0.4999168084 0.0899908854 0.3242618195
-0.4705671089 0.0921019149 -0.2546487312 0.4998966595 0.0900212170 0.3241257678
-0.4895601087 0.0678157837 -0.3115724310 0.4988004540 0.0928207532 0.3231478532
-0.4903649574 0.1865327616 -0.3159367724 0.4991095673 0.0918110078 0.3262162371
-0.4570362024 0.0921019149 -0.3019387614 0.4999695485 0.0900024410 0.3240943054
-0.4456264779 0.1840904694 -0.3137948674 0.4999573397 0.0919178481 0.3224237309
-0.4799936992 0.1313346147 -0.3116529624 0.4999669204 0.0921156488 0.3223532172
-0.4440812327 0.0921019149 -0.2288528547 0.4994230500 0.0903717247 0.3241054561
-0.4981277287 0.0321810838 -0.2327440792 0.4985188213 0.0917162092 0.3258246712
-0.4867429746 0.0921019149 -0.3028400900 0.4994830298 0.0900411709 0.3242691127
-0.4707161426 0.1837571290 -0.3095110574 0.4999135227 0.0918861008 0.3265565408
-0.4253029588 0.1438660312 -0.3130228970 0.4991743984 0.0913437019 0.3228285423
-0.4825797003 0.0921019149 -0.2967147301 0.4995329191 0.0900362960 0.3242638457
-0.4597114910 0.0862659049 -0.2324024775 0.5000000000 0.0920397547 0.3266246406
-0.4253029588 0.0469804542 -0.3148341175 0.4984464527 0.0924289131 0.3248944118
-0.4280441367 0.1501146663 -0.3095110574 0.4994393842 0.0913373683 0.3263956688
-0.4744660442 0.1356068477 -0.3095110574 0.4999944717 0.0926464064 0.3264938537
-0.4531602089 0.0919744158 -0.3095110574 0.4999530516 0.0900349102 0.3240771830
-0.4877499998 0.1536161755 -0.3095110574 0.4996040132 0.0921766995 0.3265873500
-0.4959858237 0.1117370943 -0.3079046950 0.5020483809 0.0918170308 0.3240571176
-0.4933992357 0.0150193420 -0.3234570372 0.5000275577 0.0920236026 0.3262907818
-0.4895600423 0.0634744935 -0.3117906890 0.4987879666 0.0927525442 0.3230219521
-0.4654058932 0.0889018917 -0.2324024775 0.5000000000 0.0916272259 0.3264824845
-0.4213696394 0.0813923899 -0.3044892690 0.4991909361 0.0908651961 0.3246234416
-0.4188772438 0.1390466679 -0.3155864124 0.5013519126 0.0921653581 0.3230043606
-0.4900481289 0.1798794435 -0.3159367724 0.4990635249 0.0916761620 0.3261196479
-0.4850506555 0.1499333498 -0.3123428336 0.4983791391 0.0910083631 0.3248270682
-0.4895601087 0.1419466766 -0.3121375834 0.4985982024 0.0908869707 0.3251478121
-0.4823628817 0.0942438199 -0.2982620679 0.5000577629 0.0899630171 0.3245637189
-0.4864253644 0.0942438199 -0.2783576082 0.5000524146 0.0899616934 0.3244672239
-0.4921959820 0.0814727070 -0.2651956920 0.4981405373 0.0928286076 0.3238305212
-0.4942162418 0.0695157323 -0.2324024775 0.4999371051 0.0915293387 0.3261939142
-0.4176223531 0.0921019149 -0.2375113343 0.5007266520 0.0911294086 0.3246849400
-0.4527629155 0.0921019149 -0.3075126964 0.4999637204 0.0900003441 0.3241003220
-0.4188772438 0.0346077872 -0.3159138947 0.5020065537 0.0919326401 0.3250937675
-0.4981277287 0.0452386742 -0.2369559876 0.4982733911 0.0919369454 0.3241818022
-0.4234139550 0.0942438199 -0.2500705142 0.4999191881 0.0899720924 0.3245626822
-0.4420520840 0.1325235133 -0.3116529624 0.4998379092 0.0920944825 0.3223632606
-0.4621521167 0.1326835843 -0.3095110574 0.4999246392 0.0921669581 0.3266295262
-0.4170664816 0.0910374202 -0.2494252889 0.5019189048 0.0912464616 0.3243676789
-0.4188772438 0.0706749506 -0.3154599950 0.5019249964 0.0920861312 0.3246670443
-0.4961170775 0.0813923899 -0.2640544058 0.5005560535 0.0936536158 0.3236430060
-0.4425437647 0.1366640941 -0.3115445863 0.5000683289 0.0937498452 0.3237488868
-0.4932184996 0.0921019149 -0.2333725698 0.5007969707 0.0913551526 0.3260404767
-0.4895600423 0.1359528082 -0.3096774791 0.4986605447 0.0911592175 0.3252658310
-0.4242939738 0.0164744901 -0.3231498838 0.4988102275 0.0921622845 0.3229721678
-0.4618041107 0.1242304877 -0.3103373465 0.4996559072 0.0915033595 0.3250417021
-0.4959858237 0.1312692288 -0.3131406225 0.5017943509 0.0920382982 0.3246052054
-0.4840678167 0.0942438199 -0.3007929664 0.5000644178 0.0899636147 0.3245811304
-0.4188772438 0.1242443116 -0.3099403787 0.5017841083 0.0917858639 0.3254993565
-0.4613277254 0.1314807290 -0.3116529624 0.4999036742 0.0920857092 0.3223589854
-0.4531866165 0.1535646413 -0.3095110574 0.4991543631 0.0915679016 0.3261961310
-0.4242347522 0.1846244421 -0.3159367724 0.4991553676 0.0922415757 0.3227247328
-0.4537832741 0.0921019149 -0.2411315500 0.4999970699 0.0900020276 0.3241608522
-0.4152983390 0.0424529640 -0.2324024775 0.5012512752 0.0919637449 0.3260529982
-0.4711618709 0.0942438199 -0.2437552015 0.5000511294 0.0899628072 0.3244324715
-0.4981277287 0.0761734178 -0.2324605231 0.4986343535 0.0912394276 0.3258330803
-0.4686028685 0.0942438199 -0.2916505191 0.4997784028 0.0900120475 0.3248034473
-0.4905666113 0.0942438199 -0.2290540524 0.5000891761 0.0899647606 0.3243934031
-0.4216073759 0.0845765651 -0.2576506539 0.4980261210 0.0913469105 0.3243084873
-0.4145934338 0.0281541781 -0.2386750398 0.5016470350 0.0917924610 0.3233187880
-0.4253029588 0.1460121729 -0.3110149917 0.4994241895 0.0914670114 0.3246199460
-0.4547199013 0.0942438199 -0.2589700609 0.5000171802 0.0899609952 0.3244694900
-0.4291211037 0.0942438199 -0.2699001957 0.4998799548 0.0899790279 0.3246371155
-0.4189441119 0.0765759867 -0.2324024775 0.5003357350 0.0914337390 0.3262213327
-0.4691624647 0.0942438199 -0.2610511101 0.5000374191 0.0899616998 0.3244588833
-0.4365191985 0.0921019149 -0.2826340972 0.4999723244 0.0899844576 0.3242031806
-0.4288925838 0.0873972013 -0.2366862875 0.4997109563 0.0905811024 0.3235295257
-0.4674597509 0.0813923899 -0.3124065638 0.4987496822 0.0932931568 0.3243787568
-0.4479227779 0.0813923899 -0.3118912215 0.4987339821 0.0931122386 0.3240249119
-0.4889171710 0.1297564569 -0.3095110574 0.4999982565 0.0920270018 0.3266252360
-0.4259104673 0.0942438199 -0.3104259828 0.4994462876 0.0904284745 0.3241308784
-0.4145934338 0.0454292267 -0.2348997759 0.5015418482 0.0919632137 0.3248608610
-0.4643973001 0.1906295448 -0.3100949043 0.4999054606 0.0941084836 0.3247805889
-0.4924022110 0.0888908844 -0.2618951792 0.4987406820 0.0910656762 0.3240489184
-0.4683884038 0.0942438199 -0.2345085613 0.5000527316 0.0899631799 0.3244219612
-0.4282284690 0.0921019149 -0.2981455868 0.4999578794 0.0899811933 0.3242066997
-0.4861127191 0.0921019149 -0.2359316408 0.5000632762 0.0900984069 0.3242695882
-0.4210191488 0.0566609138 -0.2382463076 0.4988234109 0.0918620665 0.3228892182
-0.4914290472 0.0858068004 -0.2774650400 0.4986844034 0.0916887178 0.3239686741
-0.4758368956 0.0921019149 -0.2757329114 0.4997133896 0.0900279425 0.3241995929
-0.4897528716 0.1906295448 -0.3157714623 0.4988890217 0.0918717436 0.3261803709
-0.4430810702 0.1526651804 -0.3137948674 0.4993047762 0.0915977768 0.3227059354
-0.4895601087 0.0263751590 -0.3182366000 0.4985086237 0.0921986647 0.3243043470
-0.4931036506 0.1513339907 -0.3086378370 0.5002980097 0.0920328984 0.3232924040
-0.4229533212 0.1906295448 -0.3151432330 0.4997039073 0.0922774504 0.3230432362
-0.4981277287 0.0431536133 -0.2354916635 0.4982832482 0.0919396849 0.3248564809
-0.4863288180 0.0921019149 -0.2721240028 0.4997592799 0.0900394360 0.3241169068
-0.4220108787 0.1313811283 -0.3159367724 0.4999466430 0.0917286280 0.3228463566
-0.4696856507 0.0942438199 -0.2367397559 0.5000532820 0.0899631264 0.3244239081
-0.4188772438 0.1674103136 -0.3091910911 0.5018088302 0.0919908935 0.3255556115
-0.4400075072 0.0942438199 -0.2296617558 0.5000134319 0.0899618369 0.3244417309
-0.4603737123 0.1544350515 -0.3137948674 0.4996667260 0.0921142158 0.3224098342
-0.4899992357 0.0733076431 -0.3177703480 0.4990723452 0.0918358410 0.3263177891
-0.4895601087 0.1263239792 -0.3139784800 0.4988904761 0.0905943051 0.3249080708
-0.4500980195 0.0867314544 -0.3095110574 0.4995596929 0.0914283479 0.3233395645
-0.4214935079 0.0815954446 -0.2540080810 0.4980341082 0.0913191771 0.3242776674
-0.4767505787 0.0921019149 -0.2626253803 0.4998326637 0.0900284116 0.3241279376
-0.4232772736 0.0921019149 -0.2713666102 0.4999733204 0.0899730541 0.3242713809
-0.4619060804 0.0921019149 -0.2623923496 0.4998158433 0.0900119275 0.3242180282
-0.4253029588 0.0736543747 -0.3175103871 0.4989198245 0.0909955588 0.3241599569
-0.4266175958 0.0921019149 -0.2694910704 0.4999762206 0.0899751189 0.3242623678
-0.4719965927 0.0921019149 -0.2705507158 0.4997551910 0.0900234638 0.3241970933
-0.4253029588 0.1062246554 -0.3082306737 0.4994871723 0.0906815641 0.3253682055
-0.4939149057 0.0942438199 -0.2426620910 0.5000857255 0.0899641716 0.3244095617
-0.4181309634 0.0835687496 -0.2834891478 0.5021408276 0.0921019149 0.3244687232
-0.4853102244 0.0921019149 -0.2978121565 0.4995265105 0.0900393717 0.3242525879
-0.4893774107 0.0824655764 -0.3137948674 0.4992519697 0.0928143939 0.3259216545
-0.4199639500 0.0073534512 -0.3176523612 0.5013914500 0.0919585465 0.3251694410
-0.4534345484 0.0855472979 -0.3137948674 0.5000000000 0.0921019149 0.3266347268
-0.4227697085 0.0890797962 -0.2948469696 0.4979839448 0.0914324796 0.3246236986
-0.4959857573 0.0771747541 -0.3147663327 0.5019949682 0.0921261720 0.3238452104
-0.4165474124 0.0940912241 -0.2786341710 0.5009433978 0.0907979060 0.3251759396
-0.4200783385 0.0875705028 -0.2324024775 0.5001767629 0.0911255018 0.3262495180
-0.4704402331 0.1569289593 -0.3137948674 0.4994346720 0.0922836170 0.3224820164
-0.4548204338 0.0921019149 -0.2833948247 0.4999808385 0.0899976731 0.3241346396
-0.4227701669 0.0818150863 -0.2948595190 0.4980256669 0.0913197147 0.3246399107
-0.4700430061 0.1835872588 -0.3137948674 0.4998959784 0.0918775996 0.3224330353
-0.4229644998 0.0505369633 -0.3193651398 0.4994776365 0.0922208934 0.3227152570
-0.4372762656 0.0885812035 -0.3137948674 0.4999911325 0.0914820026 0.3264101888
-0.4313491604 0.0921019149 -0.3121403293 0.4999832246 0.0904454941 0.3253665820
-0.4188772438 0.0523485073 -0.3153967210 0.5020037500 0.0919897926 0.3251305633
-0.4207984748 0.0942438199 -0.2447734032 0.4999321787 0.0899692843 0.3245393054
-0.4938275117 0.0114480924 -0.2388281925 0.5004682825 0.0919746129 0.3230721819
-0.4218575290 0.0921019149 -0.2591382476 0.4995004392 0.0903353402 0.3244660887
-0.4190222251 0.0964857154 -0.3159367060 0.5015157191 0.0921426239 0.3230569487
-0.4253029588 0.1301330253 -0.3129073305 0.4990489235 0.0912049558 0.3228312069
-0.4351301774 0.0878400273 -0.2366862875 0.4997466191 0.0905309025 0.3235628945
-0.4526433608 0.0921019149 -0.2500016841 0.4999156882 0.0900011323 0.3242125492
-0.4621170173 0.1874163446 -0.3095110574 0.4999342756 0.0922383842 0.3266047637
-0.4976667051 0.0941342165 -0.2762720482 0.5001752892 0.0900546264 0.3244394541
-0.4643423924 0.0942438199 -0.2763377426 0.5000207486 0.0899605475 0.3244850895
-0.4548634432 0.1532056002 -0.3137948674 0.4995172146 0.0918711032 0.3225435983
-0.4162526777 0.0613430860 -0.2388281925 0.5007154391 0.0913865036 0.3227615564
-0.4368015787 0.0921019149 -0.2498349346 0.4998970001 0.0899835430 0.3243091020
-0.4248942919 0.0921019149 -0.2591379199 0.4999822843 0.0899721095 0.3242866741
-0.4953723007 0.0904988425 -0.2829158241 0.5015413877 0.0911324951 0.3240247899
-0.4923482843 0.0357883217 -0.3137030932 0.4991952413 0.0923834747 0.3228904541
-0.4667719724 0.1777781148 -0.3102672741 0.4999146001 0.0913074116 0.3257768981
-0.4924809110 0.0768322784 -0.3080025458 0.4997323454 0.0923871481 0.3224631441
-0.4918197371 0.0597674022 -0.3190913893 0.4996907539 0.0918778888 0.3263758347
-0.4639603301 0.0898954657 -0.3137948674 0.4999652347 0.0911133979 0.3262153397
-0.4641798946 0.0921019149 -0.2580867736 0.4998575376 0.0900142708 0.3241823570
-0.4252894927 0.0921019149 -0.2534203122 0.4999862961 0.0899714091 0.3242951497
-0.4322301602 0.0921019149 -0.2395468894 0.4999838779 0.0899780426 0.3242853762
-0.4677270971 0.1906295448 -0.3136379236 0.4999415067 0.0938890604 0.3233777246
-0.4981277287 0.0135964359 -0.2326343944 0.4984921524 0.0918889560 0.3258992737
-0.4590984263 0.0911610103 -0.2366862875 0.4999850109 0.0901291154 0.3239533937
-0.4908787318 0.1468612326 -0.3159367724 0.4996445380 0.0910711338 0.3256969173
-0.4723443374 0.0921019149 -0.2863374595 0.4996133819 0.0900245048 0.3242744910
-0.4533148630 0.1298223784 -0.3116529624 0.4998533523 0.0919876700 0.3223764397
-0.4218299455 0.0813923899 -0.2982220657 0.4987429031 0.0910381420 0.3246074844
-0.4810624305 0.0865106904 -0.2324024775 0.5000000000 0.0920139511 0.3266204531
-0.4234087908 0.1559223154 -0.3087397424 0.5001030620 0.0914206477 0.3255127541
-0.4668840754 0.0942438199 -0.2429938207 0.5000452242 0.0899626080 0.3244354080
-0.4470304045 0.1282426227 -0.3095109910 0.4996358590 0.0918691733 0.3265210859
-0.4183422259 0.0921019149 -0.2556047062 0.5008539133 0.0908076367 0.3243978476
-0.4203856247 0.0547162462 -0.2324024775 0.4997831364 0.0914642398 0.3263256992
-0.4418044776 0.0921019149 -0.2387198806 0.5000035320 0.0899886343 0.3242223463
-0.4584789553 0.1605053859 -0.3137948674 0.4992156130 0.0923667079 0.3225401691
-0.4796603352 0.0892009038 -0.2324024775 0.5000000000 0.0913385228 0.3262920006
-0.4934664979 0.1410756773 -0.3084338291 0.5008848724 0.0911157390 0.3236849766
-0.4158491749 0.0469051449 -0.2388281925 0.5009277147 0.0915386217 0.3228437820
-0.4585512489 0.1627717484 -0.3137948674 0.5000246255 0.0940156042 0.3236640888
-0.4926767476 0.0507971233 -0.2324024775 0.5006743381 0.0916954863 0.3262006398
-0.4435653013 0.0921019149 -0.2632307962 0.4999887550 0.0899861604 0.3242109899
-0.4365901856 0.1310574693 -0.3116529624 0.4997168316 0.0919563917 0.3224148826
-0.4768651642 0.1553655207 -0.3095110574 0.4995896281 0.0922183681 0.3265826999
-0.4208549504 0.0921019149 -0.2750577487 0.4991777270 0.0907715177 0.3244958419
-0.4664570416 0.0942438199 -0.2587122591 0.5000348359 0.0899616806 0.3244581058
-0.4560129672 0.0921019149 -0.2305479862 0.5001298230 0.0909179962 0.3252193238
-0.4896530588 0.0138053938 -0.3167562631 0.4984625020 0.0923878849 0.3231104599
-0.4701356949 0.0894455200 -0.3137948674 0.4999600406 0.0912005113 0.3262406505
-0.4418040193 0.0942438199 -0.2348455879 0.5000128943 0.0899616420 0.3244473963
-0.4623448154 0.1532205121 -0.3095110574 0.4990286568 0.0914987095 0.3260987965
-0.4945366001 0.0440967005 -0.3125491269 0.5002822688 0.0923404096 0.3229958058
-0.4210740565 0.0921019149 -0.2336216798 0.4999986806 0.0910085067 0.3259023816
-0.4186263711 0.0856761999 -0.2842011106 0.5000000000 0.0899662000 0.3246251701
-0.4959858237 0.0639594765 -0.3179412785 0.5015841722 0.0920632899 0.3257288188
-0.4707856260 0.1516381777 -0.3137948674 0.4996863009 0.0919692560 0.3224602996
-0.4419006299 0.0942438199 -0.2962093883 0.4998159140 0.0899927853 0.3247525449
-0.4957549521 0.0888746445 -0.2767934714 0.5019478912 0.0915468338 0.3244702525
-0.4180874956 0.0820259333 -0.2820946349 0.5012712549 0.0908247762 0.3243232022
-0.4604210356 0.0921019149 -0.2391173047 0.5000236788 0.0900093123 0.3241098963
-0.4884315026 0.1886004946 -0.3122786428 0.4998524977 0.0924464896 0.3237816622
-0.4762917098 0.0921019149 -0.2379371257 0.5000545415 0.0900268759 0.3240063780
-0.4453494589 0.0833658555 -0.2366862875 0.4997152530 0.0911118193 0.3228573981
-0.4412308926 0.0852643308 -0.3137948674 0.5000000000 0.0921019149 0.3266347268
-0.4959858237 0.1239221712 -0.3130523118 0.5018697524 0.0920616706 0.3241667939
-0.4253029588 0.0228298393 -0.3192629731 0.4984574664 0.0920000437 0.3244031595
-0.4745606286 0.1504567222 -0.3137948674 0.4996847994 0.0918969389 0.3224885128
-0.4890222143 0.0921019149 -0.2468049059 0.4999908583 0.0900413744 0.3239727887
-0.4178764944 0.0565077141 -0.2324024775 0.5003902872 0.0918384049 0.3262133927
-0.4174935818 0.0539956536 -0.2388281925 0.5000041874 0.0915126832 0.3233177727
-0.4666702640 0.0942438199 -0.2910569330 0.4997656670 0.0900139495 0.3248172540
-0.4390748039 0.0921019149 -0.2921268402 0.4999672460 0.0899879146 0.3241773128
-0.4253029588 0.1527166311 -0.3150772131 0.4988150960 0.0915451417 0.3229252622
-0.4789498096 0.1827583480 -0.3137948674 0.4998793315 0.0917964600 0.3224440811
-0.4979126108 0.0820778809 -0.2422704844 0.5011924820 0.0931161926 0.3236290279
-0.4999177701 0.0936553979 -0.2281186675 0.5002453038 0.0900221316 0.3242280609
-0.4253029588 0.0167147262 -0.3188126697 0.4984356361 0.0919293352 0.3249133206
-0.4167996581 0.0866483656 -0.2408870837 0.5020879611 0.0919467938 0.3242531662
-0.4908174841 0.0208447538 -0.3157785220 0.4987108773 0.0923880948 0.3230297507
-0.4472323840 0.0942438199 -0.2434714484 0.5000156338 0.0899614578 0.3244545352
-0.4187006266 0.0905751950 -0.3017165173 0.5015369132 0.0908528416 0.3245262312
-0.4213879420 0.0942438199 -0.2766363969 0.4998888951 0.0899729234 0.3246314373
-0.4817542615 0.0847227951 -0.3137948674 0.4999769060 0.0921019149 0.3266343413
-0.4753537782 0.0869721702 -0.2366862875 0.5001084682 0.0906757703 0.3233019590
-0.4835565268 0.0942438199 -0.2798402349 0.5000472183 0.0899614450 0.3244720196
-0.4362403482 0.1844505944 -0.3095110574 0.4999935336 0.0919628795 0.3265665392
-0.4953890354 0.0942438199 -0.2393220301 0.5000899964 0.0899644479 0.3244034401
-0.4339985640 0.1849065524 -0.3095110574 0.4999992460 0.0920076668 0.3265725237
-0.4541323939 0.0921019149 -0.2515844491 0.4999033251 0.0900028501 0.3242113691
-0.4981277287 0.0394716250 -0.2373736077 0.4983006576 0.0919445234 0.3239443613
-0.4895601087 0.1001662215 -0.3141003866 0.4993856288 0.0904210785 0.3248047903
-0.4176164029 0.0911428598 -0.2670225335 0.5017599819 0.0910494770 0.3244241352
-0.4953775291 0.0813923899 -0.2583261422 0.4998870145 0.0934271522 0.3236592031
-0.4253029588 0.0807296417 -0.3124192460 0.4984543564 0.0929356707 0.3242009080
-0.4374685058 0.0903823871 -0.3095110574 0.4998263301 0.0904474732 0.3239074242
-0.4265205268 0.0942438199 -0.2861979701 0.4998644967 0.0899783510 0.3246749501
-0.4629788642 0.1608670466 -0.3137949338 0.4992566990 0.0925457861 0.3226356188
-0.4895601087 0.1706481007 -0.3114657556 0.4990284447 0.0922799265 0.3234746930
-0.4188772438 0.1607432852 -0.3116673431 0.5017597699 0.0921841319 0.3246977636
-0.4677789333 0.1906295448 -0.3096795054 0.4998660238 0.0941917523 0.3247978162
-0.4797532853 0.0942438199 -0.2774894856 0.5000430073 0.0899613614 0.3244722552
-0.4959858237 0.1250880058 -0.3108506626 0.5019709231 0.0919901289 0.3237655787
-0.4189246999 0.0856761999 -0.2862190164 0.5005450677 0.0940149745 0.3245881130
-0.4895601087 0.1831178432 -0.3159178165 0.4988608000 0.0917235966 0.3261408185
-0.4188772438 0.0453709005 -0.3159761877 0.5020281570 0.0920160481 0.3250915099
-0.4895601751 0.0862918819 -0.3077714129 0.4987188088 0.0921961458 0.3229064263
-0.4145934338 0.0078209562 -0.2325300065 0.5015139884 0.0919889101 0.3259468561
-0.4560841492 0.0884463320 -0.3137948674 0.4999772037 0.0915107834 0.3264204549
-0.4670022571 0.0942438199 -0.3152295153 0.4994333590 0.0903631528 0.3244146508
-0.4253029588 0.1501545636 -0.3088340633 0.4994271625 0.0915720783 0.3259014756
-0.4576767862 0.0921019149 -0.2388874783 0.5000222523 0.0900062558 0.3241256093
-0.4188773102 0.0150270229 -0.3175082302 0.5020730877 0.0920022221 0.3249862439
-0.4145934338 0.0066493149 -0.2357740437 0.5015536351 0.0919867468 0.3244616828
-0.4283710964 0.1541584459 -0.3095110574 0.4994903508 0.0917229798 0.3264546568
-0.4518899565 0.1282772017 -0.3095110574 0.4997173328 0.0918592563 0.3265403416
-0.4929009515 0.1654766639 -0.3089520502 0.5002837874 0.0920113144 0.3231983615
-0.4332726789 0.1614398477 -0.3103600935 0.4997992842 0.0929887963 0.3259436390
-0.4934624433 0.0942438199 -0.2652345847 0.5000710470 0.0899628479 0.3244420030
-0.4338307051 0.0942438199 -0.2744122621 0.4998631751 0.0899835901 0.3246649731
-0.4253029588 0.0143363763 -0.3186955332 0.4984268993 0.0919049517 0.3250867935
-0.4639158170 0.1526846932 -0.3137948674 0.4996323613 0.0919706075 0.3224743141
-0.4170486374 0.0850089387 -0.2488541885 0.5021397909 0.0921019149 0.3244086278
-0.4188772438 0.1391980084 -0.3129867502 0.5017154774 0.0921774856 0.3241997385
-0.4963623299 0.0751188637 -0.2324024775 0.4992293254 0.0913467284 0.3260028862
-0.4670576875 0.1906295448 -0.3115975320 0.4999090976 0.0940344637 0.3241368907
-0.4959858237 0.1577241437 -0.3157615924 0.5012312441 0.0920391699 0.3261247328
-0.4392975042 0.0942438199 -0.2321509493 0.5000108295 0.0899616549 0.3244459269
-0.4800638380 0.0921019149 -0.2474752322 0.4999734018 0.0900314596 0.3240312413
-0.4685324041 0.0876344515 -0.3095111238 0.4996170617 0.0911940470 0.3234295052
-0.4325684933 0.0877979538 -0.3095110574 0.4996307591 0.0911319211 0.3235562781
-0.4188772438 0.0915853902 -0.3140126670 0.5019826501 0.0920850452 0.3252276537
-0.4239619806 0.0469247047 -0.3197664857 0.4990724566 0.0922130198 0.3228191008
-0.4944592066 0.1309045630 -0.3082126324 0.5011892199 0.0911317968 0.3233677091
-0.4649348026 0.0942438199 -0.2934604310 0.4997665002 0.0900126665 0.3248185049
-0.4151629000 0.0298910960 -0.2324024775 0.5013015950 0.0919723061 0.3260440001
-0.4895601087 0.1004864534 -0.3088411894 0.4985539293 0.0916683676 0.3237100219
-0.4695231529 0.0828096777 -0.3137948674 0.4994919551 0.0925849937 0.3261512324
-0.4904398020 0.0824124422 -0.2932951209 0.4981983709 0.0926054875 0.3240821072
-0.4580323767 0.0921019149 -0.3092743019 0.4999651405 0.0900044137 0.3240779091
-0.4342398304 0.1777781148 -0.3107447711 0.4999815968 0.0913066427 0.3253355736
-0.4188772438 0.0473743035 -0.3151772871 0.5019819497 0.0919265378 0.3251440680
-0.4250155451 0.1456018589 -0.3159367724 0.4988562077 0.0918309917 0.3228497772
-0.4345804511 0.1343604325 -0.3095110574 0.4998506343 0.0922143499 0.3266252017
-0.4959858901 0.0102154004 -0.3194559994 0.5017949721 0.0921571675 0.3247188656
-0.4491902202 0.0871041908 -0.2324024775 0.5000000000 0.0919513904 0.3266103005
-0.4963906331 0.0724726836 -0.2324024775 0.4992145227 0.0913716067 0.3260058142
-0.4713059376 0.0901413436 -0.2324024775 0.5000000000 0.0912102120 0.3262548814
-0.4222168464 0.0873849453 -0.2324024775 0.5000000000 0.0919217978 0.3266054984
-0.4454604503 0.0942438199 -0.2764386006 0.4998337325 0.0899939612 0.3247079462
-0.4374362145 0.0942438199 -0.2574791986 0.4998771553 0.0899850852 0.3246285586
-0.4973737996 0.0638625703 -0.2324024775 0.4988678854 0.0914000833 0.3259407046
-0.4895601087 0.1351655596 -0.3154016881 0.4990586970 0.0907839965 0.3252058705
-0.4188773102 0.0931942757 -0.3082585849 0.5016287024 0.0913505860 0.3256040485
-0.4654195564 0.0921019149 -0.2344248942 0.5000068455 0.0901966004 0.3250554724
-0.4895601087 0.0093627380 -0.3181592087 0.4983588831 0.0923423330 0.3234769827
-0.4211417750 0.1906295533 -0.3126426660 0.5006648923 0.0922407382 0.3241511023
-0.4502822854 0.1831434411 -0.3095110574 0.4999614714 0.0918346630 0.3265489285
-0.4981277287 0.0417594173 -0.2327374779 0.4985386575 0.0916192880 0.3258077266
-0.4919084398 0.0167582112 -0.3163460926 0.4993937081 0.0923504423 0.3232416687
-0.4895601087 0.1664321891 -0.3103035515 0.4992016413 0.0922797722 0.3250677369
-0.4752034357 0.0942438199 -0.2623062643 0.5000456440 0.0899619740 0.3244549915
-0.4948277385 0.0267351168 -0.3223139861 0.5006629624 0.0920035779 0.3263557608
-0.4701977266 0.0921019149 -0.2580570975 0.4998654755 0.0900209492 0.3241452099
-0.4959858237 0.0490167119 -0.3155630100 0.5020434823 0.0921326619 0.3239256603
-0.4582184075 0.1242304898 -0.3097460479 0.4995225137 0.0916155075 0.3260474871
-0.4594846718 0.1777781148 -0.3095274644 0.4999296084 0.0913072403 0.3264642719
-0.4501435135 0.1828905100 -0.3137948674 0.4999424085 0.0918059036 0.3224402107
-0.4170966161 0.0251538362 -0.2324024775 0.5005880686 0.0919654927 0.3261778328
-0.4918318303 0.0779961018 -0.2324024775 0.5008689923 0.0915343765 0.3263051069
-0.4895601087 0.0474174650 -0.3182892202 0.4986926733 0.0920231356 0.3253088940
-0.4946856338 0.0735302299 -0.3177486462 0.5009927430 0.0919906279 0.3260497511
-0.4793003003 0.0921019149 -0.2307464358 0.4991227807 0.0907401945 0.3250272228
-0.4304284839 0.1499333455 -0.3124641511 0.4990005314 0.0910543306 0.3240553698
-0.4253029588 0.0791617458 -0.3145866418 0.4983013130 0.0927381142 0.3243015111
-0.4188771774 0.0616657876 -0.3152619374 0.5020107540 0.0920375356 0.3251409451
-0.4959858237 0.0148519007 -0.3233261754 0.5010714216 0.0920569991 0.3262819593
-0.4578760219 0.0942438199 -0.2779716884 0.4998838916 0.0899885722 0.3246546106
-0.4932578485 0.0834489186 -0.2482046493 0.4983829238 0.0923195667 0.3237261569
-0.4618593440 0.0942438199 -0.2532326471 0.5000313832 0.0899617320 0.3244546488
-0.4891090192 0.0942438199 -0.2896829438 0.5000493880 0.0899611965 0.3244807672
-0.4666369938 0.0942438199 -0.2693134722 0.5000285280 0.0899610808 0.3244729728
-0.4231311807 0.1138121911 -0.3159367724 0.4995586583 0.0915727358 0.3229225484
-0.4195008338 0.0476336089 -0.3201737796 0.5009623044 0.0921678727 0.3227846183
-0.4933858359 0.1302321933 -0.3159367724 0.5006023401 0.0912293135 0.3256911191
-0.4774075695 0.1777781148 -0.3121501349 0.4998926991 0.0913076644 0.3240313891
-0.4895601087 0.1096907889 -0.3145413448 0.4993470403 0.0903157417 0.3250709284
-0.4355714613 0.0921019149 -0.2987304147 0.4999611094 0.0899865438 0.3241787136
-0.4959858237 0.1479428518 -0.3088128863 0.5019597938 0.0919146438 0.3237609157
-0.4253029588 0.1020844645 -0.3096250560 0.4993862029 0.0906939786 0.3248055185
-0.4650420028 0.1549785813 -0.3137948674 0.4996374312 0.0921848644 0.3224093908
-0.4917786232 0.0909395159 -0.2718728024 0.4989390866 0.0905573593 0.3241749674
-0.4773069064 0.0942438199 -0.2580410182 0.5000514271 0.0899623381 0.3244469658
-0.4919939382 0.1071270443 -0.3076957843 0.5003003786 0.0905364908 0.3237926009
-0.4936574959 0.0942438199 -0.2800642439 0.5000621367 0.0899620083 0.3244628544
-0.4330091239 0.0921019149 -0.3095730891 0.4999533879 0.0899974290 0.3241975323
-0.4910295969 0.1145412249 -0.3078569113 0.4999980487 0.0904929608 0.3240825356
-0.4785595760 0.0921019149 -0.2450232307 0.4999935786 0.0900296882 0.3240281355
-0.4185373428 0.0936943870 -0.2281186675 0.4997985731 0.0900334044 0.3242709204
-0.4963692590 0.0882493368 -0.2669646849 0.5020263642 0.0916727842 0.3245297547
-0.4231247100 0.0243438084 -0.3152925281 0.4991644236 0.0918151524 0.3259888803
-0.4247511420 0.0042838100 -0.3210819066 0.4985931690 0.0919576233 0.3245328133
-0.4661415198 0.0942438199 -0.2820833920 0.5000387085 0.0899624602 0.3245426768
-0.4946572000 0.0220057970 -0.2324024775 0.4999569541 0.0918660290 0.3260900575
-0.4959858237 0.0404981694 -0.3157355768 0.5020577003 0.0921299760 0.3239683849
-0.4296120004 0.0910604543 -0.2324024775 0.5000000000 0.0915343636 0.3265426249
-0.4672581634 0.0942438199 -0.2792977653 0.5000232589 0.0899605432 0.3244865524
-0.4175161981 0.0411230745 -0.2324024775 0.5004327269 0.0919533566 0.3262063929
-0.4864741912 0.1887962304 -0.3100728105 0.4998622070 0.0926015549 0.3258062251
-0.4936398466 0.1601709146 -0.3088342604 0.5005975551 0.0920265755 0.3233118632
-0.4506740227 0.1801479013 -0.3137948674 0.4999429032 0.0915396027 0.3224755393
-0.4208481520 0.1906295448 -0.3158327101 0.5003164558 0.0922180211 0.3226764114
-0.4938912441 0.0813923899 -0.3032174465 0.5008180621 0.0939528721 0.3243770411
-0.4192902909 0.0528195893 -0.3113376376 0.5006904388 0.0918670229 0.3260473543
-0.4895601087 0.0198077505 -0.3172656574 0.4983722572 0.0925833766 0.3236239173
-0.4953480501 0.0301615651 -0.2388281925 0.4996601739 0.0919524056 0.3232007283
-0.4454974474 0.1531802636 -0.3137948674 0.4993691019 0.0917015479 0.3226487016
-0.4345601223 0.1499333498 -0.3128699414 0.4988903047 0.0910027556 0.3236959175
-0.4941791140 0.0856405564 -0.3020056959 0.5021408769 0.0921019149 0.3244375028
-0.4253029588 0.0528977174 -0.3189846475 0.4985753847 0.0922139044 0.3229656243
-0.4506627798 0.1499333498 -0.3110986609 0.4989204071 0.0910926985 0.3249218347
-0.4955682015 0.0942438199 -0.2899801631 0.5000588338 0.0899615478 0.3244751254
-0.4253029588 0.1306750386 -0.3107080995 0.4994556863 0.0919962333 0.3241251360
-0.4398850780 0.0942438199 -0.2772704458 0.4998454744 0.0899891655 0.3246924516
-0.4639122207 0.0921019149 -0.2661880751 0.4997841966 0.0900143115 0.3242248181
-0.4526574803 0.1851002384 -0.3095110574 0.4999582564 0.0920232770 0.3265742972
-0.4178926401 0.0709662754 -0.2324024775 0.5005279539 0.0916654932 0.3261864325
-0.4858774672 0.0942438199 -0.2890356279 0.5000449736 0.0899610487 0.3244828834
-0.4192783284 0.0236527934 -0.2388281925 0.4992947349 0.0920276186 0.3231416203
-0.4917020137 0.0830750833 -0.2328942246 0.5008933393 0.0915035245 0.3260943349
-0.4961944067 0.0856761999 -0.2389919347 0.5000000000 0.0899735746 0.3246251294
-0.4688234783 0.0921019149 -0.2596623503 0.4998492592 0.0900194906 0.3241617454
-0.4139493202 0.0921019149 -0.2399917031 0.5003794171 0.0906261038 0.3238454589
-0.4253029588 0.0391911404 -0.3180765847 0.4985260224 0.0920608610 0.3240655524
-0.4345256098 0.1615651362 -0.3121430088 0.4998101008 0.0931297765 0.3247692882
-0.4213593112 0.0921019149 -0.2843898874 0.4989526127 0.0909345938 0.3245565906
-0.4969319267 0.0862240435 -0.2579615321 0.5021172560 0.0920105498 0.3245071019
-0.4191055666 0.0147598331 -0.2324024775 0.4998468881 0.0919618450 0.3263170416
-0.4220698389 0.0884054259 -0.2724509625 0.4980624713 0.0912912852 0.3244631136
-0.4959858901 0.0590060363 -0.3178319878 0.5016474934 0.0920776707 0.3255438867
-0.4175001188 0.0856761999 -0.2549847104 0.5001728582 0.0941711772 0.3245252395
-0.4370273527 0.0942438199 -0.2507218825 0.4999959240 0.0899604575 0.3244744014
-0.4597203820 0.0942438199 -0.2287529777 0.5000433821 0.0899630171 0.3244219355
-0.4841217434 0.0910913620 -0.3137948674 0.4999384202 0.0906875636 0.3259425766
-0.4658749597 0.0921019149 -0.2803107364 0.4996594414 0.0900170767 0.3242839004
-0.4981277287 0.0522428878 -0.2381330286 0.4982402751 0.0919277459 0.3236771737
-0.4964693352 0.0933298733 -0.2984245036 0.5009290256 0.0907297099 0.3243673619
-0.4253029588 0.0446158190 -0.3134650975 0.4987918114 0.0922768871 0.3244312613
-0.4895601087 0.0755019263 -0.3117070198 0.4987746097 0.0930304071 0.3236693193
-0.4561623929 0.1499333498 -0.3123902875 0.4986922321 0.0910000483 0.3241706857
-0.4701324928 0.0921019149 -0.2437141519 0.4999946345 0.0900202809 0.3240733490
-0.4611684940 0.0921019149 -0.3025033247 0.4999712085 0.0900054932 0.3240781468
-0.4895601087 0.0201957373 -0.3198630963 0.4984987902 0.0921676457 0.3247253770
-0.4198358984 0.0921019149 -0.2463220498 0.4994898775 0.0907347819 0.3243677495
-0.4679651591 0.0815903062 -0.3095110574 0.4990463725 0.0927585887 0.3227454578
-0.4941917962 0.0878821693 -0.3018026048 0.5017871049 0.0916241030 0.3241886584
-0.4702820492 0.1247969809 -0.3095110574 0.4997336862 0.0916543745 0.3265137627
-0.4862275659 0.0921019149 -0.2581797901 0.4998848019 0.0900387442 0.3240472777
-0.4616986112 0.0942438199 -0.2364276996 0.5000415680 0.0899626894 0.3244309636
-0.4858555705 0.0921019149 -0.2753947753 0.4997292054 0.0900390462 0.3241362953
-0.4959858237 0.0529070518 -0.3144161698 0.5020553099 0.0920778099 0.3239807223
-0.4473431141 0.0942438199 -0.2946698940 0.4998054079 0.0899973947 0.3247656084
-0.4889863288 0.0813923899 -0.3108209865 0.4988475009 0.0930225506 0.3235011712
-0.4742905387 0.0841053439 -0.3095110574 0.4992666010 0.0921044231 0.3230379542
-0.4430389110 0.1499333498 -0.3109742698 0.4990381861 0.0911336796 0.3250958837
-0.4933477935 0.1564195372 -0.3159367724 0.5003891606 0.0913186331 0.3258831323
-0.4210191488 0.0551225720 -0.2368632988 0.4987492089 0.0915818561 0.3231841564
-0.4910543702 0.0258735184 -0.3150800896 0.4988136138 0.0923880413 0.3229779895
-0.4895601087 0.0130911092 -0.3187072344 0.4984060029 0.0922841396 0.3238899162
-0.4954757098 0.0909032063 -0.2388281925 0.4998561989 0.0909391282 0.3243289961
-0.4600453133 0.1894201802 -0.3137948674 0.4999425648 0.0930123573 0.3227753888
-0.4981277287 0.0812208212 -0.2326508678 0.4986261029 0.0912125766 0.3257581200
-0.4597073078 0.1248217884 -0.3116529624 0.4996737322 0.0916591017 0.3224772078
-0.4981276623 0.0807591357 -0.2387711942 0.4981054465 0.0918902840 0.3235785496
-0.4928916042 0.0098677456 -0.3239596352 0.4998010920 0.0920414253 0.3262379646
-0.4146889328 0.0774660703 -0.2324024775 0.5014751728 0.0919448747 0.3260098624
-0.4960634785 0.0474513863 -0.2388281925 0.4992398615 0.0919308109 0.3233212662
-0.4292581106 0.1888831511 -0.3111236955 0.5000463230 0.0926949120 0.3253451586
-0.4450730268 0.1859513908 -0.3095111238 0.4999769917 0.0921081692 0.3265855337
-0.4955595075 0.0505772054 -0.2388281925 0.5006196595 0.0926611491 0.3231453172
-0.4924294047 0.0825052530 -0.2614610836 0.4982858334 0.0925507532 0.3238054331
