-0.0012881777 1.0112111546 -6.5237753201 -0.5000000000 0.1001965911 6.9879730122
0.4555554706 0.9718869803 -5.9212471737 -0.4842958681 0.1230222780 6.9895778343
0.1999275822 2.3186561495 -6.9870551900 -0.4974957113 0.1266268554 6.9684407917
0.2031195153 0.9954646893 -5.9222210180 -0.4997358889 0.1260281221 6.9678176362
0.2068148483 2.2681985539 -6.9624119033 -0.4922694007 0.1249255000 7.0084126770
-0.2154683142 1.1001000355 -6.1307550662 -0.5021626887 0.1443212094 6.9899703009
0.0111110657 1.7313866017 -6.9044000196 -0.5121189989 0.1215291670 6.9829401460
0.4849520236 1.0112111546 -6.5291152307 -0.4971273558 0.1004245466 6.9886668566
0.3271697265 1.0112111546 -6.1944364383 -0.5000000000 0.1001776355 6.9895289898
0.1055768573 1.7908975741 -6.9209934404 -0.5092415325 0.1200995227 6.9722178580
0.4111110301 0.6048123685 -6.8442722694 -0.5190679983 0.1228849446 6.9849263458
0.3228652157 1.0112111546 -6.7258016799 -0.5000000000 0.1001606800 6.9874287678
-0.1737939179 1.1187586561 -6.1777141509 -0.5057796884 0.1436961428 6.9897613898
0.2497798667 1.1162053452 -6.0433201850 -0.4996583111 0.1438588983 6.9941769894
0.4254348733 1.1001000355 -6.4054363084 -0.4963473337 0.1440948983 6.9888889454
0.2564235328 0.9740649134 -6.7666653874 -0.4996691334 0.1215188559 6.9678163473
-0.2581369993 2.3100757947 -6.9321967949 -0.5025963109 0.1254387444 7.0045761885
0.1782053397 2.1876123167 -6.9738892134 -0.5059184439 0.1196339227 6.9687257472
-0.2987334179 1.1001000355 -6.0696602494 -0.5041720441 0.1439156094 6.9895842787
0.3561119906 1.0112111546 -6.2539511219 -0.5000000000 0.1001662800 6.9891773899
-0.0138369988 1.1223222558 -6.3128581833 -0.5000000000 0.1445445649 6.9888889454
0.4555553817 0.9516626265 -6.5500706289 -0.4789018241 0.1168490341 6.9886430566
0.0111111101 2.0211140203 -6.9328152837 -0.5134521766 0.1237957668 6.9999396111
-0.0390911965 2.0699733271 -6.9359823279 -0.4912550897 0.1245116778 7.0053089440
-0.0584348393 1.1223222558 -6.3398045365 -0.5000000000 0.1445445649 6.9888889454
0.0119372434 2.3146213720 -6.9888875899 -0.5000000000 0.1276000998 6.9688211028
-0.0904099697 1.1160062119 -6.5129192100 -0.5027855553 0.1441797872 6.9861111012
0.2729843313 1.1001000355 -5.8721667780 -0.5000000000 0.1368520545 7.0013356999
-0.1546038085 0.9723880469 -6.7444431672 -0.5004304000 0.1211655003 7.0099615436
0.3855254324 1.1128928344 -6.1497953311 -0.4954228004 0.1439132983 6.9905300120
-0.1537198752 2.2960109070 -6.9485325046 -0.4986847335 0.1130074788 7.0028825442
-0.2555555773 0.6071399238 -6.8379870033 -0.4826398460 0.1218597225 6.9935443228
-0.1646566965 1.0112111546 -6.7656942542 -0.5004490000 0.1293465441 6.9696597916
0.4469836714 2.1725166291 -6.9031535531 -0.4949030227 0.1234795224 6.9961828337
-0.1372635656 1.0112111546 -6.7148682365 -0.5000000000 0.1001601689 6.9874618344
0.4310495172 1.0653489053 -6.8333320481 -0.5034856219 0.1226612335 6.9685677028
0.0515011510 1.0112111546 -6.1985379935 -0.5000000000 0.1002051244 6.9894221454
0.0128841322 1.9489096045 -6.9198391960 -0.5110094212 0.1246986111 7.0067108994
0.0443491072 1.1223222558 -6.0115846101 -0.5000000000 0.1441176316 6.9932004784
-0.3000000178 0.9452128271 -6.2061606150 -0.5210841759 0.1154634564 6.9890973454
-0.3000000178 2.2587191103 -6.9367391501 -0.5201029760 0.1222875891 6.9864157901
0.3857370990 0.9903276453 -6.7666653874 -0.4994296445 0.1249458556 6.9678163473
0.3092184392 0.9825470238 -5.9222210180 -0.4995123334 0.1233061890 6.9678176362
-0.3000000400 1.7813704861 -6.8844903547 -0.5215100870 0.1221318558 6.9877323678
0.3824050105 1.1213787448 -6.3528145131 -0.4951903782 0.1438062539 6.9864841456
-0.1023792576 1.1223222558 -6.4830418126 -0.5021538665 0.1441989872 6.9867350790
0.4547571818 1.3489484801 -6.8672160451 -0.4807711128 0.1210626781 6.9802053018
0.4555555595 0.5716908825 -6.8659736452 -0.4796171351 0.1227610335 6.9862019012
0.1099635458 1.1223221669 -6.1695856405 -0.5000000000 0.1445445649 6.9888889454
0.4832888237 1.0941100361 -5.9931397895 -0.4869712012 0.1369165656 6.9911369008
-0.2794762640 1.1234078335 -6.7696316983 -0.4998872889 0.1232407224 7.0025266109
0.3941069872 1.0112111546 -6.0732111379 -0.4993878001 0.1001816133 6.9897341898
0.4188304517 0.1563994083 -5.8999987978 -0.5102489102 0.1216509670 7.0045930774
0.3309638150 1.0112111546 -6.6016710910 -0.5000000000 0.1001646355 6.9879193900
0.1177418562 1.0112111546 -6.1455282871 -0.5000000000 0.1002051244 6.9896732343
0.4555554706 1.0055635328 -6.8009590066 -0.4818698905 0.1222620114 6.9973909225
0.4273823176 1.6987650046 -6.8428589584 -0.5149957542 0.1237738779 7.0001654778
-0.2655082653 0.7132293588 -6.8092340058 -0.4905930453 0.1208063448 7.0035004552
0.1415866763 1.1223222558 -6.5865628701 -0.5000000000 0.1439157650 6.9837811681
0.0555555062 2.2628376211 -6.9734389246 -0.4921378896 0.1220857225 6.9871142123
0.2978662402 1.0112111546 -6.6954170160 -0.5000000000 0.1001629467 6.9875628122
-0.3000000178 0.7184860695 -6.8525920242 -0.5213517314 0.1225513224 6.9902744786
0.4555554706 0.3524910798 -6.8610826901 -0.4788293352 0.1214673003 6.9940285894
0.2998670845 1.0112111546 -5.8714886003 -0.5000000000 0.1001963466 6.9908951230
-0.2907946408 1.0213624870 -6.7666653874 -0.5063159550 0.1212041892 7.0052793218
-0.3000000400 0.8558283684 -6.8482693802 -0.5212711981 0.1233312335 6.9873561011
0.2715063536 1.0112111546 -6.0671360940 -0.5000000000 0.1001945022 6.9901690342
0.0427214184 1.0974952802 -5.8555543573 -0.5000000000 0.1313210772 7.0082458993
0.0253693755 1.3318477927 -6.8597860458 -0.5020104887 0.1198415893 6.9702833471
0.2564108217 1.0112111546 -6.4273913287 -0.5000000000 0.1001775244 6.9886600788
0.0295337307 2.3223221491 -6.9719265914 -0.4981430891 0.1348033658 6.9983450779
-0.1425347207 1.0597057947 -6.7666653874 -0.5004780222 0.1247829445 6.9747381689
-0.1415402541 1.0112111546 -6.5141100765 -0.5000000000 0.1001632133 6.9882159455
0.2488634001 1.0112111546 -5.9873495900 -0.5000000000 0.1001985022 6.9905000120
-0.0755646155 1.1223222558 -6.3000557178 -0.5000000000 0.1445445649 6.9888889454
-0.2453963115 2.3039598841 -6.9666653696 -0.5036722441 0.1182847006 6.9716709025
-0.2053720484 1.1001000355 -5.9322321282 -0.5007404444 0.1442922761 6.9903698120
-0.2024420042 1.0405189520 -5.8555543573 -0.5007545555 0.1144299009 6.9984199224
0.4393609832 1.1001000355 -6.1630982855 -0.4980361335 0.1443028094 6.9888889454
0.0226820647 1.8537541019 -6.9293742396 -0.5059073995 0.1196337671 6.9687245472
-0.2866891967 1.1001000355 -6.0041898774 -0.5060074884 0.1432950539 6.9913898119
-0.3000000178 0.9997687556 -6.2901788742 -0.5213741759 0.1252343000 6.9889744788
-0.1974626936 1.3223222380 -6.8169380052 -0.5005567111 0.1365316323 6.9953845671
-0.2736251312 1.6005804799 -6.8303616706 -0.4879311789 0.1236796557 7.0005995666
-0.1987871157 1.0778778153 -6.7393731898 -0.5000000000 0.1403182764 6.9784436352
0.4555554706 0.9749122022 -6.4582656148 -0.4788239797 0.1212618781 6.9887624343
-0.3000000178 1.3730499891 -6.8138143610 -0.5184839539 0.1227059224 6.9974307669
0.4555554706 2.0562112617 -6.9459649492 -0.4822410016 0.1212585003 6.9779195686
-0.3222222380 1.0989590134 -6.1382488210 -0.5218156203 0.1263550332 6.9890000121
0.4333332504 0.9559623150 -6.5994968912 -0.5212930648 0.1166503452 6.9884736788
-0.2682995984 1.4679335362 -6.8820896438 -0.4891929565 0.1208870337 6.9779304575
0.4111110301 0.9682844473 -6.8238309157 -0.5189390205 0.1237324334 6.9808877684
0.2808949973 0.9955094448 -6.7444431672 -0.4996238000 0.1260377888 7.0099615436
-0.1250051667 1.0112111546 -6.0991470023 -0.5000000000 0.1001909022 6.9900139009
0.0111110657 1.3894864098 -6.8495484023 -0.5071405994 0.1240443223 7.0018037887
-0.3000000178 0.9088786081 -5.9227554180 -0.5157041319 0.1229163224 6.9885112121
0.2294434685 1.1001000355 -6.7194689472 -0.4995184445 0.1440008539 6.9845356125
0.4555554706 1.0548277285 -6.7984443624 -0.4809351128 0.1231851224 6.9968191003
-0.1662256297 1.1098963458 -6.1191502450 -0.5059717550 0.1432184317 6.9933652339
-0.3000000178 1.5254095755 -6.8472670469 -0.5201675982 0.1222909225 6.9915728119
0.4333332504 1.0035061552 -6.7275920353 -0.5220617314 0.1218616114 6.9878469455
0.1001410578 1.0103140213 -5.8999987978 -0.4999528667 0.1291570774 7.0099602547
0.3823996771 0.9685868250 -6.7666653874 -0.4994358223 0.1203645004 6.9678163473
0.4802294462 1.1001000355 -6.2202298804 -0.4881473788 0.1376569211 6.9897070565
0.3416977918 1.0112111546 -6.2353082791 -0.5000000000 0.1001757244 6.9893597898
0.4127832300 1.1807296728 -6.8124078500 -0.5194128205 0.1221141225 6.9898289676
0.3514585021 1.1223222558 -6.1708185515 -0.4971801558 0.1441368983 6.9903544786
0.4531359375 0.5495393734 -5.8999987978 -0.4860057568 0.1223120558 7.0045930774
-0.3000000178 0.8111490835 -6.8501696022 -0.5212482426 0.1231065446 6.9880688344
-0.3000000178 0.4108636079 -6.9039076641 -0.5173715318 0.1232600779 6.9767800798
0.4336538503 0.1170219674 -5.9444432383 -0.4997734445 0.1215847447 6.9731847913
-0.3000000178 2.1299562996 -6.9580770371 -0.5171633096 0.1211586781 6.9765513465
-0.1887502721 1.2971883069 -6.8140910499 -0.4980619335 0.1117183456 7.0040081663
-0.2541395552 1.0263131088 -5.8555543573 -0.5000563333 0.1079175237 6.9943622783
0.4111110301 0.2428968229 -6.8935208428 -0.5177121095 0.1226266335 6.9812321017
0.0833230148 1.0792155041 -5.8555543573 -0.5000000000 0.1247289889 7.0046021440
0.1220463447 1.6465067203 -6.8795193774 -0.4845577125 0.1244125445 7.0045654329
0.3580126571 1.0112111546 -6.1519139309 -0.5000000000 0.1001650355 6.9895253009
0.4356746279 1.0112111546 -6.0697945160 -0.5000000000 0.1002719911 6.9910338341
0.4999999111 1.0245724200 -6.3854751102 -0.4781304242 0.1238161890 6.9888889454
-0.2992030178 0.7988647290 -5.8999987978 -0.5151409098 0.1227313224 7.0045930774
-0.0554723506 1.0112110657 -6.1146919787 -0.5000000000 0.1001921689 6.9899711009
-0.1670020963 1.0112110657 -6.6977187269 -0.5000000000 0.1001603244 6.9875249011
0.4169276741 1.1001000355 -6.4632365922 -0.4974648669 0.1442827427 6.9876213900
-0.2777777975 0.9885385566 -6.0374024967 -0.4792268463 0.1251398333 6.9893913009
0.1721953402 1.0112112434 -6.2372587011 -0.5000000000 0.1002051244 6.9892387454
-0.2797263751 2.3223221491 -6.9727268358 -0.4824190016 0.1225846335 6.9851377458
-0.3000000400 0.9585856259 -6.0174209429 -0.5210835315 0.1182459673 6.9893487009
0.4551023595 2.1856898724 -6.9718085914 -0.4841360903 0.1209392781 6.9741675467
-0.2841628636 2.2015678265 -6.9068522861 -0.4915409341 0.1238985668 6.9978951224
0.4318625616 1.0930275917 -6.7878825633 -0.5027194220 0.1224123225 6.9955035004
0.4111110301 0.7401332898 -6.8280898042 -0.5192910205 0.1229896780 6.9860336790
-0.2762713532 2.2379610677 -6.9371379278 -0.4796949351 0.1233739890 6.9919837674
0.3833229881 1.0112111546 -6.2038589041 -0.5000000000 0.1001593689 6.9892707454
0.2913352185 1.1036110797 -6.5683092939 -0.4968763558 0.1437339206 6.9842394347
0.4341290725 0.9445444938 -6.5796401151 -0.5195970205 0.1153991231 6.9886095010
-0.3000000178 2.1901939386 -6.9716919470 -0.5163278652 0.1209629004 6.9743596801
0.0535218397 1.0112111546 -6.3313220039 -0.5000000000 0.1002051244 6.9887932121
0.0400853520 2.2550197107 -6.9606554368 -0.4985478446 0.1247984111 7.0074594549
-0.0181629095 1.0112111546 -6.1722318402 -0.5000000000 0.1001993466 6.9896087231
0.1042617241 1.1223222558 -6.5829794260 -0.5000000000 0.1439692539 6.9842156125
-0.2825320860 1.0778778153 -6.6928019940 -0.5020085109 0.1442527427 6.9868804345
0.4324277171 2.2716151536 -6.9220432403 -0.5200025316 0.1240091445 6.9968689447
0.4555554706 0.9815574016 -6.5903307586 -0.4785320241 0.1208728337 6.9885687455
-0.2967315736 2.2314197794 -6.9775255464 -0.5130364877 0.1209124337 6.9736686579
-0.0731798824 1.0113163545 -5.8555543573 -0.5000000000 0.1002430578 6.9910676786
0.3243387045 1.1223222558 -6.2240452579 -0.4997433334 0.1445129649 6.9888889454
0.4555554706 0.9478144491 -6.3459324693 -0.4789101574 0.1160224564 6.9889127010
-0.3000000178 0.3566373683 -6.8886244655 -0.5191011539 0.1219500558 6.9861064790
0.4333332504 0.9689566916 -6.1812487728 -0.5203126871 0.1219157669 6.9892892121
-0.2612669101 1.0112111546 -6.2795750529 -0.5008798888 0.1001925911 6.9890151454
-0.3107745946 1.0112111546 -6.6721124403 -0.5019838887 0.1003371244 6.9871551900
0.2997732400 1.0766521932 -6.7666653874 -0.5000000000 0.1316702327 6.9693484138
0.2457174670 1.1223222558 -6.4443143494 -0.5000000000 0.1445445649 6.9888889454
-0.1164608341 1.0112111546 -6.4032159753 -0.5000000000 0.1001776355 6.9887749232
-0.1696948071 1.1042271907 -6.4917440785 -0.5034846219 0.1439818316 6.9854043235
-0.2892884410 1.0112111546 -6.6593438858 -0.5000000000 0.1001623689 6.9876282789
0.1687046739 1.1223222558 -6.0790772930 -0.4998876445 0.1445367872 6.9889451232
0.1186048117 2.0537417063 -6.9338176170 -0.4885088677 0.1244970334 7.0051991884
0.0113393545 1.8277607709 -6.9036865975 -0.5106484657 0.1247723000 7.0072636327
0.4441524050 0.7273448909 -5.8999987978 -0.4923542007 0.1226110558 7.0045930774
-0.0506737955 2.2015195154 -6.9757433244 -0.5100395547 0.1201165893 6.9723458580
0.4999999111 1.0664057497 -6.4830879459 -0.4792345352 0.1284932997 6.9888889454
0.4416552274 1.1001000355 -6.3741578223 -0.4980906446 0.1442309872 6.9883885233
0.4555554706 0.3750549222 -6.8657403564 -0.4787636241 0.1217653892 6.9918309896
0.0018926887 1.1223222558 -6.1924914384 -0.5000000000 0.1445445649 6.9888889454
-0.3000000178 1.7604527324 -6.8795871996 -0.5214063092 0.1221996780 6.9886102343
0.4640337588 1.0112111546 -5.9312189506 -0.4994583112 0.1002177244 6.9905601231
-0.1864822723 1.3164994830 -6.8345364703 -0.5052008440 0.1294160552 6.9708336804
-0.2749682422 0.4504538488 -6.8462864248 -0.5006184222 0.1197175449 7.0058368773
0.4333332504 0.9733990246 -6.1059341128 -0.5205513315 0.1223719669 6.9893419232
0.2945879738 1.1001000355 -6.6994521267 -0.5000000000 0.1442209650 6.9862603457
0.0279930864 1.6224671669 -6.8763143554 -0.4995664445 0.1250898111 7.0096449658
0.0555555062 1.8526342798 -6.9088854192 -0.4896425565 0.1245542334 7.0056281439
-0.2555555773 0.8567562794 -5.9399931053 -0.4842958681 0.1228286780 6.9763294132
-0.1467752092 1.1223222558 -6.3370443812 -0.5006134222 0.1444936316 6.9882755233
-0.0521997731 1.8583851459 -6.9299927284 -0.5117914434 0.1201540782 6.9726268580
0.0768994154 1.1122153456 -6.6091011125 -0.5000000000 0.1438810539 6.9834992570
0.4337069170 1.7490710223 -6.9172309740 -0.5030487997 0.1209318115 6.9766016576
-0.3000000178 0.4880708677 -6.8426609362 -0.5185260872 0.1205388337 6.9992483001
0.3431929695 1.1223222558 -6.1459514648 -0.4973901113 0.1441894094 6.9914988341
0.4128501189 0.4419459829 -6.8888699765 -0.5172796429 0.1233874779 6.9755514577
0.4555554706 0.9691090250 -6.4994250112 -0.4788676685 0.1203187449 6.9887102343
-0.2821649305 1.1001000355 -6.4038697308 -0.5013163999 0.1444000761 6.9884505010
0.1192068561 1.8448485693 -6.9281874619 -0.4904066453 0.1201831004 6.9728446802
0.2417711341 1.1223222558 -6.3753663333 -0.5000000000 0.1445445649 6.9888889454
-0.1475187424 1.0112111546 -5.9991944778 -0.5000000000 0.1001797467 6.9902476564
0.4111111190 0.6880674944 -6.8067342950 -0.5180813317 0.1218343225 6.9977999446
0.1461230759 1.0112111546 -6.3256158933 -0.5000000000 0.1002051244 6.9888202343
0.4555553817 0.9231647179 -5.9409181275 -0.4842958681 0.1229403446 6.9756759911
0.4277609175 2.0047101329 -6.9491862601 -0.5206515537 0.1218274781 6.9811983017
0.4111110301 0.4674520029 -6.8394545587 -0.5168636874 0.1216762781 6.9953073893
-0.2620725545 1.0112111546 -6.6551093973 -0.5002054666 0.1001686578 6.9876554122
0.4352912946 0.8906699431 -5.9444432383 -0.4986163112 0.1228857002 6.9731848135
0.4543841818 1.7717071092 -6.8521417354 -0.4827835793 0.1230886113 6.9979205891
-0.0978369246 1.0112111546 -6.4815173016 -0.5000000000 0.1001737022 6.9884501232
0.2214065803 1.0112112434 -6.2685236095 -0.5000000000 0.1001890355 6.9892727676
0.2535846441 1.1001000355 -6.6713515292 -0.5000000000 0.1445445649 6.9888889454
-0.2764840199 2.2498714000 -6.9565294594 -0.4793782685 0.1228342113 6.9875372122
-0.0160824652 1.0112111546 -6.2221803025 -0.5000000000 0.1001984133 6.9893819232
0.4087653414 1.0448241516 -5.8555543573 -0.4968384669 0.1162498563 6.9994710112
0.4490014712 0.5391216854 -6.8204156493 -0.4872962234 0.1207393448 7.0027804553
-0.3000000178 1.8246164378 -6.9255181733 -0.5179824651 0.1210325670 6.9771444798
0.1708356515 1.0112111546 -6.6017890910 -0.5000000000 0.1002051244 6.9875121233
0.4999999111 1.0481687957 -6.6223050447 -0.4790345574 0.1271302109 6.9876961900
0.2987991512 0.9604590702 -6.7444431672 -0.4995906445 0.1186517672 7.0099615436
0.4111110301 0.7070063594 -6.8515232465 -0.5186207761 0.1234428335 6.9798322351
0.4509923377 0.6664985630 -5.8999987978 -0.4875205789 0.1225087447 7.0045930774
0.4541625152 0.9214867625 -5.8999987978 -0.4852803124 0.1229375224 7.0045930774
0.1996371600 1.1001000355 -5.8792183552 -0.5000000000 0.1388009432 6.9981823002
0.4333332504 0.9656806253 -6.2524917220 -0.5214133759 0.1176045895 6.9888393454
0.1219594114 1.1223222558 -6.5105415435 -0.5000000000 0.1445445649 6.9888889454
-0.2756505977 1.1001000355 -6.5097046991 -0.5013927777 0.1443345872 6.9886568121
-0.2189649583 1.0112111546 -6.2431506117 -0.5000000000 0.1001593689 6.9891308565
0.4111110301 0.7698728649 -6.8435683139 -0.5187381761 0.1234807668 6.9804795240
0.2120377589 1.1223223447 -6.5863784034 -0.4955738004 0.1430227206 6.9822496571
-0.1464802981 0.9673462029 -6.7666653874 -0.5004153555 0.1201030560 6.9678163473
-0.0513850399 1.3266144599 -6.8368666701 -0.5050801551 0.1248514556 7.0078572549
0.4509903821 1.4189680072 -6.8072483394 -0.4907822008 0.1233198335 7.0021562776
0.4555554706 1.8749538111 -6.9096788858 -0.4801658240 0.1217039225 6.9831636571
0.1217166781 1.0112111546 -6.0919380696 -0.5000000000 0.1002051244 6.9899270787
-0.2922874629 0.3694332783 -5.9444432383 -0.5102537769 0.1220091892 6.9731848135
-0.0053265106 0.9833355570 -5.9222210180 -0.5001751111 0.1234723668 6.9678176362
0.4068922305 2.3223221491 -6.9640639254 -0.4960100004 0.1329254771 6.9730950135
-0.2678404206 1.7713751314 -6.8658325786 -0.4803891129 0.1233496113 6.9953788560
0.4361516279 0.4157076964 -5.8999987978 -0.4980082446 0.1220870114 7.0045930774
-0.1806830062 1.2785980197 -6.8367147590 -0.5038035774 0.1064235017 6.9753919244
0.0999999467 1.7339383792 -6.8925361540 -0.5145479098 0.1240975890 7.0022032554
-0.3000000178 0.8430676139 -5.9092557970 -0.5157041319 0.1228056558 6.9980515002
-0.0822435482 1.1001000355 -6.6737495512 -0.5001848000 0.1445292094 6.9887041454
0.0621255945 1.0112111546 -6.1075807127 -0.5000000000 0.1002051244 6.9898529676
0.2045675818 1.0112111546 -6.1110664901 -0.5000000000 0.1002051244 6.9898364565
-0.2577215993 1.0832058370 -6.8339980036 -0.4819435127 0.1207875448 6.9795120129
0.3895685876 1.1108712124 -6.1947022827 -0.4946103116 0.1438810539 6.9888889454
0.4222907180 1.7039438485 -6.9080526415 -0.5205039093 0.1215981447 6.9815288128
0.4346790725 1.0339559970 -6.8333320481 -0.5087119326 0.1235631223 6.9714364803
0.0111111101 2.2503457777 -6.9815389683 -0.5100539547 0.1198425893 6.9702908138
-0.2307681350 1.1124937233 -6.3277846709 -0.5053896884 0.1438810539 6.9888889454
-0.2777777975 1.0092832881 -6.5028022998 -0.4806812684 0.1325388993 6.9890715010
0.1744821623 1.0112111546 -6.6313395994 -0.5000000000 0.1002051244 6.9873721456
-0.0375312411 1.1223222558 -6.4694364138 -0.5000000000 0.1445445649 6.9888889454
-0.3000000178 0.9759287577 -6.1860963279 -0.5210963092 0.1218959669 6.9891276343
-0.2932830184 2.1031818797 -6.8943292205 -0.5082759548 0.1233785224 6.9963265003
-0.3000000178 0.9852653569 -5.9190010850 -0.5157041319 0.1230447668 6.9911650563
-0.3000000178 1.4052344306 -6.8065254061 -0.5178282206 0.1230269224 7.0007152777
0.4185040072 1.4585591370 -6.8122871389 -0.5182645539 0.1236310335 7.0003881444
0.4555554706 0.7229742246 -5.9308242617 -0.4842958681 0.1226037002 6.9828091460
-0.2777777975 0.9585861370 -6.6624729522 -0.4786590019 0.1169545674 6.9883651010
0.4555554706 0.4845299347 -5.9217557958 -0.4842958681 0.1222027447 6.9892175676
0.3040345285 1.1223222558 -6.1829862393 -0.4997558222 0.1445242983 6.9891331232
0.4295989174 1.6091443903 -6.8314521594 -0.5118723101 0.1236840779 7.0005980555
0.1280746331 1.0112111546 -6.0599732947 -0.5000000000 0.1002051244 6.9900784787
-0.3222222380 1.0323184638 -6.5087037214 -0.5220690869 0.1236287001 6.9886362788
0.4111110301 0.8564416128 -6.8154500942 -0.5194425094 0.1231109446 6.9865981679
0.2766742421 0.9571140038 -6.7444431672 -0.4996316223 0.1179468562 7.0099615436
0.3188893717 1.1221183003 -6.5037395219 -0.4948946893 0.1432640539 6.9835233904
0.3376292811 1.1059904350 -6.0673354718 -0.4970072225 0.1441043872 6.9918817229
-0.3222222380 1.0384605521 -6.2332425904 -0.5221295314 0.1234422779 6.9888889454
0.1643950743 1.1099245013 -5.9739164357 -0.5000000000 0.1441130316 6.9932470784
-0.2600633769 1.3309640595 -6.8494127801 -0.4800233573 0.1215552559 6.9839211237
-0.0268738643 1.0112111546 -6.1078031349 -0.5000000000 0.1002005244 6.9899013009
0.0204394426 1.1223222558 -6.5412992074 -0.5005335555 0.1445002538 6.9883553899
-0.3000000178 1.5355747302 -6.8286689597 -0.5188125539 0.1228561446 6.9977427002
0.4295382285 2.1098011458 -6.9421278829 -0.5205578648 0.1225777447 6.9864857901
-0.2662636652 1.0112111546 -6.2481867002 -0.5009489110 0.1001955244 6.9891497454
-0.3222222380 1.0763848377 -6.7075291038 -0.5161584652 0.1360585212 6.9888889454
-0.2876322189 1.4367331390 -6.8095107169 -0.5014608443 0.1234497001 7.0020196776
-0.0674471051 2.3128957722 -6.9572388371 -0.4993226223 0.1304830995 7.0061715217
0.4333332504 0.9831526237 -6.5271119198 -0.5217182870 0.1195873671 6.9883079455
0.0123521100 1.7887119966 -6.8984796201 -0.5096649547 0.1248146111 7.0075808993
0.4555554706 1.0058470217 -6.6437148206 -0.4780445353 0.1229705002 6.9884680566
-0.0645017276 0.9633122033 -6.7444431672 -0.5002635111 0.1192529894 7.0099615436
0.4550643818 0.1381276766 -5.8999987978 -0.4846428903 0.1216202336 7.0045930774
-0.2699603093 0.3176657051 -5.8999987978 -0.4944754894 0.1219221447 7.0045930774
0.0853980591 1.0112111546 -6.1060751795 -0.5000000000 0.1002051244 6.9898601009
-0.1695041183 1.0112111546 -6.1334541770 -0.5000000000 0.1001681022 6.9896343676
0.3361655479 1.0112111546 -5.8571670460 -0.5000000000 0.1001793244 6.9907504119
0.0411364186 1.1223222558 -6.0831449371 -0.5000000000 0.1445445649 6.9888889454
-0.2777777975 0.9761803799 -6.1235040890 -0.4795027352 0.1230749446 6.9893301009
0.4470672714 1.3354442813 -6.7966187181 -0.4939294672 0.1233391001 7.0025954553
-0.2743858201 2.1323719438 -6.9193210849 -0.4798623129 0.1233957890 6.9929287895
-0.3222222380 1.0526393509 -6.5184639206 -0.5219349092 0.1248477222 6.9883837233
-0.0430922184 1.0112111546 -6.3496705134 -0.5000000000 0.1001884800 6.9888967010
-0.3000000178 0.9542272930 -5.9167210630 -0.5157041319 0.1229925668 6.9927755006
0.4777776909 1.0231519091 -6.7404107675 -0.4784462686 0.1245301889 6.9888889454
0.1151948564 0.9705826915 -6.7666653874 -0.4999307111 0.1207850559 6.9678163473
0.1364671879 1.0112111546 -6.6105076235 -0.5000000000 0.1002051244 6.9874708122
-0.2727657091 2.0416443741 -6.9299384840 -0.4795620018 0.1226131891 6.9872682122
0.2304425795 1.1001001244 -5.8562515128 -0.5000000000 0.1324531216 7.0084533215
-0.2717576647 1.9909568897 -6.8808553773 -0.4804215795 0.1239893445 6.9989547445
0.4555554706 0.9460261159 -6.0616252945 -0.4789202463 0.1156193453 6.9892886787
0.0181309095 1.1136057677 -5.9849610791 -0.5012085110 0.1439105650 6.9936899894
0.4111110301 0.8748388778 -6.8087118281 -0.5196163316 0.1230135891 6.9881310566
0.1815669839 2.2885698855 -6.9534505708 -0.5020220887 0.1204754560 7.0088574325
-0.3000000178 0.6267983443 -6.8274374042 -0.5177480873 0.1208041226 6.9999285000
0.2985095735 1.0838410370 -5.8555543573 -0.4992295112 0.1263842332 7.0054985217
0.0152962209 1.1223222558 -6.0129490988 -0.5012875999 0.1439151650 6.9935385672
0.2079118260 1.1154794564 -5.9905817453 -0.4969727336 0.1438974094 6.9924726118
0.0111110657 1.6720685625 -6.9035862197 -0.5102745102 0.1200227227 6.9716417914
0.1835310504 1.4493940267 -6.8754598666 -0.5017250887 0.1197836782 6.9698489916
-0.1339298992 1.1195649005 -6.1061918239 -0.5054751551 0.1432558095 6.9938805228
0.0856661035 1.1223222558 -6.1221450447 -0.5000000000 0.1445445649 6.9888889454
0.0999999467 1.8947909205 -6.9252211511 -0.5174618429 0.1217128114 6.9843173903
-0.2503566000 0.9773703798 -5.8999987978 -0.5006914222 0.1222154336 7.0099602547
0.0869343478 1.0112111546 -6.3655138897 -0.5000000000 0.1002051244 6.9886312566
-0.3222222380 1.0912236586 -6.0906509142 -0.5212526870 0.1284521886 6.9897283009
0.4555554706 0.7608889546 -6.8572686682 -0.4794369352 0.1233005002 6.9848968125
0.4296814729 2.1178252340 -6.9138333521 -0.5200626427 0.1234926112 6.9938166783
-0.0484427957 1.7782614197 -6.9193088850 -0.5074782438 0.1200618116 6.9719350136
-0.0157310875 1.1223222558 -6.4021471976 -0.5000000000 0.1445445649 6.9888889454
-0.3222222380 1.0448013516 -6.2064576372 -0.5221079536 0.1237029001 6.9888889454
0.3382634588 1.0920793474 -5.8776897775 -0.4982549113 0.1382887877 6.9997540111
-0.2913024408 1.5850337924 -6.8967272203 -0.5108658435 0.1209671004 6.9779971020
0.1222221669 1.8307952373 -6.9122898411 -0.4828076460 0.1231507446 6.9951020338
0.4243674512 1.0112111546 -6.3800158440 -0.5000000000 0.1001529244 6.9883826344
0.4555554706 2.2954722848 -6.9189535072 -0.4781837797 0.1229656113 6.9926407895
0.4555554706 0.9935011339 -5.9217815736 -0.4842958681 0.1230586113 6.9891995010
0.4283718508 0.9702072249 -5.8999987978 -0.5035061552 0.1230194557 7.0045930774
-0.2497289778 1.1001000355 -6.0726902935 -0.5000000000 0.1445445649 6.9888889454
0.2079051815 1.3063595061 -6.8563884239 -0.4862606234 0.1201923226 6.9729137469
0.1285404997 1.1223222558 -6.0325264527 -0.5000000000 0.1443209649 6.9911471008
-0.3000000178 1.4191813850 -6.8316176483 -0.5195343760 0.1223618336 6.9932398562
0.1974800269 2.2588591548 -6.9833889904 -0.4993207334 0.1195388338 6.9680126584
-0.1132553899 0.9860246679 -6.7666653874 -0.5003538000 0.1240391001 6.9678163473
-0.2919672407 1.4189239183 -6.8759617110 -0.5122137322 0.1209971670 6.9792419907
0.4333332504 0.9804569795 -6.7165406141 -0.5216941314 0.1193503672 6.9880832344
0.0062100217 1.1223222558 -6.3730700446 -0.5007167555 0.1444850316 6.9881721899
0.3243572823 1.1001000355 -6.6886597499 -0.4990440223 0.1442963650 6.9874112567
-0.2824127749 0.9445444938 -6.2682740539 -0.4877299344 0.1152922564 6.9890203232
0.4999999111 1.0447453960 -6.3294312707 -0.4786628686 0.1260715888 6.9888889454
0.1090432792 0.9475847158 -6.7444431672 -0.4999420889 0.1159387897 7.0099615436
-0.0779833931 1.0112111546 -6.4189481294 -0.5000000000 0.1001768355 6.9887096566
0.4549250262 1.3037984841 -6.7925904073 -0.4838930459 0.1231025002 7.0021616331
-0.3000000178 1.1208535226 -6.7832181193 -0.5174424429 0.1226876335 6.9993236778
0.1409743652 1.3151066164 -6.8555542684 -0.5000000000 0.1284319664 6.9693918805
0.0355130857 1.1223222558 -6.2080404815 -0.5000000000 0.1445445649 6.9888889454
-0.2934025517 0.4416495607 -6.8462294470 -0.5138200210 0.1201922560 7.0011802110
-0.2777777975 0.9808800684 -6.1903701275 -0.4797109796 0.1245025000 6.9892843676
0.3305063928 1.1001000355 -5.9250069289 -0.4995384889 0.1443825649 6.9903550564
-0.2453875115 1.0112111546 -6.2019451043 -0.5000000000 0.1001593689 6.9892775454
-0.2784799752 1.3265071265 -6.7954807626 -0.4959720448 0.1234176779 7.0018008554
0.4394716943 1.2063527372 -6.8493910689 -0.4943140672 0.1209680115 6.9802733018
-0.2264434910 1.1001000355 -6.1053413795 -0.5000000000 0.1445445649 6.9888889454
0.4307709617 2.0986000135 -6.8937473539 -0.5185012650 0.1240869001 6.9990748779
0.4097657191 1.1001000355 -6.6528700864 -0.4985242668 0.1439604983 6.9859374790
-0.1813246950 2.3043964618 -6.9666653696 -0.5001257555 0.1218597447 6.9706753915
-0.2150699809 1.1001000355 -6.0882949588 -0.5000000000 0.1445445649 6.9888889454
0.1711462959 1.1001000355 -6.6340970436 -0.4997559778 0.1439157428 6.9837692348
-0.2793561529 0.3067133727 -6.8659465119 -0.5051212884 0.1197384782 7.0029238997
0.1980424046 1.0112111546 -6.5072470105 -0.5000000000 0.1002051244 6.9879599233
0.0272870865 1.5183323761 -6.8846531103 -0.5028302664 0.1197225005 6.9693901472
0.2665807319 2.2938789294 -6.9746663911 -0.4979817335 0.1121216123 6.9727858802
-0.3000000178 1.1669702296 -6.8361044035 -0.5209645537 0.1213448114 6.9840814347
0.4151329853 1.0785366597 -5.8804458440 -0.4836847348 0.1307504995 6.9995288556
-0.1282200553 1.1001000355 -6.5688477605 -0.5023871331 0.1442140538 6.9865018123
0.4555554706 1.8461564137 -6.8947618871 -0.4789788908 0.1220554114 6.9866362123
-0.0982628579 2.3031369286 -6.9798747240 -0.5050268218 0.1157877675 6.9719248358
-0.2394994898 1.1001000355 -6.2098227258 -0.5019470887 0.1443048761 6.9888889454
-0.3000000178 1.1604632968 -6.7842163858 -0.5173378207 0.1227988780 7.0002255222
0.2260206688 1.3023624620 -6.8333320481 -0.5020831776 0.1180351228 7.0093387436
-0.1098918347 2.3085327726 -6.9528768597 -0.4990982001 0.1264408110 7.0062170550
0.4999999111 1.0475360624 -6.2100248147 -0.4787365130 0.1263835888 6.9888889454
0.1074525016 1.4174899407 -6.8489841801 -0.5013121777 0.1247708778 7.0072528549
-0.1193653005 0.9740772023 -6.7444431672 -0.5003651333 0.1215214559 7.0099615436
0.4143679409 0.8332279037 -6.7860121635 -0.5164311097 0.1218780114 6.9996584556
-0.0471881736 1.8113879057 -6.9015042421 -0.5016057776 0.1245720334 7.0057616773
-0.2777777975 1.0004459111 -6.2121352811 -0.4797711796 0.1287910330 6.9892717454
0.1940970272 1.7997708845 -6.9221775291 -0.4992684667 0.1196454116 6.9688119250
0.0555555062 1.3291355485 -6.8555271351 -0.4853692902 0.1210641448 6.9794523907
0.0406762853 1.1001000355 -5.8933256206 -0.5000000000 0.1427005206 6.9918726785
0.1136416343 1.0112112434 -6.3922093096 -0.5000000000 0.1002051244 6.9885048121
0.4268714954 1.6492587201 -6.9047540196 -0.5113251323 0.1211073892 6.9783734130
0.0759128821 1.0112111546 -6.3048761396 -0.5000000000 0.1002051244 6.9889184788
0.4265893843 0.8707011226 -5.8999987978 -0.5047657996 0.1228521224 7.0045930774
-0.2439140228 1.1001000355 -6.1144926009 -0.5000000000 0.1445445649 6.9888889454
-0.1362024768 1.1074010349 -6.5298408751 -0.5030494886 0.1440902539 6.9858394568
0.4999999111 1.0126015767 -6.1780695286 -0.4778144686 0.1224778113 6.9888889454
0.2925924629 1.1223222558 -6.4776815909 -0.5000000000 0.1445445649 6.9888889454
0.4333331615 0.9752947578 -6.1326769993 -0.5204680426 0.1229463446 6.9893236343
-0.2555555773 0.1373269211 -5.9231609513 -0.4842958681 0.1216188781 6.9882249899
0.2814303305 1.0112112434 -6.6128161122 -0.5000000000 0.1001671022 6.9879054566
0.4498346045 0.3244509267 -5.8999987978 -0.4883386899 0.1219335447 7.0045930774
0.4272635620 1.9824223127 -6.9074097305 -0.5201293760 0.1230129002 6.9909280119
0.1040906574 1.8817107438 -6.9108805968 -0.5091362659 0.1243331445 7.0039698774
-0.0803243040 1.1001000355 -6.7162340808 -0.5002032222 0.1439546094 6.9842292347
0.3548022796 1.1223223447 -6.4064305083 -0.4962332226 0.1440884539 6.9886972343
0.3361220590 1.1153722120 -6.1071276905 -0.4966782892 0.1440224316 6.9922106562
0.3084583726 1.3223222380 -6.8500746689 -0.4952673115 0.1326497215 6.9715459692
0.4333332504 0.9512246266 -6.6234742001 -0.5212201092 0.1161419675 6.9884875010
-0.2952539738 0.8610002568 -5.8999987978 -0.5123501767 0.1228358113 7.0045930774
-0.3052318840 1.0690351716 -6.7614326323 -0.5130257322 0.1266303443 6.9758632133
-0.3000000178 0.3859859657 -5.9344619503 -0.5157041319 0.1220370336 6.9802388795
0.0555555062 1.8876055655 -6.9151937520 -0.4892150676 0.1242051001 7.0030095442
0.4555554706 0.9774586242 -6.1250191333 -0.4789050685 0.1222103447 6.9892086343
0.2401742898 1.0112111546 -6.7660278986 -0.4996992222 0.1293465441 6.9690265694
0.4512152710 0.9095525414 -6.7777290309 -0.4885084899 0.1209286559 7.0063397439
-0.0312931972 1.1122312789 -6.5737454934 -0.5035269997 0.1440027650 6.9859021013
-0.0341952858 1.7479674668 -6.8930488428 -0.4853454013 0.1244293889 7.0046917662
-0.3000000178 0.9938913339 -6.7722073869 -0.5136402210 0.1208589448 7.0057461884
0.2247331578 1.1142161010 -6.0393420521 -0.4973435558 0.1440291428 6.9918643007
-0.0046015329 1.1223222558 -6.5722290936 -0.5026736664 0.1441391427 6.9862152790
-0.2240871579 1.0397787520 -6.7666653874 -0.5000000000 0.1133914566 6.9792822352
-0.1454731648 1.1001000355 -5.8807713773 -0.5016669776 0.1390216321 6.9993687001
0.1141845232 2.1211404559 -6.9428047051 -0.4954059337 0.1243664112 7.0042194774
0.4111110301 0.1191383227 -5.9338841503 -0.5157041319 0.1215883003 6.9806469462
-0.3000000178 0.4179167629 -5.9362319723 -0.5157041319 0.1220907225 6.9789876130
0.4281936730 2.0345027525 -6.9463406603 -0.5207283537 0.1220703447 6.9829357015
0.1779807397 1.0318217083 -5.8555543573 -0.5000000000 0.1076377682 6.9951550782
-0.2825076416 1.0199596871 -6.8333320481 -0.4927013340 0.1243354556 6.9707322137
0.4208980959 0.2622555322 -5.8999987978 -0.5087877548 0.1218289669 7.0045930774
-0.1054153684 1.0112111546 -6.0497492289 -0.5000000000 0.1001953689 6.9902411675
-0.3000000178 1.0102781546 -6.1666559519 -0.5213871314 0.1273438553 6.9891383232
0.4111110301 0.4355056946 -6.8644436898 -0.5187235539 0.1227371446 6.9836934570
-0.1328189437 1.0112111546 -6.3880684211 -0.5000000000 0.1001707689 6.9887526343
0.4555554706 0.6600749635 -5.9184748184 -0.4842958681 0.1224979447 6.9915359230
-0.2609813990 1.3845211214 -6.8466417803 -0.4801723573 0.1219512114 6.9868046567
0.1306520551 0.9567169372 -6.7444431672 -0.4999020667 0.1178631895 7.0099615436
0.4160457186 0.4492054934 -6.8277520709 -0.5114774434 0.1207355226 7.0041158774
0.1119919234 2.0504554844 -6.9556017262 -0.5018766887 0.1199420116 6.9710365248
0.1871882278 1.0112111546 -6.3439440694 -0.5000000000 0.1002051244 6.9887334121
0.1839075614 1.1000999467 -6.7020644376 -0.5000000000 0.1445445649 6.9888889454
0.2514910665 1.0332505304 -5.8555543573 -0.5000000000 0.1081530126 6.9954398560
0.2674094429 0.9741651134 -5.9222210180 -0.4996004223 0.1215400336 6.9678176362
-0.1371269878 1.1001000355 -6.0025052998 -0.5000000000 0.1445445649 6.9888889454
-0.2777777975 0.9888302454 -6.2410550786 -0.4798669796 0.1265148554 6.9892502565
0.1612318968 1.0112111546 -6.2627673211 -0.5000000000 0.1002051244 6.9891179232
-0.2826931082 0.8904243653 -6.8475423802 -0.4929618451 0.1244504112 6.9704304137
-0.1175469229 1.1223222558 -6.4014853088 -0.5000000000 0.1445445649 6.9888889454
0.1666666074 2.1685668072 -6.9680664584 -0.5107215768 0.1203878560 6.9743802356
0.1774991620 1.5630175722 -6.8683879339 -0.5018347554 0.1251049889 7.0097587214
-0.3000000178 0.5541086174 -5.9280844619 -0.5157041542 0.1223197447 6.9847453458
0.4545513596 1.8879059877 -6.9345852836 -0.4833354681 0.1209799448 6.9762892799
0.0736280601 1.1223222558 -6.0669353607 -0.5000000000 0.1445445649 6.9888889454
0.0478986846 1.1001000355 -6.6907308830 -0.5000000000 0.1445445649 6.9888889454
-0.2688653317 1.8263796821 -6.8771010220 -0.4802326684 0.1232300113 6.9939285228
0.4999999111 1.0696831716 -6.5761719599 -0.4793414907 0.1288494774 6.9882749677
-0.3000000178 0.9125510522 -6.7903673631 -0.5153624209 0.1211032337 7.0028650997
-0.0239265757 1.0112111546 -6.5265720976 -0.5000000000 0.1001921244 6.9880086122
-0.3000000178 1.5562199506 -6.8294719152 -0.5187778428 0.1229061002 6.9981241002
-0.1648923853 1.0112111546 -6.1681153739 -0.5000000000 0.1001684578 6.9895156120
0.0429522628 1.0112111546 -6.3055366951 -0.5000000000 0.1002051244 6.9889153454
0.4282029842 0.5555348395 -5.8999987978 -0.5036254663 0.1223221447 7.0045930774
0.4281202508 0.1476529869 -6.9175809073 -0.5056063106 0.1230400335 6.9743606801
-0.2822614860 0.2974934180 -6.9173001296 -0.5018497554 0.1232333224 6.9738263468
0.2672209985 1.0920077029 -6.7384061233 -0.5000000000 0.1396493431 6.9782239242
-0.2692581316 1.0023049331 -6.8343791369 -0.4871864900 0.1245337445 6.9737174579
-0.2810231084 0.5066559105 -6.8926907762 -0.4964531114 0.1236852557 6.9719819469
0.2609962657 1.1223222558 -6.1544380640 -0.5000000000 0.1445445649 6.9888889454
0.2173234029 1.1223222558 -6.1580730415 -0.5000000000 0.1445445649 6.9888889454
-0.0340123525 1.1223222558 -6.4468032158 -0.5000000000 0.1445445649 6.9888889454
0.2996688178 1.0112111546 -6.7234904801 -0.5000000000 0.1001615467 6.9874463678
0.4339089392 0.9445444938 -6.2516372110 -0.5199830871 0.1153023898 6.9890435676
-0.2753591089 1.1001000355 -6.0259197421 -0.5030064220 0.1440400539 6.9895735898
0.4111110301 0.1445679205 -5.9145495743 -0.5157041319 0.1216310559 6.9943109227
0.4111110301 0.9950793115 -5.9205445960 -0.5157041319 0.1230612780 6.9900735453
0.4333332504 1.0012702221 -6.5641968721 -0.5191223539 0.1312358994 6.9890279676
0.4520135598 1.0579127060 -6.8333320481 -0.5014780665 0.1229237002 6.9674943029
-0.0400676631 1.6642409854 -6.9041056863 -0.4945440005 0.1202917671 6.9736596357
0.2061824928 2.0853848813 -6.9602580369 -0.4952726226 0.1195753227 6.9682862584
-0.3000000178 1.1704627182 -6.8012248510 -0.5184918650 0.1223499891 6.9951753004
0.0999999467 2.0691993716 -6.9576104593 -0.5157367542 0.1203117004 6.9738091690
0.1886164055 1.0112111546 -5.9293661952 -0.5000000000 0.1002051244 6.9906971008
-0.2946779071 1.0112111546 -6.0654013386 -0.5113819101 0.1300630551 6.9893695454
-0.0259535977 0.9654444475 -5.9222210180 -0.5002185778 0.1197024782 6.9678176362
-0.3220361936 1.0780638819 -6.5637126499 -0.5216228425 0.1268741665 6.9883707677
-0.0555555951 2.1042347463 -6.9462755492 -0.5187597094 0.1227669224 6.9922232562
-0.3000000178 1.9896153120 -6.8877102878 -0.5209661981 0.1227765224 6.9930894339
0.0352672635 2.1336243437 -6.9666897918 -0.5015995110 0.1195716783 6.9682589473
0.3519082132 1.0112111546 -6.7147366809 -0.5000000000 0.1001610355 6.9874725233
0.1787795841 1.6969988936 -6.9084744637 -0.5057218884 0.1196310783 6.9687045028
0.4333332504 0.9822270016 -6.4722630136 -0.5216981758 0.1194703227 6.9883894344
-0.3000000178 0.7487546668 -5.9206707293 -0.5157041319 0.1226470558 6.9899838787
0.2365183790 1.0112112434 -5.9444025494 -0.5000000000 0.1002009244 6.9906746786
0.4111110301 1.0172372651 -6.8206326715 -0.5188053761 0.1238737890 6.9809210573
0.4857220902 1.1001000355 -6.1816190616 -0.4865090679 0.1362066990 6.9888889454
-0.0552423729 1.6288053219 -6.8771593554 -0.5126461100 0.1245344112 7.0054794106
-0.2555555773 0.5228679757 -6.8676243118 -0.4815025350 0.1229136335 6.9828376126
0.4555554706 1.6930358495 -6.8666626674 -0.4792064241 0.1223298558 6.9906109897
0.0446089738 2.2088281370 -6.9767185465 -0.4984018446 0.1195255894 6.9679133473
0.4116035412 0.2010496488 -6.9123725745 -0.5175706651 0.1230627002 6.9754776577
-0.1116572345 1.2967252847 -6.8254137600 -0.4975402891 0.1112301012 7.0036500997
0.1097384347 2.1799664729 -6.9728692580 -0.5044637996 0.1199973449 6.9714515025
-0.2625861989 1.0112111546 -6.3013849399 -0.5008446888 0.1001914800 6.9889430343
0.2519967998 1.1223222558 -6.4005629977 -0.5000000000 0.1445445649 6.9888889454
-0.2742667978 0.6079506793 -5.9444432383 -0.4975188224 0.1224102780 6.9731848135
0.4777376020 1.0112111546 -6.4134088633 -0.4999984222 0.1002482133 6.9891795899
-0.0369337745 1.3761456555 -6.8434720250 -0.4884893566 0.1244966334 7.0051960551
0.4405900719 0.2015609376 -5.9444445938 -0.4948716893 0.1217269003 6.9731848135
-0.1380050988 1.0112111546 -6.1848132169 -0.5000000000 0.1001772578 6.9895541009
0.0676134162 1.0112111546 -6.7396715676 -0.5000000000 0.1002051244 6.9868590345
0.2822614194 1.1223222558 -6.2072931482 -0.5000000000 0.1445445649 6.9888889454
-0.2724003536 1.9270764731 -6.8719171114 -0.4819330905 0.1239616112 6.9994566778
-0.2777777975 0.9529114042 -6.7566556327 -0.5006585111 0.1170612785 6.9867989234
-0.0351610413 0.9902367564 -6.7444431672 -0.5002091778 0.1249267000 7.0099615436
0.0111300435 1.4400621831 -6.8519925354 -0.5067757105 0.1250662778 7.0094683880
0.0557511506 1.1223222558 -6.5068278994 -0.5000000000 0.1445445649 6.9888889454
0.3819311438 1.1001000355 -5.9419841940 -0.4993143778 0.1444597427 6.9895745676
0.1279055220 1.0112111546 -6.4909967452 -0.5000000000 0.1002051244 6.9880369011
-0.2990783956 1.9103431857 -6.9373901945 -0.5166421985 0.1209771892 6.9761319910
0.0968262803 1.1001000355 -5.8659845786 -0.5000000000 0.1351434102 7.0041003441
-0.3222222380 1.0184509317 -6.0159560986 -0.5221809314 0.1227536113 6.9889967676
-0.0586329503 1.0028106886 -6.7444431672 -0.5002526444 0.1275763442 7.0099615436
-0.2955938626 0.5978969246 -6.8819567105 -0.5054954217 0.1239065001 6.9706776804
-0.0555555951 2.0023451998 -6.9471503936 -0.5160287986 0.1205489004 6.9755881911
-0.0419225518 1.5659306386 -6.8909980652 -0.4965255336 0.1203567449 6.9741468801
0.4263482954 1.9311619395 -6.9168823963 -0.5203585537 0.1224633669 6.9868626789
-0.2684366650 1.8017930176 -6.8771335776 -0.4801914240 0.1230944335 6.9929921228
-0.0682882384 0.9947180894 -5.8999987978 -0.5003077778 0.1258708110 7.0099602547
0.4111110301 0.0715007270 -6.9021946198 -0.5150823764 0.1216076781 6.9886008566
-0.1080821015 1.1001000355 -5.9590482814 -0.5000000000 0.1445445649 6.9888889454
-0.0999086578 1.0112111546 -6.4256660622 -0.5000000000 0.1001765022 6.9886817899
-0.0872739034 1.1223222558 -6.2433120339 -0.5000000000 0.1445445649 6.9888889454
0.4348585391 0.9445444938 -6.5142362098 -0.5182042873 0.1153769675 6.9886958343
-0.0405106408 1.3009346844 -6.8334432704 -0.4925957562 0.1245844556 7.0058547439
-0.0553129284 1.4442640272 -6.8747762667 -0.5153655097 0.1202305004 6.9732001468
0.4333332504 0.9449609827 -6.6446968205 -0.5211225981 0.1154667231 6.9885196566
-0.0580903282 1.0112111546 -6.0149035653 -0.5000000000 0.1001971244 6.9903857231
0.4555554706 1.8537951463 -6.9159817741 -0.4809108906 0.1214326337 6.9807359906
-0.3000000178 2.0814855928 -6.9120212856 -0.5211235981 0.1223929002 6.9884384788
0.4555554706 1.9798958018 -6.9438178828 -0.4825973127 0.1210432559 6.9763403688
-0.2538095997 1.0112111546 -6.0082615882 -0.5000000000 0.1001593689 6.9899670120
0.2668498652 1.0112111546 -6.0935073584 -0.5000000000 0.1001931911 6.9900596564
-0.2820186638 1.9009675199 -6.8685940895 -0.4898909120 0.1238761890 7.0001498778
0.4333332504 0.9722342691 -5.9699599916 -0.5209783092 0.1212482781 6.9894359898
0.0728642602 2.2853019524 -6.9888875899 -0.5000000000 0.1138618343 6.9702611915
0.3789475441 0.9614600479 -5.9222210180 -0.4993654001 0.1188629005 6.9678176362
0.3241751045 1.1001000355 -6.6353448657 -0.5000000000 0.1445445649 6.9888889454
0.3092349725 1.0112111546 -5.9042685530 -0.4995122889 0.1293461218 7.0018630776
0.1240509223 2.3223221491 -6.9793864574 -0.5000000000 0.1329910993 6.9864329679
0.4841322236 1.1001001244 -6.0189481650 -0.4868475123 0.1366044545 6.9900656564
-0.2415870896 2.2926666851 -6.9417169052 -0.5012644443 0.1098947680 6.9974274558
0.0252217978 1.2780381086 -6.8553928684 -0.5000000000 0.1066505239 6.9734322357
0.4113975634 0.9507849155 -5.8999987978 -0.5155016431 0.1229867891 7.0045930774
0.4998508000 1.1001000355 -6.5498210511 -0.4801970018 0.1322984105 6.9886946566
0.1698748071 1.1001000355 -5.8714614670 -0.5000000000 0.1366571656 7.0016510110
0.1764915399 0.9592255592 -6.7444431672 -0.4998171778 0.1183918339 7.0099615436
-0.0593817281 1.1001000355 -6.6838121948 -0.5000000000 0.1444544538 6.9881570566
0.0437632183 0.9734022468 -5.9222210180 -0.5000716667 0.1213792781 6.9678176362
0.1096710569 1.0112111546 -6.6818211061 -0.5000000000 0.1002051244 6.9871330345
0.2405757564 2.2939975961 -6.9555393484 -0.5002675111 0.1104782568 6.9994469445
-0.2555555773 0.9430876939 -6.7801432973 -0.4798118240 0.1225450336 6.9957306115
0.3967208092 1.0112111546 -5.8756037333 -0.4989418890 0.1001978355 6.9904364342
0.1872758945 1.3079974615 -6.8555542684 -0.5000000000 0.1246599889 6.9697653694
0.3498441911 1.0112111546 -6.0839478925 -0.5000000000 0.1001703911 6.9898330120
0.4111796968 1.1001000355 -5.9774157909 -0.4992508445 0.1444942760 6.9896369009
0.0834275926 0.9504054044 -6.7444431672 -0.4999895333 0.1165331896 7.0099615436
-0.2980285291 1.5312931972 -6.8900079320 -0.5173382207 0.1210263004 6.9788107463
0.4549073151 2.2054250929 -6.9742757690 -0.4844038681 0.1209348337 6.9740123245
0.0172825762 1.1223222558 -6.5090563659 -0.5003748000 0.1445134316 6.9885141455
0.2950671071 0.9726513580 -5.8999987978 -0.4995421334 0.1212210781 7.0099602547
0.4333333393 0.9771455798 -6.3179797162 -0.5198862649 0.1245335667 6.9891955010
-0.3000000178 2.2957664404 -6.9734104357 -0.5169381763 0.1212991003 6.9769057687
0.4335265392 0.5685378384 -6.8765205110 -0.5087716659 0.1236838779 6.9710776581
0.4555554706 0.9864390234 -6.3394735809 -0.4787872463 0.1234388557 6.9889185454
-0.3000000178 0.7950187960 -5.9430001051 -0.5157041319 0.1227248558 6.9742046801
-0.1201337004 1.1223222558 -6.2851238080 -0.5000000000 0.1445445649 6.9888889454
0.1562798972 1.1223222558 -6.5673001607 -0.5000000000 0.1442033427 6.9861172123
-0.2777777975 0.9923752007 -5.9684937917 -0.4790086019 0.1255089222 6.9894395232
-0.0172091540 1.1000999467 -5.8611655123 -0.5000000000 0.1338112992 7.0062557217
0.3002584844 0.9445444938 -5.9098295302 -0.4995312000 0.1152985675 6.9913190119
0.4063879194 1.1024615909 -6.4426406162 -0.4955002226 0.1439762983 6.9874220345
0.4224622958 1.7201337582 -6.8589803792 -0.5195450649 0.1233251446 6.9955909226
0.4555554706 0.7361093790 -6.8271118931 -0.4804479795 0.1219817225 6.9956545226
0.4555553817 0.4788095797 -6.8434516695 -0.4801636907 0.1214088114 6.9962352114
0.4999999111 1.0567659283 -6.2967571181 -0.4789801130 0.1274155220 6.9888889454
0.4269718509 1.0630935722 -5.8777752220 -0.4984772224 0.1205040115 7.0059869661
0.3027070175 1.1223222558 -6.2190417472 -0.5000000000 0.1445445649 6.9888889454
0.4336099392 1.0112111546 -6.6575711527 -0.5000000000 0.1001411244 6.9885323232
0.0399500409 1.1223222558 -6.1818482838 -0.5000000000 0.1445445649 6.9888889454
0.1532879642 1.0112111546 -6.2432306562 -0.5000000000 0.1002051244 6.9892104565
-0.2763021754 2.2396866676 -6.9752428355 -0.4790443574 0.1222047225 6.9825269460
0.4111110301 0.3437472583 -5.9234891957 -0.5157041319 0.1219660114 6.9879930788
0.0999999467 1.3994551645 -6.8506877355 -0.5119267767 0.1239517445 7.0011093666
0.1666666074 1.9344276503 -6.9209351293 -0.5124941322 0.1239412112 7.0010303888
0.1222221669 1.8022616398 -6.9057807750 -0.4833184015 0.1235655890 6.9982133224
-0.0153928209 1.1001001244 -6.6816067950 -0.5001884222 0.1445141872 6.9886063010
-0.2791302419 0.4432102495 -5.8999974422 -0.5009557555 0.1221332558 7.0045930774
0.4520388265 1.0112111546 -6.5280477864 -0.4968016892 0.1385437210 6.9890522565
0.0575021060 1.1223222558 -6.2735067868 -0.5008151110 0.1443762094 6.9905191675
0.4161167630 1.3584410570 -6.8526245798 -0.5200017982 0.1215856114 6.9839520125
0.4548435596 1.1000999467 -6.0117514545 -0.4978290002 0.1443883427 6.9903362786
0.2591177325 1.1001000355 -5.9925633451 -0.4980339335 0.1441281427 6.9913845008
-0.2894987520 1.7819988194 -6.9213474403 -0.5083262437 0.1209237448 6.9764568799
0.0457243959 2.2312514239 -6.9797079018 -0.4980200446 0.1195201005 6.9678720806
0.4555554706 0.7846698636 -6.8473036691 -0.4784193797 0.1229525002 6.9888171454
0.1411682763 1.1001001244 -5.8988296423 -0.5000000000 0.1442212983 6.9894119898
0.4973706447 1.0112111546 -6.2940986961 -0.4950333560 0.1009334799 6.9898084342
0.0199341538 1.6034043686 -6.8737739334 -0.5034041553 0.1250494111 7.0093420325
-0.2992705290 0.3487938357 -5.8999987978 -0.5151886209 0.1219744780 7.0045930774
-0.2142997143 1.0112111546 -5.8569378238 -0.5000000000 0.1001593689 6.9905057008
-0.3222222380 1.0545598396 -6.0222169425 -0.5216935981 0.1260446332 6.9894100343
0.0599303725 1.1223222558 -6.2399279676 -0.5000000000 0.1445445649 6.9888889454
0.2912123963 0.9643479365 -5.9222210180 -0.4995502667 0.1194714116 6.9678176362
0.4155996519 0.1073417905 -5.8999974422 -0.5125320656 0.1215684559 7.0045930774
0.2108888257 1.0112111546 -6.6611179746 -0.5000000000 0.1002051244 6.9872311011
0.4528894264 0.2772411309 -6.8515449354 -0.4824292016 0.1207428337 6.9986028557
0.2106819368 1.8996542311 -6.9132731744 -0.4902787342 0.1249559667 7.0086411215
