-0.0639435893 0.7678571429 0.2508648571 -0.5000000000 0.0178525893 0.5092721429
-0.2321930357 0.7678571429 0.4301639107 -0.4995278750 0.0177142857 0.5101543929
0.0257694464 0.7500000000 -0.2023593393 -0.5000000000 -0.0174362679 0.5107085536
0.2261893393 0.7500000000 0.1204238571 -0.5000804286 -0.0178568036 0.5089257143
-0.2650022500 0.7500000000 0.1340312321 -0.5000000000 -0.0178412143 0.5096129286
0.3600669643 1.2440975714 -0.3125028571 -0.5000157857 0.0000504643 0.5267824643
-0.2782003929 0.7818471964 -0.2550643393 -0.5000000000 0.0133512857 0.5205475893
-0.4230828571 1.3542871429 -0.3125027857 -0.5000029821 0.0000119107 0.5267827500
0.4609435000 0.4846923036 0.4879581607 -0.5151551429 -0.0015779107 0.5152666250
-0.0059864107 0.7645214643 0.4263114464 -0.5000000000 0.0175824107 0.5106217321
0.3574288214 1.3581199643 -0.3302884821 -0.4971650893 -0.0002692679 0.4913344464
0.2159780179 0.7678572143 -0.0440169643 -0.5002492500 0.0178550714 0.5089257143
0.4038770536 0.7611646607 -0.0331778750 -0.4946305714 -0.0169326964 0.5087827143
-0.3255257321 0.7678571429 0.1713307321 -0.4988058929 0.0177815893 0.5089257143
0.3856834643 1.4387095357 -0.3404981071 -0.4990830357 0.0137742857 0.5198202143
-0.0211448036 0.8379676071 -0.3303600000 -0.5003029821 -0.0008294286 0.4911883214
-0.3812904464 1.4361951071 -0.3379836786 -0.5011043750 0.0136545714 0.5199405536
0.0770179821 0.7678571429 0.4089420536 -0.5000061250 0.0178513214 0.5093754107
-0.1394621607 0.7678571429 -0.0262814464 -0.5000000000 0.0178551071 0.5090751964
0.1244910179 0.7678571429 -0.1331653571 -0.5000109643 0.0178567321 0.5089695893
0.4013289107 0.8748791607 -0.3193134464 -0.4966878929 0.0000000000 0.4914295536
-0.2553614643 1.2133671964 -0.3303600000 -0.5000000000 0.0000000000 0.4910685714
-0.4957306786 0.0047449643 0.3214456071 -0.4855979107 0.0087203393 0.5095714643
0.1445694643 1.0427415714 -0.3125028571 -0.5000000000 0.0002208214 0.5267791786
0.1194187500 0.7619975000 -0.2723288571 -0.4987416786 -0.0158374464 0.5011106250
-0.1161906429 0.9573075357 -0.3125028571 -0.5000000000 0.0001191786 0.5267808750
-0.4350121786 0.5383665536 0.4951922500 -0.5000000000 -0.0005072679 0.4910757857
-0.1840386429 0.7500000714 -0.0437394821 -0.5000000000 -0.0178571429 0.5089257143
0.3786245000 1.2487575000 -0.3125028571 -0.4999825000 0.0000700357 0.5267822143
-0.2581667857 0.7500000000 -0.0072277500 -0.5000000000 -0.0178495000 0.5094000179
0.2512487679 1.2989510179 -0.3125028571 -0.5000478571 0.0000957321 0.5267821964
-0.2424551786 0.7678571429 0.0586771964 -0.4999696964 0.0178384286 0.5096112500
0.4135359286 0.7321428571 0.4255255357 -0.5017689286 0.0150024107 0.5132184107
-0.4805238214 0.3035237500 0.4990658750 -0.4822103750 -0.0015504286 0.5089257143
-0.4285714286 1.3888280000 -0.3167255893 -0.5045465179 -0.0010430000 0.5143284643
0.3710621429 1.4464285714 -0.3743470000 -0.5000039107 0.0177590000 0.5096049107
0.3916313393 0.7577258571 0.0664588393 -0.4953001429 -0.0171257857 0.5087699643
0.4123157143 1.0786599464 -0.3125028571 -0.4999550179 0.0001799464 0.5267812143
-0.4090150357 1.3935193929 -0.3303600000 -0.5043667679 -0.0048330357 0.4924534107
-0.4081155536 1.0810500536 -0.3125028571 -0.5000444643 0.0001778214 0.5267812321
-0.1999815893 1.4428525714 -0.3860094821 -0.4985437321 0.0174752500 0.5122647143
-0.4113057679 0.9246806429 -0.3168192500 -0.5038375536 0.0000000000 0.4915116250
-0.1145319286 1.1659789821 -0.3125028571 -0.5000000000 0.0003674643 0.5267767321
-0.4692483036 0.0593113929 0.4910685714 -0.5014763571 -0.0014763571 0.5263085893
-0.1653039821 0.9484348929 -0.3125028571 -0.5000000000 0.0001086250 0.5267810536
0.4358068214 0.0178571429 -0.4380433929 -0.5131391607 -0.0028460179 0.5161620714
0.4035853036 1.3224915179 -0.3187494286 -0.4960994286 -0.0003238393 0.4915216250
0.2294135714 0.7678571429 -0.1239801071 -0.5010480714 0.0177875714 0.5087531071
-0.1004791250 0.7500000000 -0.1039229107 -0.5000000000 -0.0178571429 0.5089257143
-0.4983433929 0.0187797143 0.4083848929 -0.4873402679 -0.0125490179 0.5097488393
0.0992480714 0.8958833571 -0.3125028571 -0.5000000000 0.0000460893 0.5267820893
-0.4458539821 0.6490931429 0.4741047143 -0.4960764464 0.0004662857 0.5246961964
-0.1247821607 0.7500000000 -0.1151466964 -0.5000000000 -0.0178571429 0.5089257143
0.2819516250 0.7532824107 -0.2476390357 -0.5000000000 -0.0165579464 0.5024960357
0.1121388929 0.7467853036 0.4732114286 -0.5012770179 0.0118965000 0.5212667321
-0.3538346250 0.7500000000 -0.2339714643 -0.5023772143 -0.0171262679 0.5054872679
0.1859516429 0.7644748750 0.4479518571 -0.5010911071 0.0165991250 0.5147233036
-0.0944236964 0.7727995536 -0.2688162679 -0.4996447679 0.0158737679 0.5160731964
0.2289560893 0.7499999286 -0.0282120357 -0.5006213750 -0.0178281429 0.5095470893
-0.2857624107 0.7089774286 0.4785197500 -0.5009894107 -0.0063262143 0.4923088393
0.3437621964 1.3426647143 -0.3125028571 -0.5000029464 0.0000058750 0.5267828214
0.3353656429 0.7500000000 -0.2019210536 -0.4986187679 -0.0177800536 0.5089257143
-0.2256941429 1.1668866071 -0.3125028571 -0.4999385536 0.0001229107 0.5267820000
0.2702078750 0.7678571429 0.1830565357 -0.5002123929 0.0178214107 0.5095049107
0.0940468571 0.7423456786 -0.1875028571 -0.4994705357 -0.0063535536 0.4944872143
0.2528634107 0.7500000000 -0.2373059107 -0.5000000000 -0.0171341607 0.5044704464
0.1124893571 0.7500000000 0.2309030357 -0.4999834107 -0.0178535536 0.5086425000
-0.3666222679 0.7194212500 0.4859330000 -0.5014696250 -0.0093913571 0.4943711964
-0.2028475536 0.7678571429 0.3088961964 -0.4999366607 0.0178551786 0.5091310536
-0.1165318750 0.7731497679 -0.2695167321 -0.4993573214 0.0158658750 0.5158524464
-0.1620980357 0.7500000000 -0.0356821964 -0.5000000000 -0.0178571429 0.5089257143
0.3762401786 0.7726315179 0.1270575179 -0.5024328750 0.0176837679 0.5090479107
0.0833835536 1.2285262500 -0.3303600000 -0.5000000000 -0.0004570893 0.4910764464
-0.2515326071 0.7678571429 -0.1758656429 -0.5013052857 0.0177668393 0.5082730714
0.1471659107 0.7678571429 0.2751928750 -0.5000559821 0.0178550536 0.5091496607
0.0476232857 0.7629874107 -0.2832822679 -0.4996067857 -0.0142620893 0.4984113571
0.0724502321 0.7190132143 0.4910685714 -0.5000207143 0.0074692857 0.5247306250
0.3938884107 0.0318591964 -0.4721858750 -0.5023130536 -0.0136147679 0.5151556786
0.0933960536 1.1627366250 -0.3303600000 -0.5000000000 -0.0003761250 0.4910750536
-0.4590348393 0.0282084464 -0.1118444643 -0.4914694821 -0.0108382143 0.5093972500
0.4338587321 0.4768268750 0.4732114286 -0.4990893214 0.0000803571 0.5264108750
0.1414291607 0.7797805179 -0.2890689643 -0.4989753571 -0.0135345714 0.4975520714
-0.0745779107 0.7142857143 -0.1735916786 -0.5000000000 0.0178571429 0.5089257143
0.2476805357 0.7514434464 0.4717679821 -0.5010056429 0.0158902857 0.5166785893
0.0600387321 0.7097779643 0.4732114286 -0.4992134821 -0.0031460893 0.4914648214
0.1038096250 0.9162508393 -0.3303600000 -0.5000000000 -0.0000727500 0.4910698214
-0.4794623929 0.0292545893 0.3579893571 -0.4994774821 -0.0111279464 0.5090158214
0.0831966429 0.7678571429 -0.1662558036 -0.5000069464 0.0178568929 0.5089534643
-0.3162153750 1.1146451429 -0.3303600000 -0.5006549286 0.0000000000 0.4910967500
0.4752898214 0.0411139107 0.5089257143 -0.4972022500 0.0053041429 0.4929178036
-0.2858768571 0.8801757321 -0.3303600000 -0.5000034821 0.0000000000 0.4910687143
0.1022894643 1.3744143036 -0.3405019107 -0.4986371429 -0.0054514464 0.4920058929
0.3530454643 0.8816923393 -0.3303600000 -0.4985542679 0.0000000000 0.4911307679
0.2547145536 0.7678571429 0.1135352321 -0.5000000000 0.0178512321 0.5092726071
0.2392294821 0.7123855893 0.5089257143 -0.5009422679 0.0037593571 0.5260972143
0.3292404643 0.7651572857 0.4689356786 -0.5010553393 0.0154457321 0.5173684643
-0.3010532500 0.7267586250 -0.0287640357 -0.4933144286 0.0163357500 0.5100410000
-0.0084359286 1.0036508036 -0.3303600000 -0.5000000000 -0.0000917857 0.4910693750
-0.4191288929 0.0010781964 -0.4028165000 -0.5159601250 0.0049211429 0.5063488929
-0.1597080179 0.0318116429 -0.4910742857 -0.5000000000 -0.0116381607 0.5121280357
-0.3202445000 0.7142857143 0.0941260893 -0.5014339286 0.0176664464 0.5084477321
0.2094456071 0.7678571429 0.3608504286 -0.5000000000 0.0178571429 0.5089257143
-0.3992216786 0.9735608750 -0.3125028571 -0.5000251429 0.0002217500 0.5267809107
-0.2646939107 0.6848727679 0.5089257143 -0.4995786964 -0.0056179821 0.5252530714
-0.4150083036 0.7142857143 0.4498329107 -0.5000000000 0.0178571429 0.5089257143
-0.3392882321 0.9653686786 -0.3303600000 -0.5011503393 0.0000000000 0.4911180714
-0.2866047143 0.7678571429 0.1460489286 -0.5000000000 0.0178557321 0.5090991429
0.1766281071 0.7500000000 0.2516121250 -0.4999842500 -0.0178566786 0.5088627321
-0.1938343750 0.7500000000 0.0750300536 -0.4999073571 -0.0178567679 0.5089257143
0.3694334643 0.7530727321 0.1757881607 -0.4964162321 -0.0174305536 0.5087699643
0.1584241071 0.7896890714 -0.2966331071 -0.5012830357 0.0118743036 0.5217267857
0.0986702143 0.7500000000 0.2740253036 -0.4999911071 -0.0178523750 0.5085746250
0.2009836607 1.0429931429 -0.3303600000 -0.4999904464 -0.0000382143 0.4910688036
-0.1128585000 1.2165906071 -0.3303600000 -0.5000153393 -0.0003198036 0.4910733929
-0.2234753750 1.0230811071 -0.3125028571 -0.4999670714 0.0000658393 0.5267823929
0.1016042500 0.7678571429 0.1540036607 -0.5000330893 0.0178548929 0.5091352321
0.2441475714 1.1458127143 -0.3125029286 -0.5000572679 0.0001145357 0.5267820536
0.0324750000 0.7764536964 -0.2772663571 -0.5004704821 0.0142743393 0.5186608393
-0.4201956607 1.0269029464 -0.3125028571 -0.5000532500 0.0002130179 0.5267809107
0.3232338750 0.8193757143 -0.2925928571 -0.5000000000 0.0126269107 0.5215526250
-0.1791263393 0.7678571429 0.0921515179 -0.4999387321 0.0178540893 0.5091320893
-0.2324248036 1.4412086964 -0.3608544107 -0.4991393929 0.0162585179 0.5153699464
-0.0836654464 0.7678571429 0.1367251964 -0.5000000000 0.0178536786 0.5091887321
0.2373703571 0.9166964821 -0.3303600000 -0.5000000000 0.0000000000 0.4910685714
-0.2150008571 0.7445195000 0.4910685714 -0.4983304821 0.0120572500 0.5219230536
-0.0739167143 1.2126458036 -0.3125028571 -0.5000000000 0.0004229821 0.5267758036
-0.0488988036 1.1270863750 -0.3125027857 -0.5000000000 0.0002306429 0.5267798036
0.2305502143 0.9834331786 -0.3125028571 -0.5000250536 0.0000501071 0.5267825179
-0.0116208571 0.9038269821 -0.3303600000 -0.5000000000 -0.0000292500 0.4910688214
0.3711845536 1.0557697857 -0.3125028571 -0.5000267857 0.0001443571 0.5267817143
0.4642857143 0.0079327143 0.4422431250 -0.4821428571 0.0000000000 0.5089257143
-0.3219011786 1.2188709821 -0.3125029286 -0.4999719464 0.0000561071 0.5267824643
0.2831987679 1.2700248393 -0.3303600000 -0.5000000000 0.0000000000 0.4910685714
0.2808783393 0.7500000000 -0.0443128750 -0.4998679821 -0.0178024107 0.5094593571
0.2899845714 0.9871595893 -0.3125028571 -0.5000060714 0.0000121250 0.5267827679
0.1134550893 0.7678571429 0.2910359643 -0.5000460714 0.0178541250 0.5092094107
0.2773965357 0.7191750000 0.5040364286 -0.5003025714 0.0062846071 0.5255080000
-0.2384890714 1.2061967857 -0.3125028571 -0.4999344107 0.0001311786 0.5267819464
-0.4187880357 0.5870689643 0.4802339107 -0.5177933214 0.0015081250 0.5089257143
0.2529783214 1.3678956786 -0.3125028571 -0.5004515179 0.0011936429 0.5266373393
-0.2912065357 1.2253296786 -0.3303600000 -0.5001179286 0.0000000000 0.4910736429
0.4012037679 0.6938959464 0.4790254286 -0.4843157857 0.0060866786 0.5057481071
0.4421567321 0.0219411250 -0.1934811071 -0.5162684464 -0.0063125000 0.5099838393
-0.1396450357 0.7500000000 0.2389847679 -0.5000000000 -0.0178571429 0.5089257143
-0.2399677500 0.8830343036 -0.3303600000 -0.5000000000 0.0000000000 0.4910685714
0.4031738571 0.7321428571 0.3760645536 -0.5038592321 0.0156872143 0.5101131786
0.1321917321 0.7500000000 0.2345255000 -0.4999656786 -0.0178550357 0.5087123036
0.2578202679 1.0475384821 -0.3125028571 -0.5000377679 0.0000755536 0.5267823393
-0.0008928393 1.0983134643 -0.3303600000 -0.5000000000 -0.0001510893 0.4910698929
0.2253411786 0.8068896071 -0.3141619821 -0.5000000000 -0.0095097143 0.4938741607
0.1566197500 0.7321428571 0.4859420536 -0.5011677679 0.0118488750 0.5217343036
-0.3228002321 0.7678571429 0.3201738036 -0.4986751429 0.0177586429 0.5089257143
0.3772385536 0.6996616607 0.5089257143 -0.5000702143 -0.0031629464 0.5257860357
-0.1515540714 0.7500000000 -0.1354731071 -0.5000000000 -0.0178571429 0.5089257143
-0.4055373393 0.7500000000 0.4068927500 -0.5037936964 -0.0173996250 0.5085263750
-0.3463853393 1.3070858571 -0.3125028571 -0.4999898393 0.0000203214 0.5267827143
-0.2969566071 1.0837862143 -0.3125028571 -0.4999840357 0.0000319286 0.5267826250
-0.4262981071 0.7672888214 -0.2367540000 -0.5064253750 -0.0162235893 0.5057911786
0.0567690714 1.2145744107 -0.3303600000 -0.5000000000 -0.0003779107 0.4910745357
-0.2625303214 0.7678571429 0.3287776429 -0.4999675357 0.0178564464 0.5090394464
0.0574781607 0.7678571429 -0.0549899464 -0.5000000000 0.0178555179 0.5090486429
-0.2981473036 0.7678571429 0.0929760357 -0.5000000000 0.0178469643 0.5094711964
-0.4604607679 0.3687320179 0.5003044821 -0.5007958214 -0.0019205893 0.4912598929
0.1608208214 1.0081696429 -0.3303600000 -0.4999845000 -0.0000620000 0.4910689464
0.2930294464 0.7678571429 0.3338606429 -0.5002037143 0.0178456429 0.5089471607
-0.4689718393 0.2645843571 0.4678993571 -0.5042307679 0.0005539107 0.5225749821
0.1493909643 1.2976991071 -0.3303600000 -0.4999547857 -0.0001808393 0.4910696786
0.0666534286 0.7500000000 0.3775217857 -0.5000000000 -0.0178503571 0.5084510893
0.2723535893 1.2958804464 -0.3303600000 -0.5000000000 0.0000000000 0.4910685714
-0.0288799464 0.7678571429 0.3124073036 -0.5000000000 0.0178520000 0.5093171250
-0.2158136250 1.0397314286 -0.3125028571 -0.4999637679 0.0000724464 0.5267823571
0.2325547679 1.2692602679 -0.3125027857 -0.5000738214 0.0001476607 0.5267818393
0.4251763393 0.0000000000 -0.1892335000 -0.5000000000 0.0178571429 0.5089257143
0.2005389107 0.7678571429 0.0705417679 -0.5000000000 0.0178571429 0.5089257143
0.2430790536 1.1808092857 -0.3125028571 -0.5000592143 0.0001184286 0.5267820357
-0.2083995357 0.7678571429 0.0071455179 -0.4999852321 0.0178563750 0.5089957321
0.1529519286 0.8150980179 -0.3182661786 -0.4993046964 -0.0078578036 0.4930146250
-0.4071588750 0.7803611786 0.2236538929 -0.4992307143 0.0177852679 0.5091021429
0.4813786964 0.2561377857 0.4876155536 -0.5130626964 -0.0012182321 0.5203956786
0.3401284286 0.7090608036 0.5089257143 -0.5002433571 0.0015402143 0.5261970357
-0.4494937679 0.0178571429 -0.0349373750 -0.5000000000 -0.0178571429 0.5089257143
0.2048063214 0.0314601607 -0.4868201429 -0.5000000000 -0.0133059643 0.5114840357
0.1164458214 1.1260886786 -0.3303600714 -0.4999913750 -0.0002620536 0.4910726964
0.2556580893 1.4146156250 -0.3699756250 -0.4994923214 -0.0163024107 0.5017898571
-0.0798588393 0.8995328571 -0.3125028571 -0.5000000000 0.0000504286 0.5267820179
-0.2925215893 0.7936571607 -0.2668743036 -0.4992695357 0.0125965714 0.5215222857
0.3357496250 0.8975842321 -0.3125028571 -0.5000710714 0.0001421429 0.5267818393
0.4552809107 0.0245351250 0.0077568214 -0.5162300179 -0.0055868036 0.5099860536
-0.2445876071 0.7678571429 0.0899938929 -0.4999636429 0.0178482500 0.5093574643
0.3246040357 1.2003246071 -0.3125028571 -0.5000318214 0.0000636429 0.5267824107
-0.3399823393 0.6931649643 0.4910685714 -0.5003640536 -0.0051851607 0.4921795536
-0.3980041071 0.7500000000 0.3825330179 -0.5000000000 -0.0178571429 0.5089257143
0.4642857143 0.0229073571 0.4826316964 -0.4821428571 0.0000000000 0.5089257143
-0.3909212679 0.7763017857 -0.1710972143 -0.4989543571 0.0177967679 0.5089257143
0.2596860536 0.7678571429 -0.0074296607 -0.5008984464 0.0177803750 0.5096620179
-0.1601630357 0.7016355714 0.4973936786 -0.4987240000 0.0011295179 0.5262363929
-0.1238538929 0.7678571429 -0.2433878929 -0.4993691964 0.0176387857 0.5111987679
0.4013091429 0.7601568393 0.0006162143 -0.4947887679 -0.0169814107 0.5087758571
-0.4733261607 0.0000000000 0.4062022321 -0.5055981071 0.0155344107 0.5086769107
0.0654530536 0.7678571429 0.0314333750 -0.5000000000 0.0178546964 0.5091118036
-0.3694430893 0.9606417321 -0.3272849464 -0.5022954286 0.0000000000 0.4912499643
0.1026451964 0.7500000000 0.3437836607 -0.4999803750 -0.0178524643 0.5085601250
0.0857595000 0.7500000000 -0.0811597321 -0.5000000000 -0.0178558750 0.5088363929
0.4091306429 0.7581368214 0.2133127679 -0.4935520179 -0.0161241250 0.5087034643
0.0818260000 0.9854817321 -0.3303600000 -0.5000000000 -0.0001579643 0.4910712857
0.0388847679 0.7500000000 -0.0223582143 -0.5000000000 -0.0178551607 0.5087870000
-0.1701216964 1.3234988571 -0.3303600000 -0.5000317321 -0.0001268929 0.4910693393
0.3991652857 0.7621492679 -0.2548671429 -0.4957550000 -0.0160667857 0.5030445893
0.2278687679 0.7475948929 0.4910685714 -0.5018458393 0.0079770000 0.5246485179
0.1937272143 0.7500000000 0.4724440000 -0.5008046071 0.0166592500 0.5152072500
-0.3211792857 1.4285714286 -0.3790335000 -0.5009249286 -0.0162898393 0.5030458036
0.1831842857 0.7500000000 0.4082504286 -0.4999738036 -0.0178563571 0.5088209286
0.1212952500 0.7500000000 0.0833416964 -0.4999909286 -0.0178546786 0.5087355000
-0.4881085714 0.0228213571 0.3134225893 -0.4869501964 -0.0120050179 0.5097531071
0.2909973750 0.7500000000 0.4820514286 -0.5010414821 0.0145067500 0.5192665536
0.4642857143 0.0065773393 0.4725562321 -0.4876137679 0.0077305357 0.5037720179
-0.0896825536 0.7161455179 -0.2053600000 -0.5000000000 0.0000000000 0.5267828571
0.1572810536 0.7678571429 0.1802283036 -0.5000333393 0.0178558929 0.5090590357
0.2842833571 1.3781915357 -0.3125028571 -0.5000290000 0.0032923036 0.5262514643
-0.3085770893 1.0137258929 -0.3125028571 -0.4999675357 0.0000649464 0.5267823929
-0.3947174107 1.4285715714 -0.3817027679 -0.5039759107 -0.0121337321 0.5001010714
-0.3800458393 0.7321428571 0.3731544107 -0.5092398214 0.0113928571 0.5061258036
0.3576296429 0.7241883929 0.2024720179 -0.5166022321 0.0020455714 0.5135004464
-0.0236570893 0.7678571429 -0.1021066964 -0.5000000000 0.0178559821 0.5090142143
-0.2764927679 0.9536253393 -0.3125027857 -0.4999871964 0.0000256071 0.5267826786
-0.0767959821 0.8912427143 -0.3303600000 -0.5000000000 -0.0000419643 0.4910693036
0.2581667143 0.7500000000 0.1081414286 -0.5000000000 -0.0178449821 0.5094177857
-0.4266405893 0.9863076964 -0.3129855536 -0.5043217679 -0.0001289464 0.4916033214
0.1332903571 0.7500000000 -0.1137821250 -0.5000000000 -0.0178562500 0.5088637857
-0.2647785536 1.0833015357 -0.3125028571 -0.4999709286 0.0000581429 0.5267824464
-0.3908807679 1.3787574821 -0.3280215179 -0.5033183036 -0.0040628929 0.4919905000
0.4193746071 0.0000000000 -0.4400563929 -0.5000000000 0.0178571429 0.5089257143
0.3733587857 0.7719110714 0.3129729643 -0.5021571607 0.0177217679 0.5091072321
0.4125832143 1.0495402500 -0.3164999107 -0.4959716071 -0.0000897321 0.4915416786
-0.2325764464 0.7678571429 -0.0785796250 -0.4999962143 0.0178500000 0.5094269286
-0.2580474821 0.7560800893 0.4671313571 -0.4993471071 0.0157615893 0.5166981429
0.2711996429 1.0839225179 -0.3125028571 -0.5000201607 0.0000403214 0.5267825714
-0.0997279107 1.3908771786 -0.3293700179 -0.4995066250 0.0047583036 0.5260645357
0.3642085000 0.7517664107 0.1392517857 -0.4968331964 -0.0175281071 0.5087911607
-0.4940872679 0.0000000000 0.4470446250 -0.5000000000 0.0178571429 0.5089257143
-0.1208921071 0.0036844643 -0.4947587321 -0.5000000000 0.0116693393 0.5222428036
-0.1051404821 1.0016833750 -0.3125029286 -0.5000000000 0.0001719821 0.5267800000
0.2014573036 0.7500000000 0.3276373214 -0.4999982321 -0.0178570893 0.5089186607
-0.4821428571 0.0144009107 0.4522136786 -0.5159862679 0.0065627143 0.5075865536
0.4084215179 0.7315505536 0.4738037321 -0.4965204107 -0.0123424286 0.4965278214
-0.4535415357 0.0000000000 -0.3262692143 -0.4968893214 0.0161736250 0.5090810179
0.1735274464 0.7366128036 0.4508843214 -0.5000000000 -0.0159719107 0.5009397500
0.1859261607 0.7142857143 -0.1717297679 -0.5000000000 0.0178571429 0.5089257143
-0.0559665179 1.4076310536 -0.3303600000 -0.5000000000 0.0104171250 0.5230215357
-0.4323296964 0.0029104821 -0.2993702857 -0.5178228393 0.0000000000 0.5078244821
0.3836844286 0.7744925357 -0.1206691607 -0.5013201429 0.0175890357 0.5089639464
0.0577587679 0.7678571429 0.1366038393 -0.5000000000 0.0178536786 0.5091886429
0.4481347679 0.0000000000 0.0108756071 -0.5000000000 0.0178571429 0.5089257143
0.1835299821 0.7678571429 0.0246754821 -0.5000000000 0.0178571429 0.5089257143
-0.1385464286 0.7720954821 -0.2674080893 -0.4989573571 0.0162310714 0.5149438393
-0.2569267679 0.7500000000 0.0259461071 -0.4999239107 -0.0178494107 0.5093176964
-0.3604140893 0.7500000000 0.1069552679 -0.5013839643 -0.0177190000 0.5088523929
0.4607773571 0.3243065893 0.4787540179 -0.5161770714 -0.0014435357 0.5128373214
-0.1917690536 0.7678571429 0.4087999464 -0.4999335179 0.0178540893 0.5092135357
-0.0708238393 0.7678571429 0.0872195179 -0.5000000000 0.0178541607 0.5091525714
0.0432846607 0.7468865893 0.4227533929 -0.5000000000 -0.0175224464 0.5071122857
-0.1304358393 1.1042882321 -0.3125028571 -0.5000000000 0.0002940536 0.5267779643
-0.3421061250 0.7185882857 0.2105997679 -0.5153270000 0.0074274107 0.5043445714
0.1970024821 0.8824562321 -0.3303600000 -0.4999974107 -0.0000103929 0.4910686429
-0.2716456250 0.7598464107 -0.2607671071 -0.5000000000 -0.0157923571 0.5009306964
0.2891003750 0.7500000000 0.4175040714 -0.5000000000 -0.0178571429 0.5089257143
0.0341377857 1.4249281250 -0.3575399286 -0.5005202679 0.0122097679 0.5217610536
0.4266872321 1.0660315179 -0.3129738393 -0.4956566429 -0.0002181964 0.4916102143
0.2938379643 1.4124750357 -0.3283290893 -0.5013565000 0.0064811429 0.5252037321
-0.2945889821 0.7678571429 0.3775556250 -0.4997124286 0.0178374643 0.5089257143
-0.2955589643 0.7678571429 -0.2308067500 -0.4998060357 0.0171821607 0.5119951071
-0.4084468393 0.7806831071 0.0637820179 -0.4992308393 0.0177910357 0.5089992143
-0.2277914286 1.4068487679 -0.3482172143 -0.5002661071 -0.0111766964 0.4954014821
-0.4063612857 0.0000000000 -0.4901562321 -0.4977545000 0.0084346607 0.5201532500
-0.4395960536 0.0000000000 -0.1825730357 -0.5016956964 0.0171535714 0.5088503571
0.1159760536 0.7678571429 0.1282978393 -0.5000428214 0.0178555536 0.5090969821
0.2975734286 0.7270014643 0.4761762143 -0.4984035179 -0.0107115179 0.4951622679
0.3001316607 0.7402832143 0.0050268929 -0.5168423750 -0.0031672500 0.5139097500
-0.4795729107 0.1022344464 0.4906491429 -0.5109455893 0.0016488571 0.5225080000
-0.4739745179 0.1493359643 0.5066343214 -0.5000000000 -0.0005222679 0.4910762143
-0.0112098929 0.9341008393 -0.3125028571 -0.5000000000 0.0000473750 0.5267824464
-0.3090310893 0.8025966429 -0.2758137857 -0.4987063214 0.0125731964 0.5214989107
-0.0623359643 0.7678571429 -0.0121551250 -0.5000000000 0.0178551071 0.5090799464
-0.3603171250 0.9395470000 -0.3295664821 -0.5018809643 0.0000000000 0.4911831429
-0.1597146607 0.7500000000 0.3387659643 -0.4999782679 -0.0178570536 0.5089257143
0.1352973750 0.9598030357 -0.3303600000 -0.4999948929 -0.0000855536 0.4910698214
-0.0765772500 0.7500000000 0.1508613393 -0.5000206250 -0.0178555536 0.5087606964
0.1261408750 0.7521279821 -0.2453302679 -0.4996150000 -0.0169598393 0.5037817500
-0.1888792143 0.7208388929 0.4732114286 -0.5000000000 -0.0096890714 0.4941813393
-0.3072260000 0.6785714286 0.5075378571 -0.5001666786 -0.0086084821 0.5225318571
-0.0901132321 1.2879603214 -0.3125028571 -0.5000000000 0.0005125893 0.5267743214
0.3423211250 0.7678571429 0.4123403571 -0.5015763393 0.0177680893 0.5090916429
0.0909575000 1.3445171607 -0.3303600000 -0.4999872679 -0.0004980714 0.4910765893
-0.4019645179 0.7289770714 0.3933906607 -0.5113653571 0.0125309643 0.5048251786
0.3477024286 1.0444156071 -0.3303600714 -0.4983411250 0.0000000000 0.4911667679
0.1838358393 0.7500000000 0.2194555179 -0.4999939286 -0.0178569643 0.5089014286
-0.4671228750 0.4509340714 0.4832910357 -0.4822129107 -0.0015798214 0.5089257143
-0.1676777500 0.7500000000 0.2641542679 -0.4999581964 -0.0178569821 0.5089257143
-0.3605515536 0.7500000000 0.1850900000 -0.4917258214 -0.0140240179 0.5115037321
0.1470445893 0.7678571429 0.3155023750 -0.5000610357 0.0178548750 0.5091698393
-0.4730049464 0.0000000000 0.2439778929 -0.5000000000 0.0178571429 0.5089257143
-0.1170911786 0.7197988393 0.4910685714 -0.4990744107 0.0066602143 0.5248119107
-0.2363245000 1.0662230000 -0.3125028571 -0.4999585179 0.0000829643 0.5267822857
0.4963561429 0.1048916786 0.4905956607 -0.5016973929 -0.0000948036 0.5262604286
-0.4567264107 0.0211053393 -0.1940825357 -0.4848655536 -0.0090977321 0.5097759286
-0.2663508750 0.7678571429 0.1166550179 -0.4999893036 0.0178054821 0.5101771786
0.1938126429 1.1910844464 -0.3125028571 -0.5000378214 0.0002461607 0.5267794821
-0.4109221071 0.6762161250 0.4865218393 -0.5177913929 0.0015306607 0.5089257143
-0.3068670357 0.9806046429 -0.3125028571 -0.4999699643 0.0000600893 0.5267824286
0.2696725357 1.4044448393 -0.3240905536 -0.5007536250 0.0068746607 0.5251687321
0.1203304107 1.1556600893 -0.3303600000 -0.4999855536 -0.0002518929 0.4910722679
-0.2073609464 0.7624419107 0.4607695179 -0.4987610179 0.0160176250 0.5152987321
0.0252275893 0.7059969286 0.4732114286 -0.4995029464 -0.0030875714 0.4917436964
-0.2337700000 0.7142857143 -0.1628626429 -0.5000000000 0.0178571429 0.5089257143
0.1432946071 0.7970480179 -0.3059794464 -0.4988530179 -0.0100965714 0.4944374643
0.3949087679 1.4464285714 -0.3563335893 -0.4978418929 0.0170800179 0.5119963750
-0.2851639107 0.7500000000 0.1923344464 -0.5000000000 -0.0178571429 0.5089257143
-0.0871842500 1.3371895357 -0.3303600000 -0.5000092679 -0.0005167321 0.4910770714
0.2016078393 0.7678571429 -0.0610049821 -0.5000000000 0.0178571429 0.5089257143
0.2492418929 0.9457133214 -0.3125028571 -0.5000175714 0.0000351429 0.5267826071
0.3588089286 0.7504165536 0.0236846071 -0.4974171964 -0.0176503393 0.5088393750
-0.0843434286 0.7321428571 0.4468983214 -0.5007124286 -0.0162520357 0.5032262143
-0.1968468214 1.0051361429 -0.3303600000 -0.5000125357 -0.0000501071 0.4910688750
-0.1603344464 0.7678571429 0.0765462679 -0.4999704821 0.0178541250 0.5091381071
0.0826056429 1.1577735714 -0.3125028571 -0.5000000000 0.0003576964 0.5267768929
0.1902602143 0.7678571429 -0.2395224464 -0.5004067857 0.0173210179 0.5121799821
0.1585646964 0.7520839821 0.4571972143 -0.5012887679 0.0163387143 0.5159932500
0.4285714286 0.7855153750 -0.2313192857 -0.4971424821 0.0167905536 0.5114785179
0.1645971786 0.7678571429 -0.0269067857 -0.5000000714 0.0178571429 0.5089260357
-0.2238126786 0.7678570714 -0.1711012321 -0.4981095536 0.0174741964 0.5070352679
0.0100682500 0.7214559821 0.4910685714 -0.5000000000 0.0070368036 0.5253123750
-0.0525188036 0.7500000000 -0.0731280893 -0.5000080000 -0.0178565179 0.5088616429
-0.4616759643 0.0072142500 0.3609206071 -0.5151090714 0.0065997143 0.5082289643
0.3551916429 0.7535776429 0.4870031429 -0.5007224464 0.0139641964 0.5200001250
0.3017633929 0.7500000000 0.1777486429 -0.5000000000 -0.0178571429 0.5089257143
-0.4445345714 0.0000000000 -0.0508363929 -0.5044124286 0.0160263750 0.5087296071
-0.3359653571 1.1984812857 -0.3125028571 -0.4999678036 0.0000643929 0.5267823929
0.1605498393 0.7500000000 0.2792135000 -0.4999672500 -0.0178561607 0.5087946964
-0.2332238750 1.2292292500 -0.3125029286 -0.4999271071 0.0001458036 0.5267818393
-0.0243988393 0.7678571429 0.1169074643 -0.5000000000 0.0178538750 0.5091742500
-0.0814029107 0.7500000000 0.2879750714 -0.5000273571 -0.0178550357 0.5087068750
-0.2986296250 0.7532288750 0.4873358571 -0.4984622321 0.0134788393 0.5200511250
0.3760658750 0.7547307679 0.0120068393 -0.4963003929 -0.0173646071 0.5088141429
-0.3262564107 0.7321428571 0.0469318571 -0.4947115714 0.0166819643 0.5099745357
0.0696734643 1.2224582857 -0.3125028571 -0.5000000000 0.0004276071 0.5267757857
0.4276883214 0.6377945000 0.4611800000 -0.4958542500 0.0012598036 0.5249897143
-0.2151889107 0.7500000000 -0.1458564464 -0.4981681429 -0.0176266964 0.5070938571
0.2332322321 1.0526794643 -0.3303600000 -0.5000000000 0.0000000000 0.4910685714
-0.1394060357 0.9094298929 -0.3125028571 -0.5000000000 0.0000622143 0.5267818214
0.2719432321 1.3177601964 -0.3303600000 -0.5000000000 0.0000000000 0.4910685714
0.3357257143 0.7678571429 0.3680382143 -0.5013926786 0.0177784643 0.5090723036
0.2086256607 1.1674296429 -0.3125028571 -0.5000536964 0.0001545357 0.5267813214
0.0193183750 1.0261752321 -0.3125028571 -0.5000000000 0.0001040714 0.5267819643
0.1090477500 0.7678571429 -0.1042317679 -0.5000145000 0.0178566071 0.5089836964
-0.3613101071 0.7678570714 0.4687098393 -0.4989124643 0.0169792857 0.5141295893
-0.1354943393 0.0000000000 -0.4766473036 -0.5000000000 0.0178571429 0.5089257143
0.1535184643 0.7678571429 0.0780096429 -0.5000250000 0.0178562143 0.5090257321
0.3470709643 0.7678571429 -0.0786854107 -0.5007965357 0.0177140179 0.5083934107
0.0288325000 1.0510944643 -0.3303600000 -0.5000000000 -0.0001215000 0.4910696429
0.0060236071 0.7413473214 0.4640070357 -0.4998090357 0.0140996071 0.5195305714
-0.3730066607 0.8136952321 -0.2869123750 -0.5010165000 0.0125332321 0.5214589464
-0.0511825714 0.9272965000 -0.3125028571 -0.5000000000 0.0000431964 0.5267824821
0.0047921786 0.0000000000 -0.4823541607 -0.5000000000 0.0178571429 0.5089257143
-0.3539889464 0.7678571429 0.0200556429 -0.4979098571 0.0177219821 0.5089257143
-0.4602682857 0.0178571429 -0.3107465357 -0.5000000000 -0.0178571429 0.5089257143
-0.0811318036 0.9720414107 -0.3125028571 -0.5000000000 0.0001367143 0.5267805714
0.1334063750 0.7500000000 0.2081292679 -0.4999673571 -0.0178551964 0.5087276429
0.4365283393 0.5317347679 0.4651957857 -0.4930177857 0.0013868929 0.5238005714
0.1559846071 0.7500000000 0.1038733214 -0.4999813750 -0.0178565893 0.5088512500
0.2471114643 0.7678571429 0.2408108036 -0.5000961250 0.0178563393 0.5089257143
0.0871065000 0.7500000000 0.0199416429 -0.5000000000 -0.0178546607 0.5087514643
0.4595497679 0.0178571429 0.2219055357 -0.4933396071 -0.0144476786 0.5085384286
0.1281874464 1.4357159464 -0.3803634643 -0.5010874464 0.0163297143 0.5160002143
0.4494138393 0.4191444286 0.4989300000 -0.4997174286 -0.0004785536 0.4910787500
-0.2396986071 0.7252123036 0.4732114286 -0.5005006964 -0.0099872857 0.4946746250
0.2524200893 0.9930953929 -0.3125028571 -0.5000269643 0.0000539464 0.5267824821
-0.0635569821 0.9966338036 -0.3125027857 -0.5000000000 0.0001343393 0.5267808929
-0.1215250536 0.7678571429 0.1181326250 -0.5000000000 0.0178537321 0.5091801607
0.0040783929 0.7500000000 -0.0980128571 -0.5000000000 -0.0178560714 0.5088505357
-0.1847959286 0.7678571429 0.2875327679 -0.4999659286 0.0178538750 0.5091966786
0.1510925893 0.7464480357 -0.2053600000 -0.5022010000 -0.0098309643 0.5217951786
-0.2565468214 1.3629277143 -0.3303600000 -0.5000000000 -0.0025870714 0.4916792857
-0.0152667857 1.3038572500 -0.3303600000 -0.5000000000 -0.0003122321 0.4910718750
-0.1580866429 0.7678571429 0.1960778571 -0.4999742679 0.0178528393 0.5092316071
0.0678880536 1.4380593929 -0.4017885714 -0.5001343214 0.0013756250 0.4920747143
-0.4556855179 0.0000000000 0.0114366071 -0.5000000000 0.0178571429 0.5089257143
-0.2901492321 1.3862601607 -0.3125028571 -0.5000000000 0.0046038571 0.5260357500
-0.4299891964 0.0084658214 -0.3520318393 -0.5178216250 0.0000000000 0.5078018929
0.4584487500 0.4387989107 0.4812912143 -0.5128360536 -0.0011673750 0.5209530714
-0.0217148214 0.9746178929 -0.3125028571 -0.5000000000 0.0000723214 0.5267822321
0.2284186250 0.7500000000 0.2464123214 -0.5000465714 -0.0178569464 0.5089257143
-0.3379742500 1.0035023036 -0.3125027857 -0.4999282500 0.0001435179 0.5267818393
-0.4876921964 0.2246715714 0.4986561250 -0.4822087321 -0.0015315536 0.5089257143
0.4477215536 0.4444341964 0.4981636429 -0.4997536786 -0.0004794107 0.4910783036
-0.2810912321 0.7678571429 0.4012326607 -0.4999935179 0.0178570000 0.5089485536
-0.1494933571 0.0129263571 -0.4732171429 -0.5000000000 0.0000000000 0.4910685714
-0.3919631786 0.7587050714 -0.0763968036 -0.5063640179 -0.0162903036 0.5087854107
0.3415360536 0.7678571429 -0.1690588036 -0.5022928214 0.0176672500 0.5089257143
0.0923889643 0.7678571429 0.0521068929 -0.5000229821 0.0178554464 0.5090809643
-0.4663345893 0.0178571429 0.2049113036 -0.5000000000 -0.0178571429 0.5089257143
0.2369160714 1.1103632857 -0.3303599286 -0.5000000000 0.0000000000 0.4910685714
0.3707795893 1.1706474821 -0.3125028571 -0.5000044643 0.0000970893 0.5267820536
0.3942401071 1.1556855536 -0.3210856607 -0.4963483036 -0.0000649107 0.4914631964
0.1796637857 0.7500000000 0.3790151250 -0.4999737321 -0.0178563571 0.5088206429
0.3047748214 1.1725970714 -0.3125028571 -0.5000270714 0.0000541429 0.5267824643
0.4047133571 1.1755046786 -0.3184674107 -0.4961124821 -0.0001687500 0.4915147143
0.2722984643 0.7500000000 0.3999678214 -0.5000052857 -0.0178571250 0.5089257143
-0.4176847321 0.7332151964 0.3706498750 -0.4828069821 -0.0006563214 0.5128170357
-0.0285538571 0.7500000000 0.0453963571 -0.5000163036 -0.0178558750 0.5087952679
-0.2815570000 1.1967514643 -0.3303600000 -0.5000000000 0.0000000000 0.4910685714
-0.3615444286 0.7500000000 0.2082137500 -0.4970049464 -0.0165945893 0.5099367500
0.0358463036 1.1731440714 -0.3303599286 -0.5000000000 -0.0002384107 0.4910713571
-0.0693337500 0.7678571429 0.0654349107 -0.5000000000 0.0178543750 0.5091366429
-0.1636423750 0.7500000000 -0.1130151786 -0.5000000000 -0.0178571429 0.5089257143
0.1408716607 1.2885321250 -0.3125028571 -0.5000000000 0.0005132679 0.5267743036
0.3112775893 0.7500000000 0.3274655536 -0.5000000000 -0.0178571429 0.5089257143
-0.3853609821 0.7500000000 0.4354816607 -0.5013430179 -0.0176951786 0.5087843393
-0.3282310000 0.7142857143 0.1525375893 -0.5024170000 0.0175357143 0.5081200536
0.1184605893 1.2361292143 -0.3303600000 -0.4999786250 -0.0002956607 0.4910727143
-0.2490164464 1.0635152500 -0.3303600714 -0.5000000000 0.0000000000 0.4910685714
-0.3891652143 0.7758626964 0.0266854107 -0.4985907500 0.0177522857 0.5089257143
0.0585908929 0.6886293571 0.4810106786 -0.4994602679 -0.0111078393 0.4967062143
0.2303360536 1.3406891071 -0.3125028571 -0.5000769107 0.0001538214 0.5267817857
-0.2138849286 1.1807084821 -0.3125028571 -0.4999363571 0.0001306071 0.5267819107
0.2688455536 0.7257167321 0.0302423036 -0.4827683036 0.0000498750 0.5042607679
-0.4663936607 0.0316263036 0.0574085714 -0.5045867321 -0.0120250536 0.5086484464
0.0153748571 1.4107142857 -0.3769606071 -0.4996970714 -0.0169050357 0.5045644286
0.0927831786 0.7130069821 0.4744901786 -0.4993851429 -0.0042750536 0.4917473214
0.2816215179 1.0429895893 -0.3125028571 -0.5000056786 0.0000113750 0.5267827857
0.4285714286 1.4357839286 -0.3767402500 -0.4948609107 -0.0107990536 0.5028595536
-0.2089898571 1.2375916071 -0.3125028571 -0.4999318750 0.0001803571 0.5267811786
-0.1288082679 0.7500000000 0.1792940714 -0.5000000000 -0.0178571429 0.5089257143
-0.2094411786 0.9102676964 -0.3303600714 -0.5000034821 -0.0000139286 0.4910686607
0.3796768929 0.7556334821 -0.0845299464 -0.4962518214 -0.0173307321 0.5088406964
-0.2809132143 1.3038123036 -0.3303600000 -0.5000000000 0.0000000000 0.4910685714
0.2955965357 0.7142857143 0.0505452143 -0.5000000000 0.0178571429 0.5089257143
0.0200452500 0.9338833929 -0.3125028571 -0.5000000000 0.0000472500 0.5267824464
-0.3547873929 0.7168598214 0.1881816071 -0.4831731250 0.0026734643 0.5137368393
-0.3289862679 0.7321428571 0.0891565000 -0.4921415000 0.0155496071 0.5108761071
0.1852571607 1.4285714286 -0.3471739643 -0.5008984286 0.0160038393 0.5161131786
-0.3874362321 0.8047110714 -0.2779282143 -0.5019411071 0.0124480179 0.5213737321
0.4005370893 0.7787057321 -0.0249766250 -0.5005818750 0.0175890893 0.5089996429
-0.4271537857 0.0158832679 -0.3867666964 -0.5177223571 0.0000000000 0.5073520179
-0.1772681964 0.7500000000 0.0360000893 -0.5000000000 -0.0178571429 0.5089257143
-0.2728898214 1.0221098571 -0.3303600000 -0.5000000000 0.0000000000 0.4910685714
-0.3311051250 0.7671302321 0.4560811964 -0.4990226250 0.0172142679 0.5134370179
0.2694813929 0.7678571429 0.3200661071 -0.5000535357 0.0178566964 0.5089257143
0.2271250357 1.3992192321 -0.3188649464 -0.5009199821 0.0067777679 0.5249963036
-0.3243265536 1.2794886964 -0.3125028571 -0.4999842500 0.0000315179 0.5267826250
-0.4564368750 0.0312263750 -0.1715974107 -0.5119878929 -0.0121780893 0.5081597500
-0.1337849464 1.0156825000 -0.3125028571 -0.5000000000 0.0001886250 0.5267797143
-0.2114275893 0.7678571429 0.2237389286 -0.4999405536 0.0178560357 0.5090642679
-0.3810714107 0.0000000000 -0.4900629821 -0.5000000000 0.0178571429 0.5089257143
0.3836798750 0.7429535714 0.4624006964 -0.4989085714 -0.0130274286 0.4970115357
0.3408105000 0.7500000000 -0.0365640357 -0.4987804643 -0.0177896071 0.5086961429
0.0882849643 0.7500000000 0.3665941250 -0.4999906607 -0.0178513036 0.5084986964
0.1918697321 0.7678571429 0.1525598571 -0.5000000000 0.0178571429 0.5089257143
-0.1142472500 0.8828490714 -0.3303600000 -0.5000000000 -0.0000316429 0.4910691250
-0.4087763036 0.7807655357 -0.2510268929 -0.5009770714 0.0158385536 0.5159541607
-0.4400147679 0.0042634464 -0.1264561250 -0.5174006786 0.0010306250 0.5079175714
-0.4285714286 0.7742129107 0.3755583571 -0.5073194643 -0.0025683750 0.5088578571
-0.0053414286 1.3367392679 -0.3303600000 -0.5000000000 -0.0003107143 0.4910714821
0.3975632500 0.7779622679 -0.2200833750 -0.4990363929 0.0174956250 0.5089268750
-0.4644014286 0.0292061250 0.0115871071 -0.5097880357 -0.0114931964 0.5083292679
-0.1662926607 0.7880220357 -0.2969534643 -0.5004303393 -0.0126155000 0.4964666607
0.3882859821 0.7577858036 -0.0170538036 -0.4955504643 -0.0171680000 0.5088033036
-0.2640008036 0.7500000000 0.4263933571 -0.5002667500 -0.0175055893 0.5067917857
0.4618148036 0.0322970357 0.1079420357 -0.5107581250 -0.0017667500 0.5096313036
-0.3262366250 0.7500000000 0.2177346429 -0.5002293750 -0.0178545357 0.5089257143
-0.2848332143 0.7678572143 0.1646937321 -0.4999987679 0.0178564286 0.5090650893
-0.1323397143 0.9076214464 -0.3303599286 -0.5000000000 -0.0000621250 0.4910696429
-0.2289801071 1.2848687857 -0.3125028571 -0.4999212143 0.0001575893 0.5267817679
0.0894611964 0.7678571429 -0.1929291964 -0.5000036964 0.0178570000 0.5089404643
-0.2394408750 0.9954499464 -0.3303600000 -0.5000000000 0.0000000000 0.4910685714
-0.3482440179 0.7500000000 0.1537870357 -0.5016521964 -0.0010110893 0.5072735179
-0.1532088750 0.7417355893 0.4457615714 -0.5008877500 -0.0156582143 0.5006663571
0.2461245357 0.8189095714 -0.3201718929 -0.5000000000 -0.0080765000 0.4931732143
0.3405529464 0.7154654107 0.1469727679 -0.5158365893 0.0045678929 0.5133271250
-0.1734965536 0.7649583750 0.4254374464 -0.4997220536 0.0177754286 0.5098390893
0.4365840714 0.0134781964 0.0041153214 -0.4821824107 0.0000000000 0.5077378750
-0.2962961607 1.4464285714 -0.3826939643 -0.4997832679 0.0173224464 0.5115113750
0.2983431071 1.4451390714 -0.3616275714 -0.5006710893 0.0167773036 0.5142944464
0.3331482679 0.7291968214 0.1229073393 -0.5157334464 0.0059930179 0.5134831786
-0.2328783036 0.7630136429 -0.2671015536 -0.5000000000 -0.0154229464 0.5001753929
0.3915028571 0.0000000000 -0.4759129821 -0.5000000000 0.0178571429 0.5089257143
-0.0472811964 0.7500000000 0.2568118571 -0.5000281429 -0.0178544643 0.5086649643
0.1919296786 0.7678571429 0.4069759107 -0.5000229643 0.0178562857 0.5090175893
-0.4227249464 0.7773266607 -0.2778704464 -0.5053761786 -0.0135606250 0.4990799107
-0.0295352857 1.3285497857 -0.3303600000 -0.5000000000 -0.0004029821 0.4910739643
-0.3528998750 0.7678571429 0.3185210000 -0.4974724286 0.0176618214 0.5089257143
0.2205961071 0.7678571429 0.0620972500 -0.5001921964 0.0178555357 0.5089257143
-0.4636888393 0.3694231250 0.4647224107 -0.4953831786 -0.0004554107 0.5222823036
-0.1736401429 1.0910210000 -0.3303600714 -0.5000240000 -0.0000960000 0.4910691607
0.4714454286 0.0000000000 0.1955358750 -0.5000000000 0.0178571429 0.5089257143
0.0354393929 0.7678571429 0.3397496786 -0.5000000000 0.0178517321 0.5093370893
0.4928335536 0.0357142857 0.4710855714 -0.5064222679 -0.0126881250 0.5183565357
0.0504116250 1.0005486429 -0.3303600000 -0.5000000000 -0.0000898393 0.4910693571
-0.1496809286 1.1209436071 -0.3125028571 -0.5000000000 0.0003138750 0.5267776250
-0.0170669643 1.4411776429 -0.3912867143 -0.5000000000 0.0132685714 0.5059634643
-0.2397058393 0.7678572143 -0.1263193393 -0.5000000000 0.0177980179 0.5081604464
0.0439986429 0.7678571429 0.0414854821 -0.5000000000 0.0178545893 0.5091191429
-0.4142915357 1.0603913571 -0.3160728036 -0.5040688393 -0.0001151607 0.4915507143
-0.2569236429 0.7500000000 -0.1671869464 -0.5005594107 -0.0178347857 0.5083663036
0.4300879107 0.0000000000 -0.4183380893 -0.5000000000 0.0178571429 0.5089257143
0.2926180000 0.7975830357 -0.2708001786 -0.5016730357 0.0116403214 0.5220967679
-0.4675465714 0.0000000000 0.1706572321 -0.5000000000 0.0178571429 0.5089257143
-0.2902168571 0.7678571429 0.3083538214 -0.5000000000 0.0178534821 0.5091195000
-0.4350491964 0.5301701607 0.4732114286 -0.5080827857 0.0009682679 0.5234082857
0.1049483214 1.0025728036 -0.3125028571 -0.5000000000 0.0001730357 0.5267799821
-0.4027639643 0.7376790000 0.4529401429 -0.5139746964 0.0050300179 0.4999810357
0.3285970000 0.7500000000 0.3732166607 -0.5000000000 -0.0178571429 0.5089257143
-0.3093980357 1.1458827500 -0.3303600000 -0.5005085357 0.0000000000 0.4910904464
0.4821820893 0.2218973036 0.5049071786 -0.5000000000 -0.0005169464 0.4910760536
-0.0969068036 0.7500000000 0.3428365179 -0.5000219643 -0.0178554464 0.5087499643
-0.1690135357 1.4107142857 -0.3346035714 -0.4988949286 0.0127143929 0.5212474286
-0.3950231786 1.0226450000 -0.3208898750 -0.5034649286 0.0000000000 0.4914381964
-0.1010459107 0.7500000000 0.0240142679 -0.5000000000 -0.0178571429 0.5089257143
0.2727520893 1.1187923929 -0.3125028571 -0.5000180000 0.0000360000 0.5267826071
0.2317522679 1.2906860536 -0.3125028571 -0.5000749464 0.0001498750 0.5267818214
0.4107142143 0.0339278214 -0.4429790536 -0.5014323571 -0.0165481250 0.5098806250
0.3209917857 0.6785714286 0.4940583214 -0.4994612143 -0.0124287321 0.5017877143
-0.4638220000 0.0000000000 0.2187197500 -0.5034816071 0.0164125893 0.5087709821
0.0854366250 0.8505610000 -0.3125028571 -0.5001438036 0.0005752500 0.5267322857
-0.2430968929 0.8537906964 -0.3303600000 -0.5000000000 -0.0010600357 0.4912405893
-0.4464285714 0.6790798750 0.4897759464 -0.4822064107 -0.0014835536 0.5089257143
0.3509547321 0.7500000000 -0.1850836607 -0.4983160536 -0.0177520357 0.5086848750
-0.2442865357 0.7321428571 0.4561274821 -0.5005039286 -0.0154651071 0.5001080714
-0.3816783393 1.1414606964 -0.3242261786 -0.5032637679 0.0000000000 0.4913910357
-0.2839316607 0.9705738393 -0.3125028571 -0.4999975179 0.0000049464 0.5267828214
0.0088433571 1.0451336607 -0.3125028571 -0.5000000000 0.0001157321 0.5267818571
0.4546669464 0.0000000000 0.1612790714 -0.5000000000 0.0178571429 0.5089257143
-0.0609125000 1.1458018214 -0.3125028571 -0.5000000000 0.0003011786 0.5267781964
0.3498079464 0.7007899286 0.4892348393 -0.4990409107 -0.0037061607 0.4915473393
0.1413731607 1.3533826607 -0.3125028571 -0.5000000000 0.0005904286 0.5267730179
0.4249020357 0.6360327143 0.4923576250 -0.4997720714 -0.0004719464 0.4910777500
-0.0909866250 0.7678571429 0.2755099107 -0.5000000000 0.0178523214 0.5092912143
0.1533386964 0.7678571429 -0.0672506607 -0.5000075000 0.0178568571 0.5089557500
-0.4812973929 0.0215805714 0.1899592857 -0.4864430536 -0.0112977500 0.5097586607
0.0012731250 0.7500000000 -0.2181030714 -0.5000000000 -0.0176207857 0.5099269286
0.2489523929 0.7678571429 0.0663703929 -0.5004270000 0.0178419107 0.5093527143
0.0835110714 1.0042127143 -0.3303600000 -0.5000000000 -0.0001810179 0.4910716964
0.4246403750 0.0153078929 -0.1750392857 -0.4821824107 0.0000000000 0.5077378750
0.0523723929 0.7678571429 0.0668740000 -0.5000000000 0.0178543571 0.5091376964
0.3402434821 0.7500000000 -0.1066033393 -0.4989398214 -0.0177574107 0.5081066964
-0.0279355357 0.0000000000 -0.4882176964 -0.5000000000 0.0178571429 0.5089257143
-0.4832995893 0.0130010357 0.0355306786 -0.4826909107 0.0021878214 0.5098615893
0.1218192321 0.9276981429 -0.3125028571 -0.5000000000 0.0000839464 0.5267814643
0.1720601429 0.7678571429 0.1573188036 -0.5000143393 0.0178566071 0.5089830714
0.1356229821 0.7500000000 0.0018893393 -0.4999867500 -0.0178560000 0.5088210893
0.4558051607 0.0000000000 0.2755541786 -0.5000000000 0.0178571429 0.5089257143
0.2736702679 0.9478720893 -0.3303600000 -0.5000000000 0.0000000000 0.4910685714
-0.3166912857 1.2096046786 -0.3303600000 -0.5008526250 0.0000000000 0.4911205893
0.0956111607 1.3944332857 -0.3303600000 -0.5004901786 0.0056584107 0.5256325536
-0.3099676250 1.3603820714 -0.3303600000 -0.5009800714 -0.0014486250 0.4914902857
-0.0403070536 1.0488408036 -0.3125028571 -0.5000000000 0.0001180179 0.5267818393
0.2020551071 0.7500000000 0.1095444107 -0.5000000000 -0.0178571429 0.5089257143
0.0513749464 1.1432928393 -0.3125028571 -0.5000000000 0.0002598750 0.5267792143
0.2075646964 1.0502535893 -0.3125028571 -0.5000289821 0.0001139286 0.5267815179
-0.2042268393 1.0797350714 -0.3125028571 -0.4999698036 0.0001441607 0.5267810357
-0.3721526071 0.7537524286 -0.2201187857 -0.5043480536 -0.0171983750 0.5088151786
0.1588589107 0.8421847500 -0.3125028571 -0.5004499821 0.0035889643 0.5262023036
-0.1035987321 0.7678571429 0.0433318393 -0.5000000000 0.0178545714 0.5091205000
0.0723579286 0.0016440357 -0.4732171429 -0.5000000000 0.0000000000 0.4910685714
0.4234959107 0.9501510357 -0.3137717857 -0.4957568393 -0.0000640893 0.4915853393
-0.3503072857 0.7590539107 0.4820146786 -0.4991360000 0.0147827143 0.5180000536
0.2799814821 0.7349698214 0.0692180536 -0.4828450714 0.0000000000 0.5039686964
0.4415332321 0.0178571429 -0.0792235000 -0.5000000000 -0.0178571429 0.5089257143
0.1748991607 0.7500000000 -0.1026863929 -0.5000000000 -0.0178571429 0.5089257143
0.3555689464 1.2758816250 -0.3125028571 -0.5000164821 0.0000329821 0.5267826250
0.4358293036 0.0000000000 -0.0705366071 -0.5000000000 0.0178571429 0.5089257143
0.3991893393 0.7783686786 0.3236918036 -0.5021589107 0.0177218214 0.5091216964
-0.1961468214 0.8009755357 -0.2991803750 -0.4971590000 0.0091441071 0.5232941607
-0.4010930893 0.7788446964 -0.2183959821 -0.4992903929 0.0178201607 0.5089257143
-0.1167333750 1.3231645357 -0.3125028571 -0.5000000000 0.0005544821 0.5267736250
0.3489325357 0.7500000000 -0.1518737143 -0.4981490536 -0.0177510000 0.5087411607
0.2807916964 0.7142857143 -0.0602782679 -0.5064674643 0.0152648571 0.5105425714
0.1948313036 0.7500000000 0.3687746250 -0.4999881429 -0.0178567857 0.5088782857
0.1415051071 0.7678571429 0.2237182679 -0.5000544464 0.0178551071 0.5091434821
0.4106353393 0.7729671964 -0.2736355893 -0.4953816429 -0.0144768036 0.5003007500
0.0133147857 0.7964636250 -0.3000203571 -0.5002481250 0.0103048571 0.5232172321
0.2088522857 0.7678570714 0.4192761786 -0.5000059107 0.0178569286 0.5089493571
-0.3394512143 0.7500000000 0.4392260000 -0.5003378750 -0.0173666607 0.5066306786
0.4024772679 0.7791907500 0.2335631607 -0.5022938571 0.0177032500 0.5090937500
0.1634953393 0.0178571429 -0.5021411250 -0.5000000000 -0.0146157500 0.5167511071
-0.3203828036 1.2592626250 -0.3125028571 -0.4999801429 0.0000397143 0.5267825714
0.1431501964 0.7678571429 0.1663280000 -0.5000471250 0.0178553929 0.5091142321
-0.3529812321 1.4284015357 -0.3669447143 -0.5020025179 -0.0140087143 0.4981226250
0.0801702143 1.0010287500 -0.3125028571 -0.5000000000 0.0001711964 0.5267800000
0.2314252857 0.9765660357 -0.3303600000 -0.5000000000 0.0000000000 0.4910685714
0.3970155000 0.7678571429 0.4584105893 -0.4986201786 0.0174554643 0.5112151786
-0.2924622857 0.6802506429 0.4910685714 -0.5000000000 -0.0119333750 0.4957734643
-0.3471552500 1.4439317143 -0.3523058929 -0.4985833750 0.0169994643 0.5141501786
-0.4742561071 0.3724685714 0.4849195179 -0.4822136250 -0.0015879821 0.5089257143
0.2576102500 0.7500000000 0.2740968214 -0.5000391250 -0.0178569821 0.5089257143
0.1048609107 0.7500000000 0.3988150536 -0.4999727321 -0.0178524464 0.5085453393
-0.3938168393 0.8928006071 -0.3211915179 -0.5030664107 0.0000000000 0.4913864643
