0.4718134772 0.9073310928 -0.0028598465 0.4813801399 0.0000248404 0.4311959436
0.4799706161 0.7352091367 -0.4200945373 0.4817224861 -0.0001324784 0.4307957585
-0.2913139668 0.8291831205 -0.0082460743 0.4786131266 -0.0003668522 0.4314373417
-0.4015944669 1.7639510723 0.3997114865 0.4817827165 0.0002897451 0.4309189812
-0.3720569321 1.5408953242 0.4306317859 0.4810699769 0.0001221572 0.4322461803
0.2317648277 0.8652694486 0.1000310588 0.4798189135 -0.0019843551 0.4306288797
0.4799706161 0.3554430799 -0.4115047257 0.4814426957 -0.0002419670 0.4308130579
-0.1183156030 0.9473898607 -0.1867616261 0.4799710327 0.0020022634 0.4305893557
-0.3890103315 1.1545580431 0.4306317859 0.4800739817 0.0000207404 0.4325760282
-0.2619795500 0.9073310928 -0.4087733627 0.4797266121 0.0017987148 0.4299973472
-0.3716366996 1.3626985981 0.0430572778 0.4800398256 -0.0012797174 0.4298402267
0.3680856501 0.9073310928 0.3037113363 0.4798784328 0.0019975425 0.4307024135
-0.3486804739 0.5307764734 0.3905730180 0.4801029963 -0.0003968021 0.4287944945
-0.4219420657 1.3322075785 0.3980567189 0.4788076740 -0.0000821445 0.4297340349
-0.1839379357 0.8239032807 -0.4226199702 0.4805002350 -0.0006604870 0.4289947263
-0.2813976852 1.0237639888 -0.3983175936 0.4808128557 0.0000935813 0.4317487405
-0.3781004042 1.3292317768 0.4306317859 0.4805471418 0.0000697884 0.4324232901
-0.3710117588 1.1681669980 0.0987420878 0.4787044285 0.0011457649 0.4305791407
-0.2902846247 0.8031782963 0.3188255655 0.4799033374 -0.0007431723 0.4292213487
-0.0864159608 0.9473898607 -0.1167439913 0.4799711488 0.0020022494 0.4305912444
0.0812413455 0.8666209794 0.3905730180 0.4799497214 -0.0018606036 0.4305285685
0.2017189652 0.9473898607 0.2844099183 0.4799711028 0.0019988584 0.4307023194
0.3199826410 0.9473898607 0.1319120275 0.4799709586 0.0019987242 0.4306815329
-0.4820543630 1.8672706144 -0.1793725521 0.4787840914 0.0016076525 0.4305437307
-0.3679779501 0.3397278270 0.3916213540 0.4804810889 -0.0003651557 0.4289329016
-0.3160124325 1.1325531050 0.0253349885 0.4815959004 -0.0005068556 0.4305562872
-0.3733478880 1.4222358938 -0.4306317238 0.4807042603 0.0001010482 0.4288453251
-0.3538539576 0.4371073809 0.4306317859 0.4808572127 -0.0001724029 0.4323167919
0.3998530803 0.8524545667 0.1241001812 0.4794574612 -0.0018315389 0.4304070102
-0.1646838591 0.8652693865 0.3055221809 0.4800988962 -0.0019886154 0.4305095486
-0.2266059394 0.9473898607 -0.1189127009 0.4799710988 0.0020025078 0.4305988816
-0.0398261276 0.9073310307 -0.2765823629 0.4796908676 0.0019789752 0.4306041113
0.1155734822 0.8654827115 0.4266259091 0.4801536606 0.0001564635 0.4325154934
-0.4318968558 1.4717330682 0.4137999870 0.4781713424 -0.0001288931 0.4312944401
-0.3709838239 1.3176271063 -0.1909916478 0.4799804264 0.0014093255 0.4308219529
-0.3692426234 1.3718680561 -0.0229792986 0.4805065443 -0.0011862803 0.4305955067
-0.3977548501 1.4720218218 -0.3905729559 0.4801317845 0.0000805822 0.4320323786
-0.3787952115 1.1387062960 0.1595321373 0.4784065635 -0.0004147725 0.4304959446
-0.3655860751 1.2914610336 0.4306317859 0.4805495293 0.0000738223 0.4324398003
-0.1230129241 0.9073310928 -0.1828548327 0.4796823532 0.0019778917 0.4306419488
0.3335612774 0.9073310928 -0.1404424540 0.4797979387 0.0019899553 0.4305743336
0.2949574179 0.9473898607 -0.3656515071 0.4799709025 0.0020013801 0.4305571765
-0.0345568013 0.9073310928 0.3106200296 0.4797094189 0.0019796903 0.4306793357
-0.0079598584 0.8652693865 0.0024700547 0.4800008264 -0.0019905562 0.4306444645
0.1781473046 0.8652693865 -0.2295369053 0.4797563657 -0.0019667713 0.4306604380
-0.3750375008 1.5523790893 0.2117306167 0.4813929927 0.0007494335 0.4301514573
-0.3760733824 1.1223753318 -0.1092664695 0.4785995326 -0.0010114659 0.4306581666
0.2478505762 0.9073310928 0.2264357217 0.4798365614 0.0019932922 0.4306993791
0.3998530723 0.8277711370 -0.0456187737 0.4790691676 -0.0015967405 0.4302757276
0.1843668790 0.8619195021 -0.4226199702 0.4799328807 0.0001238497 0.4286476731
-0.3736437320 0.3863405198 0.3905730180 0.4802927426 -0.0003134498 0.4288271585
-0.4678142341 1.7583058265 0.2564369948 0.4780130642 -0.0003181828 0.4309112179
-0.3157081521 0.8977064991 -0.3905729559 0.4801335972 -0.0000342482 0.4325682628
-0.2138457036 0.9259697645 -0.4306317238 0.4800702342 0.0001681226 0.4287982540
0.4599412321 0.8978507548 -0.1832178533 0.4817797101 0.0006458495 0.4307802277
0.4599412321 0.8848905796 0.0161618631 0.4817833454 0.0003959288 0.4306752397
-0.3903007366 0.4229398065 0.3905730180 0.4800669894 -0.0002001016 0.4288423868
-0.1428232988 0.9073310928 0.2303668128 0.4796634374 0.0019750094 0.4306649185
-0.4256632849 0.3051794931 -0.3905729559 0.4791273790 -0.0001103819 0.4324086647
-0.2664041931 0.9073310928 0.2909066012 0.4796072189 0.0019689445 0.4306575657
-0.4047910505 0.7328786918 0.3905730180 0.4791336822 0.0000192362 0.4288418981
-0.2996831167 0.8775456363 0.4306317859 0.4799872384 -0.0000091074 0.4326187609
0.3783346719 0.8652693865 -0.2668615581 0.4795291224 -0.0019472146 0.4306307324
-0.3604623464 1.0026974393 -0.4306317238 0.4797264018 0.0000112625 0.4287112905
0.4126420142 0.3751347504 -0.4231813398 0.4788708807 -0.0000460716 0.4295824485
0.1275239961 0.8652693865 0.2820374959 0.4799157956 -0.0019894546 0.4305705741
0.3998530803 0.8034127102 0.2602485265 0.4788178809 -0.0013511702 0.4298885135
0.2799440447 0.8400589397 -0.4226199082 0.4798886318 0.0000413427 0.4286385878
-0.0275508553 0.8652693865 0.1314019392 0.4800130423 -0.0019898472 0.4305955668
0.3103853714 0.9473898607 0.3752809239 0.4799709025 0.0019971459 0.4307544519
-0.3813847024 0.4267469978 -0.4306317238 0.4802274548 -0.0000819522 0.4287976351
-0.2486215753 0.8433925663 0.3583690955 0.4805003392 -0.0018354867 0.4303722131
0.4662456249 0.2013785308 0.4306317859 0.4806326733 -0.0000626399 0.4323532193
0.3998530803 0.8427722102 0.0982725269 0.4793039300 -0.0017239371 0.4302629268
-0.4111286560 1.2860118774 0.4306317859 0.4786864021 -0.0000975411 0.4318309111
-0.3493541322 1.1096097781 -0.1858769062 0.4799201560 -0.0014423239 0.4306533676
0.3208838651 0.8652693865 -0.2629372229 0.4795918704 -0.0019523702 0.4306397276
-0.1130957873 0.9473898607 0.3873400872 0.4799715775 0.0020012980 0.4306642095
-0.2811459740 0.9111601963 -0.2354902190 0.4794559791 0.0017871859 0.4306263139
-0.2811459740 0.8886797065 0.3223499159 0.4790908194 0.0005176314 0.4306616838
-0.3394282545 1.3925553892 0.3993508254 0.4817663204 0.0002767019 0.4306948204
0.1414544987 0.8652693865 -0.3250113203 0.4797608343 -0.0019634785 0.4306729944
-0.4076502250 0.3131131902 0.3905730180 0.4802238876 -0.0001462706 0.4288655528
-0.3188727687 1.1497153667 0.1533228320 0.4815965754 0.0001562292 0.4305404179
0.1269340205 0.8652693865 0.2290640896 0.4799161902 -0.0019897250 0.4305891033
-0.0356420113 0.9073310928 -0.3038940984 0.4796873505 0.0019786588 0.4305950360
-0.4051859778 1.7411979645 -0.3511891903 0.4818218819 0.0002749033 0.4312567888
-0.0393951974 0.9073310928 0.2827789396 0.4797079587 0.0019795962 0.4306772406
-0.4832803436 1.7587207412 -0.1004272079 0.4779951299 -0.0003053159 0.4305083729
-0.3915618647 1.7058673250 -0.4699510650 0.4810112828 -0.0001139692 0.4291080986
0.0972534839 0.8714932392 -0.4226199702 0.4799721743 0.0001478870 0.4286507737
-0.0301320961 0.9473898607 -0.2297238235 0.4799709986 0.0020020711 0.4305822392
0.2461946128 0.8267122716 -0.4226199702 0.4798857656 -0.0003370825 0.4287571317
-0.3143767930 1.1227395140 -0.1530605753 0.4815972003 -0.0008872196 0.4306068153
0.0913399626 0.8652693244 0.0641759057 0.4799385710 -0.0019904841 0.4306406850
0.0106968437 0.9073310928 -0.0725356418 0.4797357194 0.0019832876 0.4306563560
-0.3988171385 1.2476773190 -0.4306317238 0.4801544237 0.0000303806 0.4287079916
-0.4123726690 1.5382472734 0.1767846195 0.4782423787 0.0006780587 0.4304107957
0.2998826274 0.8652693865 0.0284765293 0.4797201987 -0.0019737456 0.4306228608
-0.4880452679 1.8074806300 0.1485459882 0.4779993421 -0.0003069723 0.4308082548
-0.2234693179 0.8652693865 0.2147539721 0.4801357763 -0.0019889379 0.4305308679
0.3957965852 0.8575181471 0.3905730180 0.4796322356 -0.0019048044 0.4304640458
-0.4367944829 1.8476021119 0.4706905538 0.4799762143 0.0000596735 0.4317691565
0.0013179725 0.8652694486 0.1414475305 0.4799949477 -0.0019898672 0.4305972452
-0.4270923835 1.4197909009 0.3905730180 0.4794139734 -0.0001031533 0.4287919808
-0.1855010208 0.8652693865 -0.2455621850 0.4801121958 -0.0019913935 0.4306996655
-0.4108830557 0.7340770439 -0.3905729559 0.4792645382 0.0000378215 0.4325031573
-0.4147124656 1.5596066124 0.2371540059 0.4782814019 -0.0000969222 0.4303624047
0.2050066864 0.9473898607 -0.3328802243 0.4799709225 0.0020015684 0.4305638583
0.4557190179 0.8031782963 0.2363407869 0.4814480936 -0.0009911020 0.4301797167
-0.3644556928 1.4006761888 -0.3905729559 0.4812378211 0.0006792585 0.4316394983
-0.2811459740 0.9391766396 -0.0263514637 0.4783029916 0.0004568382 0.4306380251
-0.2567151129 0.9473898607 0.0171316398 0.4799712910 0.0020026520 0.4306076445
-0.3862373414 1.2785755540 -0.2110917535 0.4785486139 -0.0000892189 0.4310026099
-0.0736923388 0.9473898607 -0.0907216855 0.4799711909 0.0020022434 0.4305918994
-0.4334903796 1.7264350968 0.4706905538 0.4796290670 -0.0001559848 0.4319337600
-0.3603577009 1.1452115675 0.4306317859 0.4802544745 0.0000468968 0.4325517326
0.4799706161 0.1567326794 0.3995622276 0.4814671035 -0.0000455648 0.4302251894
0.2754440650 0.8652693865 0.0043545032 0.4797375181 -0.0019742042 0.4306284811
-0.4411909466 1.7548549639 0.0681392101 0.4819502663 0.0002936268 0.4305599205
-0.0196486384 0.8653455483 0.4266259091 0.4801422839 0.0001188323 0.4325591094
-0.4584283927 1.7100487533 -0.2639035446 0.4780141358 -0.0003164042 0.4303427759
0.3998530723 0.9004256983 0.3957052072 0.4798854091 0.0016888817 0.4309633183
0.4602877545 0.2834406614 0.3905730180 0.4805521732 -0.0001180932 0.4289643437
-0.3136822320 1.1185721443 0.3405589953 0.4815886378 -0.0010422310 0.4304039336
0.1141711869 0.9473898607 -0.2884875844 0.4799709586 0.0020017647 0.4305711970
0.1830454524 0.9473898607 -0.2079734708 0.4799711008 0.0020016906 0.4305715896
-0.2052348051 0.9473898607 -0.2148506259 0.4799709626 0.0020024056 0.4305926946
0.4260711933 0.1631853838 0.3997156887 0.4790058267 -0.0000701048 0.4296788119
0.0716604259 0.8652693865 0.0062878816 0.4799509292 -0.0019907325 0.4306574976
0.0704177889 0.9073310928 -0.2458332727 0.4797209358 0.0019820738 0.4305924562
0.4341747175 0.7614736198 -0.3905729559 0.4803133308 -0.0005639333 0.4313745516
0.2844775515 0.8652693865 0.3639676028 0.4798174033 -0.0019894206 0.4305700914
-0.2446916760 0.8909765941 0.4266259091 0.4799499698 0.0006495089 0.4323723995
0.0683426626 0.9073310307 0.1347890502 0.4797593081 0.0019853346 0.4306779516
0.3385487122 0.9473898607 0.1831411127 0.4799709145 0.0019981854 0.4307014501
-0.3927071609 1.5896558219 0.3329338089 0.4802592615 -0.0013781258 0.4299831704
0.2958904427 0.9473898607 0.2525751133 0.4799709626 0.0019981353 0.4307133956
-0.2643791283 0.9473898607 -0.2034141701 0.4799709606 0.0020025238 0.4305965622
-0.1427880891 0.9073310928 0.0459522409 0.4796679781 0.0019758847 0.4306538843
0.0789613586 0.9073310928 0.2046682379 0.4797622964 0.0019855008 0.4306830772
-0.4903832318 1.7802047752 0.0298188004 0.4779931931 -0.0003120898 0.4306823481
-0.4407746880 1.6355002996 -0.0674697079 0.4801628200 -0.0019926533 0.4306302957
-0.4191965840 0.2369680341 -0.4306317238 0.4802721504 -0.0001082728 0.4288715356
0.4799706161 0.8374794716 -0.4084447566 0.4815058102 -0.0002750215 0.4313774118
-0.4067265680 1.1001447205 0.4120305471 0.4792891303 -0.0000365356 0.4308611804
0.0216374240 0.9463228654 -0.4306317238 0.4799790124 0.0018682007 0.4304388609
0.3301233879 0.8579284170 -0.4226199702 0.4798683380 0.0001430859 0.4286485084
-0.3724291202 1.5197529795 0.1366613650 0.4812649729 0.0013208698 0.4303529408
-0.3397480597 1.1735194543 0.3271741312 0.4805104921 0.0016080010 0.4305658372
0.2371692723 0.9473898607 0.3051974485 0.4799710407 0.0019983597 0.4307165943
-0.3781351231 0.9547100477 -0.3905729559 0.4795723277 -0.0000070984 0.4325468053
0.3550999555 0.8542653271 -0.3905729559 0.4796204864 -0.0014087707 0.4311914289
0.1759708937 0.9073310928 -0.2302785934 0.4797474527 0.0019848278 0.4305770857
-0.0532918043 0.9473898607 0.4254667746 0.4800090605 0.0019680272 0.4309530032
0.2590055050 0.9473898607 -0.0932359320 0.4799711228 0.0020008834 0.4305985752
0.2617961449 0.8240521812 0.4266259091 0.4798869273 -0.0006468429 0.4323674582
0.1745410020 0.8652694486 0.1782736359 0.4798863805 -0.0019901036 0.4306155681
0.4438148901 0.2446918132 0.4306317859 0.4794101578 -0.0000440907 0.4324602904
-0.2129615946 0.9073310928 -0.2332573894 0.4796437505 0.0019739258 0.4306309427
-0.2550445100 0.8652693865 0.3301029960 0.4796802841 -0.0017992916 0.4305429957
0.3735635825 0.8652693865 -0.0467128467 0.4796142252 -0.0019624169 0.4306161990
-0.1147151069 0.9073310928 -0.2532268715 0.4796776783 0.0019775431 0.4306254426
-0.0419820604 0.9073310928 0.1610285947 0.4797098014 0.0019800528 0.4306697236
-0.0767055493 0.8652693865 0.2153343836 0.4800438074 -0.0019892964 0.4305571644
0.4350153868 0.7592810111 0.4306317859 0.4795207861 0.0000310415 0.4323774949
0.1756321708 0.8652693865 -0.0768506281 0.4798145431 -0.0019772467 0.4306502310
-0.2154128827 0.9473898607 -0.2655765930 0.4799708844 0.0020023916 0.4305906115
-0.4053282766 1.0735771808 -0.4128494104 0.4793269898 -0.0000348271 0.4304172832
-0.0559119201 0.9473897986 -0.1292223797 0.4799711388 0.0020021853 0.4305889070
0.3998530803 0.8862221832 -0.0298249114 0.4797471682 -0.0000062031 0.4305360775
0.2566820443 0.9073310928 -0.0329098211 0.4797980689 0.0019897591 0.4306215629
-0.3529684425 1.0549767732 -0.3905729559 0.4798086464 0.0000044926 0.4325474443
-0.0839141225 0.9073311549 -0.1466322607 0.4796987793 0.0019795481 0.4306475891
-0.3370492144 0.6796518638 -0.3905728938 0.4791781975 -0.0006658669 0.4322794171
-0.1210296065 0.9473898607 -0.3685083602 0.4799707603 0.0020021512 0.4305800240
-0.3442680567 1.1069812880 0.4306317859 0.4802809874 0.0000543497 0.4325646415
-0.3944008075 1.2286020929 0.3905730180 0.4795572977 -0.0001823555 0.4288455935
-0.2889565043 0.8480485048 -0.2092824592 0.4790403193 0.0002336588 0.4313549028
0.4056502129 0.9473898607 0.2833134137 0.4799707783 0.0019968274 0.4307472273
-0.2323221494 0.9473898607 0.3121780253 0.4799717397 0.0020027982 0.4306216871
0.1056467793 0.9073310928 -0.2331004812 0.4797310186 0.0019831073 0.4305896120
0.3998530803 0.8745257640 0.3018048374 0.4797646299 -0.0011130249 0.4305857123
0.4201337408 0.3175854171 -0.3905729559 0.4790863428 -0.0000839552 0.4323556609
0.4507190348 0.6203746537 -0.3905728938 0.4801366096 -0.0002984258 0.4322634156
0.0081891368 0.8920197504 0.3905730180 0.4800368112 0.0012513878 0.4315763036
-0.2876583959 0.8558337300 0.0576031232 0.4785868300 0.0003540654 0.4309960143
0.3583988852 0.9073310928 -0.2094795864 0.4797922884 0.0019894967 0.4305486780
-0.3759404975 1.4258451928 0.4306317859 0.4807815758 0.0000931026 0.4323431145
-0.1816126864 0.9473898607 -0.1162844552 0.4799711168 0.0020024256 0.4305965322
0.0747060319 0.9473898607 0.2430262848 0.4799713191 0.0020004127 0.4306613773
-0.2877260011 0.8031782963 0.1506270432 0.4798579608 -0.0008847660 0.4300617817
0.3357117863 0.9473898607 0.2546279289 0.4799708985 0.0019977227 0.4307228655
-0.3523583555 0.6605701582 -0.4306317238 0.4799248790 -0.0000268654 0.4287429028
0.4255536341 0.8522819494 0.4306317859 0.4800620522 0.0000122119 0.4326047303
-0.2669280937 0.9296837711 0.4306317859 0.4800947141 0.0000188977 0.4325999533
0.2941984305 0.9473898607 0.1772526521 0.4799709866 0.0019986701 0.4306897930
-0.4025109114 1.4365049972 0.0862267793 0.4785961677 -0.0012789202 0.4305606155
-0.3261690567 0.8796049935 0.4306317859 0.4798269192 -0.0000052557 0.4325950721
0.2112302927 0.9473898607 -0.1804291562 0.4799711508 0.0020016545 0.4305714674
0.4599412321 0.8692481235 -0.3549165204 0.4817478633 0.0001616852 0.4308452471
-0.4158127738 1.7056006979 0.2604348338 0.4819366904 0.0002485266 0.4303452596
-0.4270162838 1.8729938547 0.3716540471 0.4813961273 0.0012919974 0.4304459593
0.4373793849 0.0822700476 0.3905730140 0.4798094356 -0.0000362572 0.4287024315
-0.3843818974 1.3474528439 0.0688046143 0.4788176386 -0.0012712370 0.4299243040
-0.1698661438 0.9073310307 -0.0466483301 0.4796582578 0.0019750575 0.4306459387
0.2069439765 0.8652693865 0.2058683946 0.4798660627 -0.0019900415 0.4306117105
-0.4140955325 0.0463524790 0.4255519376 0.4812696017 -0.0002632402 0.4316647133
0.1064450383 0.9473898607 0.3352037109 0.4799712410 0.0019994613 0.4306968434
-0.4438399148 1.6346405183 -0.3932213733 0.4782625082 -0.0001284805 0.4315595550
-0.2262808786 0.9073310928 -0.4119898734 0.4797532492 0.0017689511 0.4298819579
-0.0418934304 0.9073310307 -0.4069522711 0.4797661080 0.0018212959 0.4300169499
0.3462206432 0.9473898607 0.3902916232 0.4799708424 0.0019966852 0.4307670303
-0.2791430356 0.9884085949 0.3909878266 0.4807755830 0.0000054500 0.4288452430
0.3998530803 0.8062338049 -0.3620077335 0.4788228302 -0.0015553658 0.4310331227
0.4277602553 0.9473898607 -0.4080987290 0.4799708824 0.0020011057 0.4305476204
-0.3353860684 0.5471780392 0.4013144041 0.4803777754 -0.0004502606 0.4298993334
0.2678415278 0.8652693865 0.1612448239 0.4798026536 -0.0019853967 0.4306188029
-0.4088704611 0.5352618136 0.3905730180 0.4796257962 -0.0000426886 0.4288558305
0.1952231075 0.9473898607 -0.2436978159 0.4799710527 0.0020016445 0.4305690519
-0.2811459740 0.9280578498 0.1285428267 0.4787552471 0.0009849630 0.4306464735
0.4668309797 0.0610495122 0.4306317859 0.4807895835 -0.0000860142 0.4322667004
0.2254571882 0.8652693865 -0.2105743324 0.4797127598 -0.0019640173 0.4306514868
-0.4183443197 0.6373792762 -0.4013712074 0.4791906358 0.0000450922 0.4315028117
0.4238725899 0.9073310928 0.3116735472 0.4806560837 0.0014986506 0.4306129403
-0.4208130915 1.6200601683 0.3311724890 0.4782447041 0.0000140466 0.4302019133
-0.3198228325 1.1554153789 -0.0932009066 0.4816658610 0.0002481901 0.4306404566
-0.3737422045 1.5397214821 0.1840736187 0.4813963997 0.0009739648 0.4302136765
-0.2649483213 0.9040915383 -0.0821453216 0.4799046673 0.0018965143 0.4309314716
-0.4102299996 1.5972234439 -0.2714777062 0.4782532887 0.0007414577 0.4311766292
0.4279094001 0.9473898607 -0.3769301994 0.4799709305 0.0020011257 0.4305492368
-0.2835890120 0.8880112458 -0.2222371322 0.4792304182 0.0013646159 0.4307580592
-0.4190433432 1.8649706102 0.3960143887 0.4819084589 0.0003363554 0.4307006970
-0.2727314074 0.9073310928 -0.0317281555 0.4796123344 0.0019701763 0.4306376946
-0.2383628733 0.8652693865 -0.0623044162 0.4801452382 -0.0019903239 0.4306256489
0.3998530803 0.8612182153 -0.0392953790 0.4795285475 -0.0019163814 0.4305504045
0.0380243503 0.8652693865 -0.2419337540 0.4799014286 -0.0019778716 0.4306839084
-0.3618520812 1.1075268885 0.3238341553 0.4793388592 -0.0015368927 0.4304939437
-0.4575872547 1.8716833381 0.2292751693 0.4799783634 0.0020013761 0.4305826058
-0.2541165126 0.9473897986 -0.0234628880 0.4799712330 0.0020026199 0.4306053812
-0.2999161866 1.0121360922 0.3905730180 0.4803251762 0.0000377714 0.4287182847
-0.2811460360 0.9352850665 -0.2505951426 0.4784632086 0.0006307053 0.4306352330
0.0986027834 0.9073310928 -0.3743420525 0.4797063163 0.0019807879 0.4305481332
-0.0430202655 0.9473898607 -0.1501192482 0.4799711128 0.0020021472 0.4305871044
-0.2841137057 0.8835894148 0.2710527367 0.4784094277 0.0006873023 0.4307616965
-0.2311457415 0.8652693865 -0.0935693071 0.4801407296 -0.0019905022 0.4306379510
-0.3101697551 1.0740090884 -0.4306317238 0.4807049654 0.0001310683 0.4289057998
0.4345655850 0.4926082670 0.4306317859 0.4793997966 -0.0000058426 0.4323986300
-0.2460115443 0.8595748144 -0.0355042953 0.4802408305 -0.0019504314 0.4305878755
-0.0036143113 0.9073310928 0.2377061018 0.4797249116 0.0019814829 0.4306777213
-0.0298233551 0.9473898607 0.3064070771 0.4799714673 0.0020010216 0.4306577280
0.4086501419 0.9178006761 -0.4306317238 0.4799954365 0.0005290381 0.4291031013
0.0635812514 0.9073310928 0.2448405303 0.4797544970 0.0019845915 0.4306841147
-0.3424612681 1.3882312956 -0.3905729559 0.4812849102 0.0001928109 0.4319824634
-0.3485739957 1.1723426779 -0.0458338712 0.4799522511 0.0018496655 0.4306257971
0.0698827639 0.9473898607 0.3199598275 0.4799713051 0.0019999320 0.4306840306
-0.2739278647 0.8031782963 -0.3294887148 0.4801651014 -0.0011721937 0.4318217957
0.4068888620 0.9073310928 -0.2401519039 0.4800219794 0.0018436247 0.4305063459
-0.1547443515 0.8652693865 -0.1274510450 0.4800928674 -0.0019908627 0.4306636667
0.1363411312 0.8652693865 0.3194925360 0.4799102535 -0.0019892844 0.4305589891
0.4723621782 0.9073310928 0.1754889266 0.4812496845 0.0000423361 0.4303760848
-0.2911145783 1.0301411423 0.4306317859 0.4805824016 0.0000714789 0.4324929724
-0.2108660524 0.8652693865 0.0345195446 0.4801279629 -0.0019898933 0.4305965502
-0.4164915035 1.2581544815 -0.4219123902 0.4785798317 -0.0001175364 0.4296880013
0.2003954896 0.8652693865 0.3559163713 0.4798700966 -0.0019892543 0.4305577413
-0.0842271418 0.9473898607 -0.3022343134 0.4799708724 0.0020021252 0.4305814461
-0.2715367849 0.8652693865 -0.3537371783 0.4789035526 -0.0014864387 0.4306142782
-0.4219412726 1.6387104531 -0.2203365780 0.4811230968 -0.0002106731 0.4315052734
-0.3451596227 0.4849683650 0.4010295582 0.4804613500 -0.0004205410 0.4298827210
-0.3563460176 0.6481537488 -0.3905729559 0.4791847071 -0.0005120071 0.4323234136
0.3272685076 0.8713839468 0.3905730180 0.4798130749 -0.0014094718 0.4305889751
-0.3216886057 1.0367608397 0.3905730180 0.4801427526 0.0000382802 0.4287214514
0.0664333675 0.9131555556 -0.4306317238 0.4800278060 0.0001436988 0.4287525750
0.2870501276 0.9073310928 -0.2352109393 0.4797718745 0.0019874016 0.4305544545
0.3952245781 0.9473898607 0.3735625710 0.4799707683 0.0019963107 0.4307727447
-0.0163123840 0.8652693865 0.1003281867 0.4800060140 -0.0019900335 0.4306085278
-0.4013101759 1.3326141810 0.3905730180 0.4799014145 -0.0005082096 0.4291082749
-0.4682018868 1.6505607239 0.0416997863 0.4779955526 -0.0003265451 0.4306776011
-0.0849726194 0.9473898607 -0.4154954443 0.4799707022 0.0020020531 0.4305755795
-0.4454792217 1.8306101420 -0.1822559321 0.4819368005 0.0003142250 0.4308460442
-0.3695264859 1.2804800801 0.2471070234 0.4799594196 0.0015259887 0.4315805478
0.3958100009 0.9073310928 -0.2597745011 0.4797925568 0.0019896229 0.4305263112
-0.4033252160 0.9454412620 0.4298830595 0.4793518403 0.0000000000 0.4324656082
0.0934497777 0.9473898607 -0.1285327099 0.4799711909 0.0020019069 0.4305806870
0.4376113773 0.2491760077 -0.3905729559 0.4793759036 -0.0001416799 0.4323591360
-0.3179707494 1.1443030086 -0.1311063696 0.4816334615 -0.0001200421 0.4306371718
-0.2059552220 0.9073310928 -0.3976120305 0.4796750404 0.0019062806 0.4303635123
0.2535283397 0.9473898607 -0.3058274768 0.4799709786 0.0020014963 0.4305625864
-0.4698513407 1.7479527481 -0.2243247288 0.4780084515 -0.0003174036 0.4303861355
-0.2807737238 0.9473898607 0.3359355666 0.4783420889 0.0004502846 0.4306311510
-0.2869008766 0.8629434042 -0.1553654707 0.4790042143 0.0006334012 0.4310795448
-0.4442270167 1.6683349695 0.3108033826 0.4780239021 -0.0003241936 0.4309722013
0.4600262108 0.8429529554 -0.4306317238 0.4796870280 0.0000329664 0.4287278888
0.3947601748 0.9473898607 0.2361736717 0.4799708083 0.0019972601 0.4307302744
-0.0176232050 0.9473898607 -0.0666328482 0.4799712450 0.0020021532 0.4305900567
0.4298783266 0.7043406093 0.3905730180 0.4800040691 -0.0004694347 0.4296017148
0.4469169830 0.4359375427 0.4306317859 0.4795809324 -0.0000061510 0.4324493704
-0.4612650141 1.6639188228 -0.1764369714 0.4780042794 -0.0003192383 0.4304257036
-0.0129699244 0.8652693865 -0.0211936590 0.4800039770 -0.0019906664 0.4306518834
-0.3783697213 1.1666953551 0.1547404698 0.4783362203 0.0008008729 0.4304351514
-0.1988300831 0.9473897986 0.1995362290 0.4799715835 0.0020026620 0.4306139598
0.1453724164 0.9473898607 -0.0630711350 0.4799712950 0.0020018107 0.4305826639
-0.3419179911 1.1731849796 -0.1487449781 0.4802682146 0.0017259180 0.4306321164
0.0212961353 0.9473898607 -0.0116346215 0.4799713411 0.0020021172 0.4305907737
0.2004160277 0.8766540082 0.3905730180 0.4799119580 -0.0009093400 0.4305837535
-0.2904703833 0.8349769603 0.0530319631 0.4785082487 -0.0002319823 0.4313177142
-0.1054755380 0.8652693865 -0.3642602461 0.4800101420 -0.0019818695 0.4307155648
0.4166928709 0.5769971751 -0.4306317238 0.4789951049 -0.0000252751 0.4289356035
0.2079930616 0.9473899228 0.0453708219 0.4799711629 0.0020004387 0.4306299993
-0.4252498364 1.6380877135 0.1751317126 0.4802385051 -0.0018124089 0.4308170537
0.3879820049 0.9073310928 0.3744349748 0.4798945184 0.0019990928 0.4307200694
0.4175431944 0.3258284060 0.4306317859 0.4789804955 -0.0000483169 0.4323474168
0.3060742828 0.8652693865 0.1579126034 0.4797606320 -0.0019819176 0.4306128662
-0.1562410532 0.9473898607 -0.0954892998 0.4799711568 0.0020023916 0.4305962137
0.3998530723 0.8522956415 -0.1872175570 0.4793419518 -0.0018088797 0.4304262544
0.2467740148 0.9473898607 0.2330568252 0.4799710467 0.0019987603 0.4306964788
-0.4469993959 1.7964831723 -0.0949111797 0.4819510795 0.0002460850 0.4307305628
0.1932029318 0.8652693865 -0.1668552867 0.4797630776 -0.0019697016 0.4306536520
0.0876883335 0.8652693865 -0.0406718183 0.4799215641 -0.0019871673 0.4306619061
-0.4105362349 0.5714569433 0.4306317859 0.4793643426 0.0000239471 0.4324998945
-0.3409933546 1.2283291104 0.3298167040 0.4815548722 0.0010443161 0.4312236622
0.3776339599 0.9473898607 0.2491341973 0.4799708324 0.0019973422 0.4307304727
-0.2811459740 0.9239591248 0.3534107414 0.4789223622 0.0011901660 0.4306495880
-0.4398167386 0.2128308778 -0.3905729559 0.4791078363 -0.0000430472 0.4324190038
-0.3217689235 1.2031388352 0.4306317859 0.4806575658 0.0000975872 0.4324622433
-0.3886162594 1.6057239505 -0.3532997686 0.4804806823 -0.0014122098 0.4296978298
0.2466766420 0.9076406289 0.4306317859 0.4799541559 -0.0001414756 0.4326133269
-0.3710605965 1.4933217477 0.3905730180 0.4807068181 -0.0009977618 0.4294697191
0.0281916573 0.9473898607 -0.2173010588 0.4799710367 0.0020019710 0.4305796635
-0.3980950692 1.3929259268 0.0151154059 0.4786028575 -0.0012802041 0.4306868968
-0.4039643376 0.1110713563 0.4199743430 0.4811419985 -0.0002360463 0.4312682677
0.3385552978 0.8652693865 0.2568957378 0.4797619359 -0.0019858033 0.4306007444
-0.4201439578 0.1942997399 0.4306317859 0.4794995810 -0.0000214895 0.4324434036
-0.3133281345 0.7329302815 0.4306317859 0.4802567939 -0.0000637055 0.4325500100
-0.1097097158 0.9073310928 -0.0168581045 0.4796841698 0.0019777274 0.4306530631
-0.3278122754 1.1749573538 0.0228686943 0.4808939206 0.0014344885 0.4306433829
-0.3440152438 1.0750241275 -0.3905729559 0.4802516043 0.0000790380 0.4323928254
0.0725844494 0.9453805650 -0.4306317238 0.4799863571 0.0017500734 0.4303212023
-0.4745371089 1.7218172382 0.1402765005 0.4779990216 -0.0003133477 0.4307929764
0.1516398510 0.8652693865 -0.0633703720 0.4798450518 -0.0019801970 0.4306531653
-0.1998751963 0.9073310928 0.0831836790 0.4796417816 0.0019730385 0.4306510422
-0.3947640104 1.6686672429 0.3485202128 0.4819214620 0.0002416886 0.4302536572
-0.4066737565 0.7628323631 0.4306317859 0.4792189293 0.0000433636 0.4324708279
0.2513453412 0.8439197057 0.3905730180 0.4795203094 -0.0017557638 0.4302330830
0.4599412321 0.8827410021 0.1401919044 0.4817898770 0.0003444573 0.4306137034
0.0516088534 0.8652693865 -0.3711410064 0.4798399684 -0.0019680312 0.4306906963
0.3998530803 0.8300237096 -0.3386250422 0.4790815097 -0.0016987321 0.4308076419
-0.3259839692 1.1752621229 -0.0031277876 0.4812262321 0.0012263731 0.4306472386
-0.3482257668 1.2516017764 0.2930798014 0.4812135295 0.0011676690 0.4313105377
-0.3791766911 1.1409954222 0.0013134819 0.4783710074 -0.0003286602 0.4306013272
-0.4446076411 1.7740634416 -0.0416387828 0.4819503284 0.0002989526 0.4306724916
0.1217010315 0.9473898607 -0.1326145020 0.4799711929 0.0020018528 0.4305789123
-0.1767275297 0.8652693865 -0.1854459760 0.4801066717 -0.0019911070 0.4306801008
-0.0583028177 0.9473898607 -0.1674733214 0.4799710827 0.0020021633 0.4305870443
0.4176662910 0.5534117323 -0.4306317238 0.4790171012 -0.0000324837 0.4289221758
-0.3215285208 0.6353823887 -0.4111974509 0.4802580798 -0.0008079152 0.4303794317
-0.3011232795 0.8011367873 0.3905730180 0.4797556928 -0.0005581508 0.4287332347
0.4415598378 0.9438425427 0.4306317859 0.4799697027 0.0018005154 0.4309697738
0.4656924013 0.6295151992 -0.4306317238 0.4799268979 0.0000258659 0.4286545132
0.2280529923 0.9073310928 -0.3730745671 0.4797359237 0.0019838965 0.4305238856
-0.3292715081 1.1317188731 -0.4306317238 0.4807005128 0.0001206410 0.4288594538
-0.3933277613 1.7160911858 0.4462010447 0.4813050958 0.0001571425 0.4321029462
0.1117501231 0.9073310928 -0.2010676497 0.4797376443 0.0019837402 0.4305981606
-0.3713516735 1.4965380141 -0.1633585809 0.4812767582 -0.0007560772 0.4300723632
0.0724680066 0.8652693865 0.2722432032 0.4799503002 -0.0019893705 0.4305640786
0.2122236941 0.9073310928 0.1435057560 0.4798168284 0.0019913834 0.4306835038
-0.4903362268 1.7917242387 0.0807248718 0.4779902848 -0.0002769843 0.4307428789
0.3583988011 0.8652693865 -0.2871350141 0.4795430328 -0.0019475491 0.4306353572
-0.4554787535 1.8684737955 0.1754099528 0.4808044473 0.0017669782 0.4305349418
-0.3831968709 0.6432976867 -0.4306317238 0.4796449242 -0.0000031446 0.4287917785
0.1458544776 0.9473898607 -0.2397614992 0.4799710407 0.0020017386 0.4305719862
0.2621370831 0.8652693244 0.1217200114 0.4797943775 -0.0019832255 0.4306224703
-0.4417064129 1.6380421146 -0.2952363772 0.4791686976 -0.0012883841 0.4304523607
-0.3389209783 1.1893064085 -0.3905729559 0.4806685860 0.0015351321 0.4311899648
-0.2461703472 0.8585903381 -0.1087115154 0.4802566617 -0.0019439378 0.4306089404
-0.4279025320 1.7328942787 -0.1994521797 0.4819409967 0.0002806017 0.4308530045
-0.2598344971 0.8696848602 -0.3905729559 0.4795774613 -0.0013664386 0.4306726759
-0.3818908169 0.5747032218 -0.3905729559 0.4791821714 -0.0003292010 0.4323715963
-0.0297904088 0.9473898607 0.4231054985 0.4800031318 0.0019728903 0.4309161431
-0.4279874946 1.7876034473 0.4706905538 0.4804084283 0.0000226132 0.4319247828
-0.3409114484 1.2274516011 -0.2653885111 0.4817639029 -0.0005702045 0.4309219075
-0.0240903646 0.9473898607 0.3964712890 0.4799714333 0.0020003446 0.4306867746
-0.2915272317 0.8031782963 0.0765311895 0.4796717837 -0.0008286577 0.4302544844
-0.0284816648 0.9473898607 -0.4071338735 0.4799707342 0.0020019529 0.4305728935
0.2495912579 0.8652693865 -0.0091054591 0.4797602214 -0.0019755021 0.4306335886
0.2431881262 0.8519573773 0.4266259091 0.4799736285 -0.0001680045 0.4324430111
0.1602398396 0.8463556533 0.4266259091 0.4800619060 -0.0001925885 0.4324539691
0.4591784551 0.9073310928 0.0228203134 0.4817745846 0.0008045243 0.4306812505
0.0814650016 0.8240977801 -0.4226199082 0.4800089463 -0.0007763469 0.4289385919
0.3637527496 0.9473898607 -0.2548480238 0.4799710006 0.0020009475 0.4305719782
-0.4100167348 1.7856781368 -0.3646376918 0.4818419934 0.0003030185 0.4311598106
-0.1586491279 0.9073310928 0.1768659147 0.4796577411 0.0019745227 0.4306603118
-0.3631968881 1.1073026815 -0.3012495928 0.4792768503 -0.0015493830 0.4307036934
-0.4592426993 1.8504244884 -0.4289180278 0.4783787006 -0.0001159421 0.4305726852
-0.3947990358 1.5697703270 0.3905730180 0.4803572453 -0.0012188421 0.4297202727
-0.3752592000 1.2493558074 0.2689366103 0.4780465794 -0.0000356062 0.4308212659
0.2169871523 0.9473898607 0.4117753267 0.4799710427 0.0019978289 0.4307449820
-0.3493161725 0.8346790993 -0.4306317238 0.4795628959 0.0000164081 0.4287442608
-0.2522616815 0.8208243017 0.3164409472 0.4808625325 -0.0016782160 0.4302794430
0.3680683367 0.9473898607 -0.1876311277 0.4799709746 0.0020004407 0.4305936640
0.3181595785 0.9473898607 0.1959057810 0.4799709425 0.0019983016 0.4307008613
0.2577637553 0.9473898607 -0.1227050064 0.4799711328 0.0020010977 0.4305892115
-0.0332064302 0.9073310307 -0.1124577953 0.4797192172 0.0019816311 0.4306526085
-0.2826806955 0.8950533148 0.3622379473 0.4789826386 0.0013054391 0.4307156670
-0.0343977539 0.9473898607 0.3419577834 0.4799714653 0.0020008233 0.4306676766
-0.1006493658 0.9073310928 -0.1237801917 0.4796908076 0.0019786588 0.4306474689
-0.3026683922 0.9213313678 -0.3905729559 0.4804451021 -0.0000568674 0.4324955902
0.0281299508 0.9473898607 -0.2936153470 0.4799709225 0.0020019229 0.4305756856
0.4084342192 0.4841531750 0.3905730180 0.4788640927 -0.0000550367 0.4289780658
-0.4293739286 1.8448783901 -0.3145318344 0.4819160861 0.0003170852 0.4309851924
-0.3586812915 1.1557081684 0.3905730180 0.4793974572 0.0002587356 0.4302788722
-0.1134070960 0.8652693865 -0.1704501605 0.4800669834 -0.0019911852 0.4306862578
-0.2843444523 1.0502851965 -0.4061637002 0.4807072688 0.0000818501 0.4309676907
-0.3705937256 1.5150634818 -0.1478756608 0.4815541632 0.0008685863 0.4310604588
-0.0076045412 0.8652693865 -0.1274842958 0.4799917290 -0.0019894486 0.4306833155
-0.3698047261 1.4637479657 -0.3905729559 0.4813133479 0.0005456084 0.4316616528
-0.2186446138 0.8652693865 -0.1307654774 0.4801329121 -0.0019907225 0.4306532935
-0.4214005613 0.2452501423 -0.3905729559 0.4791024524 -0.0001883343 0.4323777633
0.1086688207 0.9073310928 0.3625664232 0.4797715781 0.0019861418 0.4306951649
-0.1935421134 0.8652693244 -0.2082641192 0.4801172171 -0.0019911831 0.4306850921
-0.2811459740 0.9466295293 -0.0021563605 0.4780001453 0.0001108546 0.4306323628
0.3264808221 0.8652693865 -0.1537221899 0.4796255899 -0.0019592343 0.4306312351
-0.3203605474 1.1586419144 -0.2949305685 0.4817410534 0.0002316979 0.4307169328
-0.4069593935 1.4804355331 0.1573308480 0.4785859827 -0.0012639242 0.4304351615
-0.3410096745 1.1880913679 -0.3259595493 0.4814837018 -0.0006772175 0.4310507205
-0.3614346588 1.4208708532 0.0488296001 0.4814638387 -0.0008460191 0.4303916076
-0.2811459740 0.9298903121 -0.2873551250 0.4786861938 0.0008895049 0.4306308365
-0.3457679992 0.6830945364 -0.4306317238 0.4799357048 -0.0000252330 0.4287317004
0.1693647362 0.8652693865 0.0274307751 0.4798591325 -0.0019847898 0.4306439938
-0.1580955198 0.9473898607 0.2677655343 0.4799716836 0.0020025699 0.4306173527
0.0418693150 0.9073310928 -0.2592084867 0.4797122630 0.0019811885 0.4305938322
-0.0922660351 0.8652693865 0.2671730511 0.4800535337 -0.0019889919 0.4305361176
0.2472313658 0.9073310928 0.0670872809 0.4798122778 0.0019910550 0.4306536760
-0.2445353807 0.9073310928 -0.3912908050 0.4796298642 0.0019655235 0.4305842702
-0.4171643046 1.2678688068 -0.4015641785 0.4782468953 -0.0001457618 0.4310106377
0.2058939421 0.8086185894 -0.3905729559 0.4797144723 -0.0010975481 0.4316644329
-0.1554439238 0.9473898607 -0.2374908961 0.4799709445 0.0020022995 0.4305887608
-0.2946687424 1.0483216239 -0.4306317238 0.4804910536 0.0000610456 0.4287442268
-0.4160171757 1.6233903719 -0.3664883668 0.4783940812 -0.0007572349 0.4302388475
0.0010700508 0.8031782963 0.4265173859 0.4801589483 -0.0007813463 0.4323867926
0.2196784165 0.8652693865 -0.2528195359 0.4797035743 -0.0019616699 0.4306553545
-0.4536327833 1.8258038970 -0.0020099056 0.4819483114 0.0003156451 0.4306496521
0.0012827348 0.9441630208 0.4306317859 0.4800223720 0.0011803877 0.4316099930
-0.4322617091 1.5209263308 0.3905730180 0.4793945329 -0.0002207579 0.4289062966
0.4005056496 0.9473898607 0.1420836877 0.4799708264 0.0019978489 0.4307025357
0.2853258420 0.9073310928 0.3101063380 0.4798511067 0.0019946482 0.4307077153
-0.0134869489 0.8570489528 -0.3905729559 0.4799857042 -0.0015747683 0.4311121847
-0.3169234370 1.1380191319 0.1781923847 0.4815943221 -0.0002943859 0.4305070669
-0.4009617027 1.6908171698 0.4706905538 0.4806462492 -0.0000967159 0.4321594250
-0.4096831153 1.5596780051 -0.2686577111 0.4784401588 -0.0009423625 0.4301288481
-0.2585859615 0.8031782963 -0.1835715842 0.4808911305 -0.0013531151 0.4313464083
-0.3501374453 0.7541946913 0.4306317859 0.4798869713 -0.0000207224 0.4325386634
-0.4426381397 1.8756443490 0.3562317439 0.4799650839 0.0020023015 0.4305850193
-0.3485469160 1.2957118998 -0.1969523584 0.4815225548 0.0005211546 0.4309111658
-0.3781153801 1.4815011825 -0.4306317238 0.4807495468 0.0001037542 0.4288542983
0.0360492227 0.9073310928 -0.2029248663 0.4797201486 0.0019819075 0.4306120029
-0.4116394153 0.2829300242 -0.3905729559 0.4791067968 -0.0002518675 0.4323623968
0.4058836554 0.8031782963 0.1782238349 0.4791039466 -0.0013192434 0.4300149530
0.1819903445 0.8652693865 0.3361692314 0.4798816395 -0.0019893104 0.4305613646
-0.4466912038 1.6898235241 0.4375402910 0.4784425103 -0.0002731988 0.4317385476
0.1294922776 0.9073310928 -0.3581175064 0.4797159865 0.0019817733 0.4305471738
-0.2209095947 0.9073310928 -0.2117853991 0.4796397046 0.0019734531 0.4306315215
0.0223052437 0.9073310928 0.2377330273 0.4797363904 0.0019826947 0.4306800247
-0.3420078449 1.1730868116 -0.2518148259 0.4800222678 0.0018333857 0.4306852944
-0.1265082259 0.9073310928 -0.3259976913 0.4796630969 0.0019761551 0.4306056255
-0.4000066876 1.6080397258 -0.2884993817 0.4794610645 0.0009443915 0.4312204635
-0.4031356680 0.9681322046 -0.3905729559 0.4793560465 0.0000000000 0.4325376319
-0.0112795486 0.8652693865 -0.2533589612 0.4799499037 -0.0019813027 0.4306926572
-0.0821748149 0.8201530890 0.4266259091 0.4802973414 -0.0004277355 0.4324613560
-0.1439994623 0.8652693865 0.3332626834 0.4800859232 -0.0019885253 0.4305035258
-0.3239384283 0.6291504061 -0.3905729559 0.4795747994 -0.0008068196 0.4321784750
-0.4200345433 1.7095575527 -0.2308969325 0.4819406562 0.0002542570 0.4308829163
0.4436421126 0.6434846069 0.3905730220 0.4797323806 -0.0001655228 0.4288808032
-0.3600031167 1.4076108002 0.0237399064 0.4814937225 -0.0007024225 0.4304363833
-0.4117811633 0.6536756436 0.3905730180 0.4792895189 0.0000257498 0.4288529583
-0.3697997147 1.3111734245 -0.1206537792 0.4800516569 -0.0012057469 0.4308072353
0.4586968646 0.4492435932 -0.3905729559 0.4803429743 -0.0003195288 0.4323797462
-0.3823018198 1.1597461964 -0.2768921434 0.4781347347 0.0003600482 0.4307140586
-0.2111322509 0.8652693865 -0.1925058331 0.4801282333 -0.0019910590 0.4306763713
0.4599412321 0.8665622372 0.2901506402 0.4817575075 0.0000758453 0.4304298837
-0.3226958814 1.1726540487 -0.3205059928 0.4818045966 0.0006534546 0.4307471211
-0.4321073086 1.7611602340 -0.2023098280 0.4819391179 0.0002882248 0.4308592356
-0.3995526535 1.1310342748 0.3905730180 0.4786572493 0.0001479090 0.4293583938
-0.1104021997 0.9473897986 -0.0738589332 0.4799712049 0.0020023215 0.4305948077
0.0650745321 0.9473898607 -0.2607692464 0.4799709826 0.0020018748 0.4305753571
-0.3407525854 0.7964052980 -0.3905730180 0.4791530326 -0.0005585674 0.4322937721
0.4317024246 0.5250947981 -0.3905729559 0.4795108255 -0.0001785780 0.4322675236
0.4572124208 0.2563035901 -0.4306317238 0.4802720523 -0.0000198912 0.4288890813
-0.3773332267 1.4618029744 0.0436293150 0.4805398872 0.0013756161 0.4304346207
-0.1603671023 0.9073310928 -0.2418805740 0.4796672570 0.0019764255 0.4306350988
0.3297700095 0.9073310928 -0.3075307796 0.4797697474 0.0019873195 0.4305244004
-0.0605457942 0.8087133324 -0.4226199702 0.4805238537 -0.0009841217 0.4291424951
0.3998530803 0.8578269502 0.0545072715 0.4795121515 -0.0018856043 0.4304927900
-0.0506708332 0.8652693865 0.0874453650 0.4800275516 -0.0019900154 0.4306068573
0.3134295713 0.9473898607 -0.3342644570 0.4799709566 0.0020013661 0.4305577914
0.2948961400 0.9473898607 0.1175071349 0.4799710026 0.0019990747 0.4306715242
-0.1377111230 0.9473898607 0.3993169417 0.4799737086 0.0019996556 0.4306771425
-0.1254607292 0.9073310928 0.3608384021 0.4796679260 0.0019752037 0.4306742682
-0.4722023857 1.7360248494 0.1905178707 0.4780037706 -0.0003159455 0.4308393584
0.1954303495 0.9073310928 -0.2814254660 0.4797435069 0.0019845134 0.4305578775
0.3871048481 0.9473898607 -0.2989225089 0.4799709766 0.0020010176 0.4305635678
0.3497686643 0.9473898607 0.0799508483 0.4799709265 0.0019987843 0.4306721191
-0.0719410515 0.8652693865 0.1122981992 0.4800408691 -0.0019898352 0.4305942729
-0.4075208252 1.6416221967 0.3121469437 0.4809709436 -0.0010977384 0.4304017124
-0.4027062660 1.4400352001 0.0622030415 0.4784191941 -0.0005761332 0.4306449052
0.1860844547 0.8601346557 -0.3905729559 0.4797414078 -0.0017069762 0.4309262239
-0.1368698608 0.8787953938 0.3905730180 0.4799965120 0.0005228530 0.4321902943
-0.3721792436 1.2607350493 -0.2013598263 0.4795228071 -0.0012583080 0.4309950929
-0.0109638074 0.9073310928 -0.2191361489 0.4797068191 0.0019805375 0.4306160348
0.1611279525 0.8652693865 0.1983884412 0.4798947768 -0.0019899674 0.4306060702
0.1153937445 0.9473898607 0.3848407385 0.4799712129 0.0019990307 0.4307141347
0.1150965845 0.8879286666 0.4266259091 0.4800048423 0.0003545702 0.4325726492
0.1345817741 0.9073310928 -0.1084030188 0.4797579881 0.0019856971 0.4306219094
0.4506583117 0.9473898607 0.1188160011 0.4799707543 0.0019975084 0.4307064875
0.0059937781 0.8652693865 0.3885259168 0.4799919033 -0.0019886094 0.4305111670
-0.1962787341 0.9073310928 0.1862349755 0.4796408463 0.0019727201 0.4306575297
-0.0610622379 0.9473897986 0.4038925043 0.4799744537 0.0019981073 0.4307016524
0.1795140557 0.9073310928 -0.0301889715 0.4797809859 0.0019879584 0.4306370717
0.1184368749 0.9473898607 0.0866472582 0.4799712950 0.0020010516 0.4306228568
-0.4640290791 1.6834832907 0.1832009845 0.4780026430 -0.0003168188 0.4308270183
-0.0952760049 0.8810516958 0.3905730180 0.4799895618 0.0006399789 0.4320747909
0.2793191659 0.8892436438 -0.3905729559 0.4797280642 0.0005921407 0.4301779581
-0.3917696896 0.1889717335 0.4082239327 0.4809349888 -0.0001928890 0.4303964407
-0.3905437691 0.8745535147 0.4306317859 0.4793822008 0.0000122219 0.4325007317
-0.3686467773 1.1771182399 0.3701705047 0.4782181711 -0.0005399201 0.4304914180
0.4097833203 0.4360731797 -0.4150197704 0.4788666405 -0.0000537188 0.4302608598
-0.1037016357 0.9073310928 -0.3645623853 0.4796619693 0.0019761110 0.4305895940
-0.3841804298 0.5301053228 -0.4306317238 0.4799290751 -0.0000424683 0.4287978555
-0.1967910818 0.9473898607 -0.3627130543 0.4799707442 0.0020022955 0.4305845146
-0.2300869983 0.8507464327 -0.4226199702 0.4801423640 -0.0001658413 0.4286986680
0.1025907199 0.9073310928 -0.0759909669 0.4797560232 0.0019854267 0.4306378228
-0.3188661050 1.1496756364 0.3234117156 0.4815938474 0.0001566378 0.4304733214
0.1213341293 0.8084851537 0.3905730180 0.4797272650 -0.0014517858 0.4298945323
-0.4128333669 1.2046855363 0.4145194725 0.4786571752 -0.0000921051 0.4306007444
-0.3563554314 0.4151999978 -0.4290682121 0.4805289692 -0.0001113173 0.4287595853
-0.3550592178 0.5807984057 0.3905730180 0.4799211335 -0.0003377655 0.4287985485
0.1321999839 0.9473899228 -0.1804917480 0.4799711248 0.0020018027 0.4305758338
-0.0291652537 0.9473898607 0.3672167514 0.4799714493 0.0020005970 0.4306766277
0.3155982188 0.8362070969 -0.3905730180 0.4798456708 -0.0005389166 0.4320976744
-0.3394023986 0.6466747731 0.4306317859 0.4800340251 -0.0000452965 0.4325325925
-0.4596243612 1.6356424762 -0.1498370342 0.4788714015 -0.0012353784 0.4305070149
0.2146626962 0.9473898607 -0.0719054453 0.4799711869 0.0020011798 0.4305953144
-0.4111397803 0.4067514455 -0.3905729559 0.4791498239 -0.0001750027 0.4324002123
-0.1208974546 0.9473898607 0.3666522332 0.4799715955 0.0020015183 0.4306560996
0.3308335818 0.8652693865 -0.1750614175 0.4796131877 -0.0019574296 0.4306320143
-0.0155821867 0.9073310928 -0.1727903257 0.4797133506 0.0019811344 0.4306309627
0.2818302358 0.8652693865 -0.1476086070 0.4796754711 -0.0019634485 0.4306380131
0.0745895891 0.9473898607 -0.3610444063 0.4799708364 0.0020017927 0.4305695987
-0.1945853919 0.9073310928 0.3966893089 0.4796504904 0.0017734738 0.4309589258
0.4328144680 0.3488771735 0.4306317859 0.4792902399 -0.0000418073 0.4324172873
-0.4314726495 1.6960765936 0.0583697198 0.4819531725 0.0002742624 0.4305654165
-0.4340615315 0.4047635131 -0.4155524118 0.4790367240 0.0000383202 0.4302092020
-0.1459118138 0.8652693865 -0.0954238959 0.4800873193 -0.0019907205 0.4306539945
-0.3008535358 0.7697493727 0.4300409952 0.4805520971 -0.0000976332 0.4324698504
-0.2669021777 0.8652693865 -0.3327948330 0.4791219210 -0.0015750647 0.4306401061
0.4582007908 0.9073310928 -0.1230940672 0.4817325168 0.0008393494 0.4307455047
0.2650447768 0.9473898607 -0.3615431860 0.4799708985 0.0020014382 0.4305590432
-0.4472438946 1.7389048064 -0.3530883985 0.4780324226 -0.0003207726 0.4302417137
0.4146549092 0.8031782963 -0.2264392809 0.4795119672 -0.0013604238 0.4307310415
-0.3778436195 1.1329971144 -0.2182714143 0.4784667899 -0.0006215879 0.4306982034
0.0282168703 0.9201960362 0.4306317859 0.4799685690 0.0004688939 0.4320370575
-0.2029894450 0.9473898607 -0.0473116572 0.4799712129 0.0020025098 0.4306013112
0.1011910225 0.9473898607 0.4021163145 0.4799712310 0.0019990527 0.4307163119
0.3998530803 0.8499194756 -0.1576628470 0.4793173156 -0.0017848845 0.4303883989
0.3998530803 0.8241820096 -0.2122100941 0.4790234305 -0.0016239464 0.4306153378
0.3131635411 0.9473898607 -0.0758762066 0.4799710307 0.0020002224 0.4306159447
-0.3661362583 0.9509715312 0.4306317859 0.4795825487 -0.0000050915 0.4325651923
0.4596708474 0.3125791407 -0.3905729559 0.4804646668 -0.0002661384 0.4323792615
0.3152644772 0.9073310928 0.2463345441 0.4798570494 0.0019954073 0.4306950708
-0.3858156428 1.3497746100 0.3905730180 0.4800694430 -0.0005563121 0.4291335580
-0.3604795236 1.3316973079 -0.0898325631 0.4809241009 -0.0010258029 0.4306789070
-0.3192399454 1.1519184287 0.3472680939 0.4815938214 0.0002433811 0.4304684383
0.0106054016 0.9473898607 -0.2598649658 0.4799709666 0.0020019770 0.4305784156
-0.3602589841 1.2375587146 0.3169282581 0.4802987234 0.0014237167 0.4315106172
-0.2840823497 0.8836195490 0.1390114006 0.4785134844 0.0008001979 0.4307302444
-0.4598919658 1.8632171819 -0.0570631150 0.4816013744 0.0010706026 0.4306998818
-0.3547544487 1.3354879028 0.1064228818 0.4816517824 -0.0001969389 0.4304221283
-0.2573401758 0.8031782963 -0.4210472290 0.4808856184 -0.0009927544 0.4293901424
-0.1168518476 0.9073310928 0.1681247891 0.4796764685 0.0019765176 0.4306635004
0.3998530803 0.8432365755 0.2331688976 0.4793598681 -0.0017380798 0.4302605453
0.1626944907 0.8547312206 -0.4226199702 0.4799416996 0.0000825251 0.4286436532
-0.2865918913 0.8655181034 -0.1955191037 0.4790880493 0.0007208495 0.4310765003
-0.4313981382 1.7335409794 -0.1651100504 0.4819450106 0.0002759488 0.4308161163
-0.3719129229 0.6063103808 0.4306317859 0.4797302735 -0.0000143611 0.4325170937
-0.3774443517 1.1306012655 -0.3366643417 0.4784965095 -0.0007098374 0.4307355622
-0.3801598234 1.1468944563 0.1027376054 0.4783068833 -0.0001150868 0.4304974689
-0.1772142057 0.8652693865 0.2595553857 0.4801067698 -0.0019888217 0.4305234590
0.4602358063 0.7209806209 -0.4306317238 0.4796709745 0.0000168047 0.4287183308
-0.3841121537 1.6628296990 -0.4272918020 0.4810616066 0.0001449226 0.4290646689
0.0404880166 0.9473897986 0.3880549579 0.4799713311 0.0019997577 0.4306985078
-0.3353267174 1.3676839398 0.4036816650 0.4816894837 0.0002571192 0.4308724590
0.1600342460 0.8652693244 -0.0041863786 0.4798576023 -0.0019834598 0.4306476973
-0.3245916686 1.1137369268 -0.3600285740 0.4810703434 -0.0012516402 0.4306868026
-0.2617369461 0.9073310928 -0.2471019800 0.4796224893 0.0019717106 0.4306257831
-0.4063723503 1.6470002025 -0.3625511347 0.4792693473 0.0011522023 0.4311318275
0.4599412321 0.8343020201 0.0129725222 0.4817213705 -0.0004665985 0.4305610161
-0.4691851413 1.6603415528 0.0635792044 0.4779948736 -0.0003185333 0.4307113627
-0.0068976321 0.9073310307 -0.3294455595 0.4796896999 0.0019789552 0.4305818186
-0.0093671370 0.9073310307 -0.0021118632 0.4797282505 0.0019823502 0.4306628575
-0.4284132913 0.4883583803 0.4215434149 0.4791688038 0.0000373788 0.4316537532
0.4911135893 0.9073310928 0.0952196783 0.4799706161 -0.0020029384 0.4306317859
-0.3803836618 1.1482371241 0.3147708491 0.4783024948 -0.0000695641 0.4303345058
-0.1892867867 0.9473898607 0.0340988835 0.4799713391 0.0020025378 0.4306048003
