-0.0235650136 1.4228640628 0.4569999053 -0.4352429650 0.0017156748 0.4819451023
-0.0217574746 0.8306246281 -0.2184969130 -0.4353087793 -0.0000386825 0.4800004077
-0.1688185899 1.2976983786 0.4463202632 -0.4352491499 0.0017132845 0.4819450562
0.1137259238 0.8306246281 -0.2234428879 -0.4353082326 -0.0000386729 0.4799993277
-0.3366094015 0.8306247451 0.0595275685 -0.4353555056 -0.0000379286 0.4800222314
-0.3303134378 0.6290278196 0.3739705227 -0.4335764989 0.0017622112 0.4791833237
0.3021498195 0.9952359866 0.4262184724 -0.4353429536 0.0015244686 0.4812406318
0.1932033666 0.7941751542 -0.1753428980 -0.4351399876 -0.0000197192 0.4798965325
-0.1363326241 0.8306246281 0.0584758996 -0.4353394564 -0.0000382854 0.4800275319
0.1261532702 1.0657287454 0.4263193089 -0.4352904855 0.0015895654 0.4819018367
-0.3353803003 1.2341579215 0.4595761944 -0.4351712497 0.0020073742 0.4781251418
0.1502576526 1.3161398499 0.4662914364 -0.4352354257 0.0020400099 0.4781235917
0.2105208358 1.2809881940 0.4634121294 -0.4352318959 0.0020417883 0.4781238219
0.3122544616 1.0517716855 0.4455032425 -0.4354211953 0.0021288354 0.4781402856
-0.0590386641 1.4492818990 0.4592539984 -0.4352340502 0.0017117057 0.4819443790
0.0755607962 1.3126216622 0.4475935642 -0.4352481312 0.0017196555 0.4819456759
-0.2786298527 0.8498085617 0.0822677123 -0.4353154323 0.0037960669 0.4800129157
-0.0071262127 1.4704184156 0.4789285860 -0.4352461956 0.0020331804 0.4781227476
0.1415349002 0.8306246281 0.1984139378 -0.4352327937 -0.0000364936 0.4800965231
0.4345500490 0.6284416699 -0.4459643993 -0.4371895568 0.0018021099 0.4798215713
0.1110407121 0.8498085617 -0.3945966182 -0.4352882372 0.0037960228 0.4799820103
0.1715643594 1.1615891677 0.4536319931 -0.4352505158 0.0020408367 0.4781234478
-0.2813219724 1.2474150230 0.4606620991 -0.4351952833 0.0020126459 0.4781244416
0.0927352416 0.8498085617 0.2857887998 -0.4352570134 0.0037948679 0.4801114539
-0.3029048493 1.3992404490 0.4549842475 -0.4352151483 0.0016981791 0.4819423053
0.1629452310 0.8306246281 0.1615999059 -0.4352350747 -0.0000366279 0.4800891699
-0.0122815437 1.3527257330 0.4510154159 -0.4352494722 0.0017179289 0.4819455531
0.1296191759 0.8498085617 -0.1646949592 -0.4353013475 0.0037966942 0.4800163131
-0.0712512694 1.1115926790 0.4304409310 -0.4352537330 0.0017166494 0.4819455301
0.2860021328 1.4072006573 0.4737503551 -0.4352316944 0.0020380762 0.4781234536
-0.3514276262 0.8177135856 -0.3564240568 -0.4340294354 0.0024963938 0.4787337962
-0.0354273740 1.4553604800 0.4597726456 -0.4352356559 0.0017129411 0.4819445651
0.0567208727 1.5841973839 0.4707655633 -0.4352226895 0.0017115215 0.4819439781
-0.1465278355 0.8306246281 -0.2922793001 -0.4353006089 -0.0000388072 0.4799938756
0.3305763824 0.8498085617 0.0643397681 -0.4352544197 0.0037948737 0.4800901521
-0.3879569417 1.0621058825 0.4438067478 -0.4352257033 0.0021463522 0.4784740630
-0.2654340477 1.0969590747 0.4483380658 -0.4351769397 0.0020097415 0.4781253029
0.3873967267 1.2659799045 0.4583411309 -0.4352242089 0.0019759548 0.4789748653
-0.1549411798 1.5788055322 0.4703055038 -0.4351993235 0.0016975211 0.4819417029
0.1032687827 1.3095625845 0.4473325495 -0.4352475883 0.0017202041 0.4819457123
-0.0776445570 0.8511383459 0.3622712027 -0.4354058826 0.0020204365 0.4783790373
0.2948268708 1.3132155412 0.4476442309 -0.4352435233 0.0017240102 0.4819459560
0.0249602745 1.6857669698 0.4786785541 -0.4352913335 0.0014244109 0.4818935627
-0.2341521999 1.2289729685 0.4591515005 -0.4352113154 0.0020163791 0.4781240387
-0.1694621130 0.8306246281 -0.2783733481 -0.4353021494 -0.0000387899 0.4799953144
-0.1554441365 1.6625401719 0.4934630765 -0.4352374266 0.0017996506 0.4781223946
-0.1739909582 0.9252738766 0.4331956901 -0.4353085837 0.0026496868 0.4786300169
-0.3891868851 0.8498085617 -0.3446227282 -0.4353229121 0.0037955413 0.4799703638
0.0341645571 0.8498085617 -0.2292815527 -0.4352976642 0.0037962204 0.4799981958
0.4488060387 0.3179190446 -0.4579438201 -0.4371459211 0.0017756169 0.4803997424
-0.0456342665 0.8073106564 0.0954571655 -0.4339290938 0.0015812415 0.4813462048
0.1590031207 1.5507923524 0.4679153008 -0.4352405670 0.0017204267 0.4819455262
0.0203956590 0.8498085617 -0.0985388419 -0.4353051210 0.0037965273 0.4800154153
-0.1002104723 1.3252513972 0.4486711929 -0.4352516630 0.0017161698 0.4819454476
-0.0561583518 0.8306246281 -0.2508123106 -0.4353052015 -0.0000387343 0.4799974553
0.0508633560 0.8306245686 0.0908917883 -0.4352660049 -0.0000371957 0.4800839979
-0.3351035011 1.3362671726 0.4679400922 -0.4351881699 0.0020103458 0.4781244320
-0.2644207696 0.9961960025 0.4422934328 -0.4352508381 0.0017029846 0.4781381753
-0.3361991435 1.3854210837 0.4708627030 -0.4351900634 0.0019899686 0.4783681523
0.2070508305 0.8357371637 -0.4139369238 -0.4352871341 0.0009827181 0.4799685010
0.3262650331 1.2189723590 0.4583323331 -0.4352252506 0.0020450150 0.4781242440
0.1112574446 0.8498085617 0.2842409058 -0.4352555305 0.0037947912 0.4801127354
-0.1765840505 0.8238952054 -0.1404810404 -0.4363106315 0.0030677239 0.4811213480
-0.4982379212 0.0332482221 -0.4609009717 -0.4370181695 0.0019772804 0.4792788309
-0.3593779049 0.7583591933 0.3798217472 -0.4371505559 0.0019824715 0.4804552722
0.4041554447 0.8498085617 -0.2386761072 -0.4349016330 0.0036852643 0.4801163880
0.1740984094 0.9113575615 0.4285376335 -0.4352958474 0.0032100802 0.4786639763
-0.1934199896 1.2233581784 0.4586915791 -0.4352268543 0.0020198994 0.4781236205
-0.2724390400 1.4183161910 0.4746608303 -0.4352270040 0.0020183800 0.4781231601
-0.0955673503 1.6114621275 0.4730918992 -0.4352001810 0.0016995968 0.4819419523
0.0881984350 0.8306246281 -0.1851772979 -0.4353124703 -0.0000386192 0.4800031184
0.1364010551 0.8498085617 0.2206873058 -0.4352585309 0.0037949888 0.4801029631
-0.2241584544 0.8184386616 0.2800534655 -0.4339880998 0.0024941224 0.4812905349
-0.4833585515 0.0450630696 -0.4719342504 -0.4356807673 0.0018890726 0.4781714000
-0.2562033451 0.8233160232 0.2653632053 -0.4364376521 0.0029142198 0.4789243656
-0.0303149574 1.1089151947 0.4302124676 -0.4352529080 0.0017174608 0.4819455838
0.1088953978 1.2632237353 0.4619570242 -0.4352477936 0.0020386344 0.4781232694
0.3178389258 1.4253928429 0.4752404959 -0.4352307410 0.0020377328 0.4781234344
-0.0814072554 1.1116672642 0.4495428379 -0.4352537483 0.0020268075 0.4781231332
0.1389565316 0.8306246281 -0.0549950937 -0.4352744823 -0.0000377214 0.4800546676
0.2758450917 1.0608318314 0.4376630758 -0.4352871341 0.0031900330 0.4799719522
-0.0943442633 1.1046039624 0.4298446042 -0.4352543046 0.0017161870 0.4819455032
-0.1806438927 1.4176970218 0.4565590336 -0.4352258376 0.0017053539 0.4819434275
0.3469751695 0.3477267951 0.3948742883 -0.4371797193 0.0017782144 0.4797840897
0.2448924978 0.8593246541 0.3905462030 -0.4352991778 0.0026256762 0.4783293893
-0.1947472262 1.3075674976 0.4655892737 -0.4352401795 0.0020222111 0.4781230526
0.0132338534 0.8498085617 -0.1555819481 -0.4353018674 0.0037963527 0.4800066655
0.2009641118 0.8130161923 0.2515169978 -0.4366488212 0.0020669902 0.4813523264
0.1071630023 0.8306246281 -0.0223193548 -0.4352746741 -0.0000376293 0.4800619421
0.2269388241 0.8324142224 0.2500193945 -0.4350581316 0.0037667021 0.4798135965
-0.0197339648 0.8306246281 0.0881991410 -0.4352786778 -0.0000373530 0.4800876793
0.1631876641 0.8498085617 0.2428025732 -0.4352544006 0.0037947586 0.4801093782
0.3380890756 0.8498085617 -0.0758973745 -0.4352652049 0.0037955278 0.4800645224
-0.2365273436 0.8306246281 0.2947511173 -0.4352826297 -0.0000367948 0.4801345878
-0.0620537473 1.1783430264 0.4550043273 -0.4352725466 0.0020304812 0.4781224541
0.2139467545 1.0957414627 0.4290884311 -0.4352479471 0.0017223067 0.4819459003
0.3612579150 0.8498085022 0.0053898902 -0.4351700162 0.0037691921 0.4800996117
-0.0163079867 0.8869726333 0.3956327424 -0.4352814557 0.0020153202 0.4781528088
0.2344621125 0.9514834098 0.4213991441 -0.4353386928 0.0022902605 0.4817517532
0.2914724910 0.8498085617 -0.0386826036 -0.4352662179 0.0037955566 0.4800675381
0.2930903162 0.8498085617 -0.3721200117 -0.4352895187 0.0037966559 0.4800023050
0.1766588046 1.4400065420 0.4584625824 -0.4352444134 0.0017217197 0.4819457775
-0.1648638354 1.6181590584 0.4910302257 -0.4352568216 0.0020265773 0.4781219304
-0.0080756332 0.8306246281 -0.2791060938 -0.4353020669 -0.0000387707 0.4799945221
0.4599240912 0.4105145130 -0.4382898878 -0.4358456244 0.0017657986 0.4818566989
0.0872783467 1.2947551028 0.4460691168 -0.4352481101 0.0017198799 0.4819456951
0.2576759134 0.9422591031 0.4374420078 -0.4353437286 0.0020543019 0.4781925349
-0.3577836586 0.5292685544 0.3696849912 -0.4359422347 0.0018252285 0.4782568011
0.2657729990 0.8306246281 -0.2846020395 -0.4353014587 -0.0000387458 0.4799927706
0.4303420877 0.7205409439 -0.4391230978 -0.4371550258 0.0017823505 0.4802580806
0.1286591600 1.1269683965 0.4507961684 -0.4352621950 0.0020390987 0.4781231006
0.0865499922 1.3262651588 0.4487576913 -0.4352477303 0.0017198799 0.4819456874
-0.3213811528 1.2896922728 0.4641250907 -0.4351860501 0.0020102422 0.4781245989
-0.3903396899 1.1413722694 0.4410187947 -0.4351930273 0.0018278011 0.4803449550
-0.0396299773 0.8498085617 -0.2521159260 -0.4352963616 0.0037959269 0.4799880264
0.3190878612 0.8498085617 -0.0340912341 -0.4352634458 0.0037954089 0.4800707418
-0.3097631880 0.8306246281 -0.2424721453 -0.4353061243 -0.0000387535 0.4799993910
0.0421021379 0.8498085617 -0.0307249718 -0.4352894055 0.0037966559 0.4800457029
0.2797089834 0.8301535186 0.2955504428 -0.4347900554 0.0036671087 0.4795568215
-0.0269462644 1.1288810520 0.4319160374 -0.4352525858 0.0017175376 0.4819455838
0.1947963678 0.8306246281 -0.2332677458 -0.4353071449 -0.0000386786 0.4799980213
-0.0058688478 1.5704341067 0.4871209966 -0.4352486224 0.0020297005 0.4781223639
0.3540164002 1.2003766834 0.4380163383 -0.4352436959 0.0017251363 0.4819460576
-0.2541197972 1.1668406275 0.4351549108 -0.4352568791 0.0017130409 0.4819452845
0.2781678537 1.3703268501 0.4707299732 -0.4352311266 0.0020392905 0.4781235840
-0.1255192969 1.0859959919 0.4282569092 -0.4352551928 0.0017155597 0.4819454668
0.3433589194 0.8306246876 -0.2949636926 -0.4352781157 -0.0000384676 0.4800029419
0.3299361378 0.7941751542 -0.3212262099 -0.4354438515 -0.0000154277 0.4798822942
0.2769035806 0.8498085617 -0.2284667861 -0.4352829616 0.0037965542 0.4800307548
0.2518077419 1.5648312586 0.4691131513 -0.4352412711 0.0017232697 0.4819458466
0.3351892974 0.8306246281 -0.1356018640 -0.4352535967 -0.0000377137 0.4800298359
0.3896136988 0.8498085617 -0.1091261268 -0.4348949857 0.0036854888 0.4801388697
-0.0348045753 0.8966757172 0.3993727769 -0.4353199674 0.0030370296 0.4788210543
-0.1954436452 0.8306246281 -0.1666597202 -0.4353145211 -0.0000386269 0.4800061648
0.1299042299 1.2181650262 0.4582662004 -0.4352501340 0.0020393481 0.4781233059
-0.3678878633 0.8498085617 -0.2714112108 -0.4353033675 0.0037958674 0.4799778705
-0.1274501310 0.8306246876 0.1857343226 -0.4352814710 -0.0000370998 0.4801101418
-0.1683894280 0.9456830324 0.4197355095 -0.4353027095 0.0017256888 0.4817743000
0.2426724237 1.1025370988 0.4487949734 -0.4352462896 0.0020434592 0.4781237740
-0.1979410461 1.3682335261 0.4705584977 -0.4352488737 0.0020236710 0.4781226690
0.1206770552 1.0784448925 0.4468580848 -0.4352871245 0.0024667201 0.4783854658
0.0813722965 1.2433974507 0.4603330294 -0.4352549761 0.0020375237 0.4781230507
-0.4229204991 0.8013070137 -0.3773434304 -0.4363976786 0.0008636799 0.4811821534
0.0056772540 0.8306246281 -0.3136917967 -0.4352982358 -0.0000388206 0.4799911381
0.1365066685 1.3489442114 0.4506927670 -0.4352463970 0.0017208813 0.4819457449
0.0640208717 0.8498085617 -0.2779261840 -0.4352948902 0.0037961858 0.4799941135
-0.0894943884 0.8498085617 0.2320070736 -0.4352772256 0.0037959595 0.4800859220
-0.1978242486 0.8498085617 0.1127994568 -0.4353171723 0.0037964045 0.4800248327
0.1161248517 0.8638492827 0.3798188773 -0.4353103908 0.0017377095 0.4782014670
0.3063687272 0.8498085617 0.1673302620 -0.4352481216 0.0037944785 0.4801073889
-0.2929850463 0.8316351687 0.3193003233 -0.4353437727 0.0003881236 0.4808772286
0.0313047064 1.6047296028 0.4899301959 -0.4352478320 0.0020288449 0.4781222910
0.3282018105 0.8498085022 -0.2957857184 -0.4352839975 0.0037966520 0.4800224980
0.2580166431 0.8306246281 -0.1021098352 -0.4352615178 -0.0000377079 0.4800398979
-0.2626275457 0.8969287476 0.4063446557 -0.4353154630 0.0035495745 0.4791265163
-0.2059972969 0.8498085617 -0.2549118462 -0.4352962023 0.0037953955 0.4799719944
-0.0651802988 0.8306246281 -0.4050137147 -0.4352881221 -0.0000389645 0.4799826799
0.1522023318 0.8498085617 -0.3184832143 -0.4352925785 0.0037963547 0.4799966573
0.1133327951 0.8498085617 -0.2244574686 -0.4352979404 0.0037964832 0.4800063202
0.1971444199 0.8498085617 -0.3531849532 -0.4352905987 0.0037964045 0.4799959686
-0.0404490180 0.8306246281 0.2260042193 -0.4352598411 -0.0000367296 0.4801117321
-0.0791008574 0.8008070995 -0.0872429312 -0.4342331419 0.0007053127 0.4789515031
0.0092783392 1.6036119832 0.4898386483 -0.4352487758 0.0020286818 0.4781222603
-0.0938477735 1.6784562567 0.4934630765 -0.4352536639 0.0016684881 0.4781285795
-0.1428939342 0.8498085617 0.1406831067 -0.4353187626 0.0037966520 0.4800339451
0.0866999242 1.1799770083 0.4551381737 -0.4352623274 0.0020375908 0.4781229471
-0.3594551548 1.1949977099 0.4375573877 -0.4352460037 0.0017064876 0.4819442275
-0.2266672429 0.8896350122 0.4182625594 -0.4352900481 0.0036459929 0.4793848087
0.2529067434 0.8306246281 0.0527963598 -0.4352371926 -0.0000369713 0.4800658748
-0.1717142704 0.9008744856 0.4020588959 -0.4353266146 0.0035074868 0.4790426575
0.1342985382 1.3302567368 0.4490982618 -0.4352466790 0.0017208295 0.4819457468
-0.0836680474 1.6265609288 0.4743801981 -0.4351987882 0.0016995047 0.4819418947
-0.2387409642 0.7941752137 0.2646170519 -0.4354408454 -0.0000253535 0.4798860159
-0.4768624514 0.1816762770 -0.4655118953 -0.4357172168 0.0019072398 0.4781736752
-0.1690794070 0.8498085617 -0.1372675205 -0.4353029129 0.0037958271 0.4799921222
0.2283285581 1.0000704914 0.4239394805 -0.4353199751 0.0015924813 0.4819034923
-0.3600204765 0.6722091756 0.3924936408 -0.4368420341 0.0020002339 0.4811280240
0.2143287008 0.8498085617 -0.3898277992 -0.4352885096 0.0037963604 0.4799923946
0.2349534207 1.0540696828 0.4263193089 -0.4353997457 0.0021968673 0.4819175925
-0.2054238373 0.8306246281 -0.2321962598 -0.4353072619 -0.0000387247 0.4799999109
-0.1448588429 0.8498085617 0.1030555091 -0.4353166179 0.0037965446 0.4800284316
-0.1792162493 1.0404747792 0.4251118031 -0.4351868271 0.0020801561 0.4819315603
-0.2610035892 0.7941751542 0.2908461259 -0.4353628109 -0.0000334836 0.4799613492
-0.1221696900 1.3170410861 0.4663652677 -0.4352710752 0.0020290463 0.4781221721
-0.1952838469 1.0031390555 0.4432569880 -0.4352642803 0.0018655244 0.4781467045
0.4031482997 1.0624050444 0.4455530210 -0.4353471760 0.0021878778 0.4781469251
0.4703724500 0.3339394267 -0.4416258261 -0.4347628909 0.0018144586 0.4818633288
-0.3404652014 0.7267199278 0.3594479569 -0.4351770241 0.0017843725 0.4781337151
0.3069970298 1.3984236316 0.4730314103 -0.4352305511 0.0020385750 0.4781235207
0.3102233108 1.3770278787 0.4712788601 -0.4352298777 0.0020393500 0.4781236090
-0.2457398829 0.8306246281 -0.1854483017 -0.4353124396 -0.0000386614 0.4800045841
0.4139208209 0.8305520323 -0.4153013677 -0.4360814545 0.0034452599 0.4792632574
-0.1563972749 0.9423919423 0.4374752037 -0.4352870996 0.0018095572 0.4782420698
-0.4651487819 0.3431494759 -0.4207775827 -0.4351857259 0.0017333375 0.4819412655
-0.1257621693 1.3324327282 0.4492839258 -0.4352477495 0.0017141343 0.4819450984
0.2997439240 1.1021408681 0.4487625142 -0.4352367916 0.0020456692 0.4781241365
-0.3667982351 0.8306246281 -0.1356724685 -0.4353463798 -0.0000378806 0.4799972961
0.2549133061 1.6482599433 0.4934630765 -0.4352384990 0.0020232355 0.4781224906
0.0110611425 0.8379446493 0.3511986468 -0.4353088964 0.0037776599 0.4802236684
0.0462801818 1.6419579559 0.4756939369 -0.4352109221 0.0017073835 0.4819431417
0.1331924521 1.4978664041 0.4633994316 -0.4352445995 0.0017208833 0.4819457085
0.1490595354 0.8306246281 -0.1841706210 -0.4353125816 -0.0000386096 0.4800029419
-0.0845952204 0.8498085617 -0.0174422866 -0.4353097462 0.0037964122 0.4800170325
-0.0722776156 0.8498085022 -0.0458769893 -0.4353081232 0.0037963758 0.4800141626
0.3967457328 0.7941751542 -0.3920390334 -0.4355531826 0.0000062712 0.4797761169
-0.3739669123 0.4196245103 0.3989715257 -0.4371077527 0.0019878814 0.4806192546
-0.3054742302 1.1412256735 0.4329693332 -0.4352582776 0.0017120088 0.4819452231
-0.2392014036 0.9804673773 0.4218815797 -0.4352335073 0.0018252074 0.4818976259
0.0350074262 0.7953825814 -0.0035409599 -0.4347273335 0.0001416964 0.4805752217
-0.0446931890 0.8498085617 -0.1004063595 -0.4353050135 0.0037963163 0.4800090348
-0.0656406940 0.8498085617 0.1597725499 -0.4352810451 0.0037962050 0.4800744155
0.1501059633 0.8498085617 0.2640312111 -0.4352538039 0.0037947125 0.4801122443
0.0374508781 0.8498085617 0.2738779347 -0.4352627858 0.0037951768 0.4801045324
-0.1590649236 1.4129508016 0.4742213456 -0.4352719481 0.0020284784 0.4781219227
0.2631523624 1.6224209976 0.4913793177 -0.4352380405 0.0020303527 0.4781225865
-0.2698863874 0.8498085617 -0.1577695285 -0.4353017427 0.0037954530 0.4799797447
-0.0637810207 0.8306246281 -0.1493268539 -0.4353164414 -0.0000385846 0.4800072411
0.0769586681 0.8498085617 0.1611494633 -0.4352685487 0.0037955509 0.4800867700
0.1699941890 0.8498085617 0.2187826692 -0.4352557684 0.0037948449 0.4801054570
-0.2755749302 1.1669450725 0.4351638236 -0.4352573280 0.0017126150 0.4819452557
0.2417862909 0.9739590782 0.4407696817 -0.4353277004 0.0021764365 0.4782029096
-0.3081562516 1.5056921944 0.4640671648 -0.4351950704 0.0016914992 0.4819409183
0.0244771329 0.8461827695 -0.4139369833 -0.4352871341 0.0030707166 0.4799660359
-0.2091282242 1.1133568661 0.4305914558 -0.4352566048 0.0017139099 0.4819453536
-0.0555302852 1.6644557548 0.4934630765 -0.4352599850 0.0017641296 0.4781230488
0.0756458616 1.2763308453 0.4444970855 -0.4352485859 0.0017196401 0.4819456835
-0.1534533832 0.8669991657 0.3686551324 -0.4353427483 0.0025344988 0.4786558538
-0.2664443984 0.8306246281 -0.0477159362 -0.4353276947 -0.0000384580 0.4800179092
0.3021306164 1.1219916256 0.4503885195 -0.4352338124 0.0020458054 0.4781241941
-0.0471828607 1.5583788116 0.4685626031 -0.4352154572 0.0017060253 0.4819431493
0.4111201008 0.8046089945 -0.3753356399 -0.4340339935 0.0011082213 0.4812486200
0.2136246428 0.8193492078 -0.1704275406 -0.4339931778 0.0025021240 0.4812840700
0.4197033994 1.1225579872 0.4478456027 -0.4352208670 0.0020045925 0.4786656740
0.0154126552 0.8498085617 0.1261188485 -0.4352767518 0.0037960017 0.4800749872
-0.2880767889 1.5222740500 0.4831761564 -0.4352377949 0.0020199665 0.4781226172
0.2648810114 1.2896391141 0.4456325979 -0.4352444460 0.0017234059 0.4819459233
0.0437380248 1.1150434217 0.4498193743 -0.4352779546 0.0020357837 0.4781225328
0.1930387972 1.4182193581 0.4746529035 -0.4352360703 0.0020368388 0.4781232656
-0.2212267695 0.9936880638 0.4229842952 -0.4352276735 0.0014471400 0.4817926149
0.1152872523 0.8498085617 -0.2493170189 -0.4352965227 0.0037964237 0.4800029841
0.0418371349 0.8306246281 -0.1238406988 -0.4353192633 -0.0000385348 0.4800092189
-0.0076154720 0.8112639471 0.0021148109 -0.4366597637 0.0016992841 0.4787107275
-0.2708272308 1.1477829165 0.4335288249 -0.4352574681 0.0017127013 0.4819452673
0.1912422352 1.4822926892 0.4620706180 -0.4352435770 0.0017220285 0.4819457871
-0.4553967846 0.4227792219 -0.4181935951 -0.4347614483 0.0017235268 0.4818672731
0.2406471278 0.8770504726 0.4077389268 -0.4353152328 0.0024975813 0.4782456840
-0.1750639367 1.3252129929 0.4486679220 -0.4352433986 0.0017112261 0.4819446438
0.1687687328 0.8306246281 0.2932450097 -0.4352126410 -0.0000359795 0.4801106501
0.1834820156 1.5729802157 0.4873295605 -0.4352403291 0.0020313484 0.4781226517
-0.2215904931 0.8306246281 -0.1258435130 -0.4353190427 -0.0000385693 0.4800102031
0.0158052851 0.8306246281 -0.4128179595 -0.4352872588 -0.0000389664 0.4799815691
0.3562446717 0.1398242526 0.4066425170 -0.4371912834 0.0017835802 0.4798947733
-0.1491501411 1.0452413728 0.4253088163 -0.4351988516 0.0020750590 0.4819276295
0.2103821436 0.8311480176 -0.1960121112 -0.4355295289 0.0037640854 0.4797986004
-0.0506218955 1.1118143302 0.4495548816 -0.4352662159 0.0020295950 0.4781227860
0.2162035371 1.0128868669 0.4246107110 -0.4353175521 0.0018013445 0.4819235913
-0.3400969620 1.2768185219 0.4630705844 -0.4351763661 0.0020081780 0.4781249001
-0.0851248446 0.8498085022 0.3130779262 -0.4352732948 0.0037548828 0.4802291550
-0.2137904783 1.5617303791 0.4864080718 -0.4352630007 0.0020267979 0.4781218594
0.3249139969 0.8498085617 -0.0154415213 -0.4352614180 0.0037952900 0.4800747282
0.3043775634 1.0106757516 0.4436017982 -0.4354714150 0.0019592858 0.4781276779
-0.0207719039 0.7990762253 0.0630239172 -0.4345818176 0.0002314043 0.4807148596
0.1507917563 0.8306246281 0.1327694713 -0.4352418734 -0.0000367909 0.4800851010
-0.1217114318 0.9380383807 0.4187920091 -0.4353226129 0.0007180777 0.4815094889
0.0792236480 1.6367128171 0.4752463969 -0.4352156720 0.0017099235 0.4819435714
-0.0777013741 0.8498085617 -0.1186744195 -0.4353039718 0.0037961647 0.4800033448
0.0782135160 0.8131427065 -0.0841038795 -0.4366391544 0.0022087173 0.4787255567
-0.0239440037 0.8498085617 -0.0094717747 -0.4353102009 0.0037966252 0.4800238620
-0.1333368611 1.1012652731 0.4486907931 -0.4352310441 0.0020218101 0.4781237874
0.2271170927 0.8306246281 -0.2905213784 -0.4353008026 -0.0000387592 0.4799923754
-0.2238249839 0.8498085617 0.2672201563 -0.4352860195 0.0037963969 0.4800811203
0.3195047569 1.4198230160 0.4567404407 -0.4352416682 0.0017245493 0.4819459655
-0.3214427351 0.8498085617 -0.2472933038 -0.4352966378 0.0037950521 0.4799622221
-0.0036071483 0.8498085617 -0.2701390340 -0.4352953352 0.0037959940 0.4799888590
0.0489242382 0.8306246281 -0.1584818433 -0.4353154266 -0.0000385846 0.4800058579
-0.3541924531 0.7986623722 0.3754387382 -0.4370159940 0.0025604662 0.4804640105
0.0389877932 0.9149063667 0.4298684575 -0.4352996823 0.0032578885 0.4787169105
0.1596575345 0.8498085617 -0.2256855013 -0.4352978694 0.0037966271 0.4800105004
-0.1595296506 1.4536752117 0.4596288563 -0.4352216862 0.0017046460 0.4819432127
-0.2463691792 0.8498085617 -0.2556851621 -0.4352961582 0.0037952669 0.4799680886
0.3661392554 0.1464868308 0.4235447059 -0.4362126169 0.0019149076 0.4817072810
0.1852445031 0.8498085617 -0.1587317697 -0.4352852349 0.0037966271 0.4800360419
0.2661496756 1.5363085055 0.4843257306 -0.4352357730 0.0020333857 0.4781229241
0.2503106948 1.4979107823 0.4811805324 -0.4352355197 0.0020345809 0.4781230469
0.2358457000 1.2732933111 0.4627818355 -0.4352305875 0.0020422909 0.4781238910
0.2326830559 0.8498085617 0.1186852507 -0.4352584886 0.0037950521 0.4800920264
0.0039426312 1.3078126817 0.4656093555 -0.4352595629 0.0020346691 0.4781226958
0.2669390925 0.8498085617 -0.0927192613 -0.4352727557 0.0037959326 0.4800553371
-0.2149964398 0.8498085617 0.1552934985 -0.4353195971 0.0037964640 0.4800292374
-0.1245004420 1.5180069580 0.4828266347 -0.4352537406 0.0020301590 0.4781223332
0.3334256953 0.8347412585 0.2547074663 -0.4351136787 0.0007612319 0.4801190680
0.0829956832 1.2720063799 0.4626764140 -0.4352509877 0.0020376503 0.4781231236
0.2673689872 1.1864526410 0.4556685941 -0.4352312513 0.0020446006 0.4781241116
-0.1325516301 1.6217912907 0.4739732321 -0.4351940364 0.0016964813 0.4819414132
-0.4477689936 0.3780262049 -0.4278367868 -0.4336740626 0.0017405065 0.4810433423
0.4046040150 1.1794981140 0.4362348991 -0.4352428959 0.0017261320 0.4819461267
0.1616895044 0.8151159563 0.2103528747 -0.4366267175 0.0022953250 0.4813316442
-0.0300516234 1.0652973888 0.4458467462 -0.4352856895 0.0022800796 0.4781647221
0.3428414443 0.6637735242 0.3995312208 -0.4362116961 0.0019157287 0.4816907444
0.2835548461 0.8799650051 0.3854951385 -0.4352802106 0.0035202154 0.4797620378
-0.1284707700 1.4625591379 0.4782848346 -0.4352616099 0.0020298827 0.4781221874
-0.0381521621 1.0094089598 0.4233808578 -0.4352765120 0.0014290304 0.4818290855
0.2655335509 1.2689149849 0.4438643188 -0.4352446935 0.0017234098 0.4819459291
-0.1038036845 0.8306246281 -0.0418382801 -0.4353283450 -0.0000384293 0.4800177481
0.0160410442 1.0989068578 0.4484976224 -0.4352846862 0.0020346768 0.4781223217
-0.0119632650 1.1990776913 0.4567027385 -0.4352763546 0.0020338135 0.4781223601
0.1935312756 0.8306246281 -0.3516989120 -0.4352940269 -0.0000388532 0.4799866471
0.3547130840 0.3318690505 0.3820752647 -0.4365214399 0.0017519651 0.4785811381
0.2335210639 0.8498085617 0.0819167672 -0.4352614142 0.0037952286 0.4800852103
0.1092591962 0.7953642569 0.1188007591 -0.4347127307 0.0001676024 0.4794773309
0.0637921378 0.8498085617 0.2159418452 -0.4352652222 0.0037953418 0.4800959149
0.2764857469 0.8306246281 0.0230000544 -0.4352379561 -0.0000370672 0.4800595576
0.2599012574 0.8306246281 -0.2496254908 -0.4355183600 0.0037671740 0.4798099381
0.0071528726 0.8306246281 0.2127747523 -0.4352537445 -0.0000366969 0.4801067577
0.0020175350 0.8306246876 0.1700534712 -0.4352615869 -0.0000369137 0.4800999762
0.2256330428 1.4947645885 0.4809228115 -0.4352365307 0.0020344658 0.4781230200
-0.0608911952 0.8306246281 0.1865247640 -0.4352698072 -0.0000369617 0.4801063836
-0.3534815004 1.0608318314 0.4425471077 -0.4352608636 0.0035608335 0.4795430819
0.3227641763 0.8498085617 -0.0566515593 -0.4352649651 0.0037955029 0.4800668283
0.3861668198 0.8306246281 -0.3291641130 -0.4352762626 -0.0000385463 0.4799947696
0.0046490911 1.7092487875 0.4875318206 -0.4352791382 0.0000262302 0.4798572918
0.0520189405 0.8306246281 -0.2929961212 -0.4353005283 -0.0000387842 0.4799929202
-0.1465682887 0.8498086212 -0.1885154002 -0.4352999893 0.0037957600 0.4799869809
-0.1440783829 1.0876820793 0.4475781806 -0.4352244679 0.0020204481 0.4781240022
0.0617632699 0.8048641907 0.1057817303 -0.4366022829 0.0013222661 0.4813062830
-0.0945160631 1.4979373598 0.4811827136 -0.4352513311 0.0020312755 0.4781224810
-0.0374114263 0.7985631990 -0.0437374723 -0.4343163196 0.0005629276 0.4790373206
0.0884303304 1.0470656268 0.4258200317 -0.4353201573 0.0021723963 0.4819199502
-0.2162081412 1.1520327947 0.4338914492 -0.4352562691 0.0017137871 0.4819453363
0.1971383904 0.8306246281 -0.3978207928 -0.4352889182 -0.0000389223 0.4799822003
0.4197741805 1.0831509512 0.4474216359 -0.4353459885 0.0018829012 0.4781169848
-0.3279141646 0.7980358269 -0.2894829713 -0.4361291649 0.0004246978 0.4809235732
0.0162439891 0.8185116680 -0.0000168022 -0.4340251862 0.0024345812 0.4787407216
-0.2301043439 0.9128041433 0.4088757993 -0.4352822537 0.0034017066 0.4788799010
0.1671330511 0.7947413987 0.1810996588 -0.4349138800 0.0000575441 0.4796726176
-0.0539053466 0.8498085617 -0.2910475783 -0.4352941420 0.0037957791 0.4799811720
0.1632169369 1.4994637390 0.4813077353 -0.4352394006 0.0020337291 0.4781229049
-0.3987805017 0.8306246281 -0.3680647948 -0.4353355448 -0.0000378557 0.4799688866
0.0660538948 1.1838772593 0.4554576456 -0.4352652740 0.0020368004 0.4781228244
0.4606551392 0.1163412397 -0.4789222649 -0.4370196889 0.0018353595 0.4792218297
0.2258840224 1.3514372805 0.4691826988 -0.4352329644 0.0020394708 0.4781235744
0.2343624117 1.6118532074 0.4731252734 -0.4352380674 0.0017218962 0.4819455991
0.1324393331 1.1564784469 0.4532133729 -0.4352577270 0.0020393097 0.4781231869
-0.2043560116 0.8498086212 0.2623353302 -0.4352847265 0.0037963316 0.4800818570
0.2057688776 1.1962977552 0.4564750233 -0.4352402812 0.0020422372 0.4781237413
-0.4402529030 0.6216066319 -0.4403691039 -0.4339710376 0.0018692576 0.4786430754
0.2807211642 0.8306246281 0.2074035080 -0.4352072119 -0.0000361675 0.4800898778
-0.0821152653 1.2147193193 0.4392401256 -0.4352526682 0.0017164786 0.4819454936
0.3840167056 0.8306246281 -0.0076958796 -0.4349641726 0.0000048804 0.4801225039
-0.1007598273 0.8498085617 0.2081158516 -0.4352801531 0.0037961264 0.4800804911
-0.1648682554 0.8306246281 -0.1036418929 -0.4353215002 -0.0000385290 0.4800120831
0.1142423457 0.8357872184 0.3454453851 -0.4353057828 0.0036883012 0.4804256522
0.3477010646 0.6997537629 0.3607224838 -0.4354027633 0.0017841135 0.4781338052
0.2638887953 1.0433097483 0.4256004159 -0.4354484115 0.0018909718 0.4819339890
-0.0693565279 0.8498085617 -0.2346802530 -0.4352973572 0.0037958808 0.4799877022
0.0809603177 0.8948860059 0.4210413311 -0.4353008487 0.0034679986 0.4789795290
0.3918305520 0.8498085617 -0.3980093076 -0.4352868099 0.0037968630 0.4800087489
-0.2002846361 0.9051195640 0.4261581101 -0.4352601864 0.0035138885 0.4790497115
0.3999258228 0.0164794728 0.4105358138 -0.4334140705 0.0019543153 0.4798193056
-0.2488675758 0.8306246281 0.1146493539 -0.4353456777 -0.0000382144 0.4800334329
-0.2671273943 1.2405604903 0.4414449965 -0.4352482905 0.0017100271 0.4819446802
-0.0450473264 0.8306246281 0.0661208448 -0.4352866583 -0.0000375103 0.4800854981
-0.0380088447 0.8498085617 -0.3703058293 -0.4352896223 0.0037956161 0.4799714419
-0.2563260417 1.5986585151 0.4894329062 -0.4352632021 0.0020250407 0.4781217328
-0.0432052160 0.8306246281 -0.1926514103 -0.4353116435 -0.0000386460 0.4800029861
0.3021025158 0.9285438913 0.4271105924 -0.4353160807 0.0027250989 0.4791108583
-0.1311539922 1.5415069256 0.4671230216 -0.4352088828 0.0017013463 0.4819424299
0.1730374035 1.5640013290 0.4690423453 -0.4352397651 0.0017205897 0.4819455166
0.1932289503 0.8306246281 -0.1996053521 -0.4353108723 -0.0000386288 0.4800012633
0.2535349290 0.8651785989 0.3659242918 -0.4353402755 0.0029315314 0.4788623151
-0.4752800129 0.2836138300 -0.4250987100 -0.4360161735 0.0017878678 0.4817992219
0.0943099183 1.0186276456 0.4243241625 -0.4353008391 0.0016719163 0.4818681402
0.1008474326 0.8306246281 0.2836717050 -0.4352259700 -0.0000361636 0.4801130328
0.0765222758 1.3450835387 0.4686622617 -0.4352425737 0.0020375620 0.4781232406
0.2538805179 0.8498085617 -0.2161904268 -0.4352839611 0.0037965983 0.4800311020
0.3096382738 0.8498085022 0.0609574354 -0.4352565127 0.0037949849 0.4800877426
0.1989916236 0.7955560483 -0.1945714419 -0.4359446711 0.0002249431 0.4793961138
-0.0161853054 0.8306246281 0.1269364255 -0.4352717582 -0.0000371574 0.4800938930
-0.1987150373 0.8498085617 0.0132929591 -0.4353114977 0.0037961360 0.4800106577
-0.1690847631 1.5661181898 0.4692229602 -0.4352000179 0.0016973177 0.4819417029
-0.4825675269 0.1726746018 -0.4310882449 -0.4361371090 0.0017871196 0.4817512333
-0.4703890249 0.6186077956 -0.4346786754 -0.4370435613 0.0019936884 0.4793355617
-0.3181922440 1.3841459794 0.4536963284 -0.4352161497 0.0016980409 0.4819423244
-0.3511234496 0.4588423601 0.4105836298 -0.4350593920 0.0019581923 0.4819264728
0.2005679981 0.8306246281 -0.3740336628 -0.4352915541 -0.0000388858 0.4799844697
-0.0746485599 1.3942388560 0.4545574779 -0.4352423243 0.0017139195 0.4819448932
0.0699261008 0.8022508133 0.0658822753 -0.4342208661 0.0006693754 0.4790054714
0.1426330807 0.8498085617 -0.3959247046 -0.4352881604 0.0037961187 0.4799847920
-0.2935133987 0.8493349353 -0.4139369833 -0.4352871341 0.0036999918 0.4799405826
-0.1104822909 0.8498085617 -0.1348349862 -0.4353030510 0.0037960170 0.4799979752
-0.1390580549 0.8324497588 0.1653589746 -0.4355383017 0.0037614322 0.4797917441
0.0367698849 1.2952296653 0.4645786660 -0.4352557051 0.0020359122 0.4781228781
0.1904853101 0.8306246281 -0.2565046134 -0.4353045704 -0.0000387132 0.4799958074
0.0998798641 1.1761917420 0.4359527917 -0.4352493322 0.0017200775 0.4819457373
0.0302236188 0.8498085617 -0.3814489956 -0.4352889873 0.0037958022 0.4799762763
0.3496586834 0.3851760953 0.4066683942 -0.4368014601 0.0018625681 0.4812057209
-0.0467404984 0.8107820659 -0.0630055332 -0.4339789874 0.0015356144 0.4786847947
0.1429695381 1.5897255279 0.4887011868 -0.4352425334 0.0020303911 0.4781225232
0.2771403929 1.2471998119 0.4420115038 -0.4352447223 0.0017236304 0.4819459483
0.2082830223 1.5249922810 0.4657139252 -0.4352426849 0.0017223873 0.4819457986
-0.2171789442 0.8498085617 -0.3786295405 -0.4352891484 0.0037950291 0.4799534224
0.1524284912 0.8498085617 -0.0673052340 -0.4352806269 0.0037963278 0.4800503819
-0.0458311819 1.5374586763 0.4844199486 -0.4352495662 0.0020304851 0.4781224292
0.2749253545 0.8306246281 0.2295047251 -0.4352046182 -0.0000360735 0.4800938795
0.2109732678 1.0592513573 0.4263193089 -0.4353667417 0.0023963687 0.4818730436
-0.0302446157 1.2118905562 0.4389987591 -0.4352516150 0.0017175088 0.4819455608
0.3422852100 0.6436564476 0.3999626157 -0.4363572580 0.0019056303 0.4816210166
-0.1679323113 0.8537454022 0.3834874286 -0.4353313205 0.0028552906 0.4783851666
-0.4418239540 0.5278569833 -0.4197132983 -0.4337632526 0.0017417803 0.4811705701
-0.2176171954 0.8960870506 0.3989803599 -0.4353131955 0.0030627476 0.4787211348
-0.1943577578 1.6729566814 0.4781159297 -0.4352174887 0.0015438750 0.4819191656
0.2277490230 0.8476600878 -0.4139369833 -0.4352871341 0.0033667458 0.4799872188
-0.2629919272 0.8557704045 0.3858780440 -0.4353245715 0.0028407032 0.4783871905
-0.0637546179 0.9936880638 0.4397820909 -0.4352797022 0.0013263158 0.4785456785
-0.0380164569 0.8306245686 0.0868174565 -0.4352820715 -0.0000373952 0.4800885176
-0.2293983982 1.3506221034 0.4691159253 -0.4352332599 0.0020203195 0.4781231447
0.1588188225 1.3707164068 0.4707618838 -0.4352364022 0.0020381836 0.4781233941
-0.0077394117 0.8306246281 -0.3371976193 -0.4352956326 -0.0000388571 0.4799889396
-0.3504205407 0.4936724874 0.4089455789 -0.4351662254 0.0019635734 0.4819405250
0.2324984643 0.8306246281 -0.0274520277 -0.4352537905 -0.0000373991 0.4800537659
0.0667535041 0.8498085617 0.0875795038 -0.4352754357 0.0037959576 0.4800721250
-0.1990625005 1.4880015018 0.4625577192 -0.4352108588 0.0016999306 0.4819423475
-0.3546866140 1.2278917639 0.4590629360 -0.4351624155 0.0020054481 0.4781254008
-0.0125498848 0.8306246281 -0.2474110951 -0.4353055775 -0.0000387247 0.4799975877
-0.1134831166 1.5039640712 0.4816763680 -0.4352537214 0.0020305541 0.4781223735
-0.3571358978 0.0545163270 0.3997383958 -0.4337531369 0.0017545933 0.4788996279
0.1225657077 0.8156129430 0.1697782220 -0.4366219157 0.0023184801 0.4813269422
-0.2304091286 1.4507007888 0.4593750605 -0.4352140759 0.0017000265 0.4819424645
-0.3600288484 1.1224154908 0.4504232366 -0.4351428939 0.0020019221 0.4781261892
0.1515872028 0.8306246281 -0.0737861346 -0.4352753513 -0.0000377866 0.4800508135
0.1895604201 1.3313733012 0.4491935254 -0.4352455050 0.0017219288 0.4819458178
0.3213487396 0.8306246281 0.2292624090 -0.4351966147 -0.0000359795 0.4800911266
0.2337801832 1.3009658783 0.4465990422 -0.4352449582 0.0017227921 0.4819458811
0.3619186500 0.6178521596 0.3663904978 -0.4343602451 0.0018430830 0.4783624605
0.0858610952 0.9936880638 0.4248842394 -0.4353066346 0.0011687178 0.4813547378
-0.3611932230 0.6461563060 0.3937714155 -0.4368417310 0.0020003203 0.4811292575
0.1624913334 0.7967505954 -0.1281878185 -0.4346801966 0.0001619412 0.4806199279
0.0390997890 0.8498085617 0.1400932104 -0.4352735538 0.0037958252 0.4800796144
0.1296074660 0.8498085617 0.2481618142 -0.4352568791 0.0037948852 0.4801075327
0.3651802928 0.8306246281 -0.3838831682 -0.4352904625 -0.0000388801 0.4799827873
-0.2392129945 0.8306246281 -0.0338195858 -0.4353292332 -0.0000384350 0.4800191236
-0.1134971976 0.8498085617 -0.0582746524 -0.4353074173 0.0037962127 0.4800085340
0.2928708904 1.2552972486 0.4427024055 -0.4352442906 0.0017239469 0.4819459675
-0.1570787649 0.8498085617 0.3133822275 -0.4352800188 0.0037485656 0.4802439727
0.1051061508 1.4711619331 0.4611208809 -0.4352455241 0.0017203135 0.4819456778
0.3577189455 0.2501146878 0.3867974379 -0.4365910814 0.0017515162 0.4786411340
0.2325546080 0.8306246281 0.0928802894 -0.4352341960 -0.0000368178 0.4800737095
0.2293282099 1.4246465150 0.4751793682 -0.4352346277 0.0020369462 0.4781232963
-0.2342339139 0.8306246281 0.0231514809 -0.4353355428 -0.0000383487 0.4800245757
-0.0262919388 0.8306246281 -0.0939840044 -0.4353225707 -0.0000384983 0.4800123919
0.2472825857 0.8396370022 0.3557116557 -0.4353156491 0.0037372240 0.4804792272
0.3837588755 0.3474221581 0.3907678235 -0.4334908177 0.0019287373 0.4793845018
-0.1816413767 1.6226777745 0.4914003567 -0.4352576733 0.0020262646 0.4781218863
-0.1104546871 0.8498085617 0.3206616344 -0.4352962292 0.0035900967 0.4807666256
0.2650886122 1.1917591339 0.4372810604 -0.4352456699 0.0017233657 0.4819459444
-0.2453058617 1.1868887993 0.4557043222 -0.4351998798 0.0020141557 0.4781244550
0.4976059890 0.0755127759 -0.4717671066 -0.4333711637 0.0019633586 0.4800531137
0.2989994685 1.2206422878 0.4397455052 -0.4352445956 0.0017240524 0.4819459828
-0.1541609539 0.8306246281 0.1401191163 -0.4353484977 -0.0000381664 0.4800354568
-0.4572835129 0.2076051033 -0.4330175846 -0.4338331435 0.0017210521 0.4812539780
-0.3212194226 1.1493646779 0.4336637877 -0.4352585059 0.0017116999 0.4819452020
-0.3766612613 0.1785067094 0.3871575453 -0.4363222435 0.0018516486 0.4784290959
0.3542176781 0.4201729291 0.3753111248 -0.4361582746 0.0017585950 0.4783479919
0.2088387290 1.2693332292 0.4439000028 -0.4352458771 0.0017222837 0.4819458562
0.4671036055 0.4542725648 -0.4732334747 -0.4349464888 0.0019820303 0.4781556231
0.3714898924 0.6275826421 0.3841113035 -0.4333913663 0.0019777734 0.4802839674
0.3610538268 1.1716593266 0.4355660589 -0.4352439069 0.0017252629 0.4819460730
-0.1995079668 0.7961498678 -0.1688999336 -0.4359514296 0.0002404744 0.4807750511
0.3786797698 1.2254520875 0.4401558822 -0.4352428633 0.0017256370 0.4819460845
0.1089639554 1.6193257370 0.4911257809 -0.4352447664 0.0020290463 0.4781223563
0.3874306823 0.2841552505 0.4008940110 -0.4333928895 0.0019755672 0.4802371605
-0.1264945927 0.8306246281 0.2126838915 -0.4352769187 -0.0000369674 0.4801145541
0.0951051902 1.1587375699 0.4344635275 -0.4352496506 0.0017199739 0.4819457334
0.0703705139 1.1443580511 0.4332365941 -0.4352503508 0.0017194771 0.4819457066
0.0234172398 1.0787399586 0.4282377023 -0.4352828829 0.0018840848 0.4819520507
-0.1532074356 0.8498085617 0.0734675931 -0.4353149297 0.0037964391 0.4800234572
-0.3201578758 1.2578488633 0.4429201220 -0.4352390285 0.0017054133 0.4819438783
0.1865287408 0.8599418339 0.3827494361 -0.4353094105 0.0020159628 0.4781766084
-0.2889118560 0.8158379878 -0.2961649137 -0.4339864442 0.0022434229 0.4786917488
-0.1672834608 0.8498085617 -0.1045343468 -0.4353047795 0.0037959192 0.4799969278
-0.2254055444 0.8498085617 0.0718713709 -0.4353148395 0.0037962069 0.4800164455
0.1249552681 0.8809426433 0.4052807071 -0.4352963194 0.0021144090 0.4781627538
0.2134557992 0.8313692582 0.3171727196 -0.4352319093 0.0000220788 0.4803750661
0.0075101714 1.4717011302 0.4611668955 -0.4352376069 0.0017148748 0.4819448356
0.3704828644 0.0757060829 0.3914195861 -0.4360078361 0.0017628577 0.4782898972
0.1759973656 0.8306246281 0.0302613556 -0.4352541895 -0.0000372360 0.4800666345
-0.3648908706 0.8306246281 -0.2842370114 -0.4353053761 -0.0000385578 0.4799881991
0.2504338154 0.8498085617 0.2818852415 -0.4352436345 0.0037941696 0.4801241000
0.1582179203 1.5775777336 0.4877061430 -0.4352415588 0.0020309551 0.4781225941
-0.1369309787 1.2222181942 0.4585982071 -0.4352495010 0.0020249755 0.4781229932
0.3113241271 0.8498085617 -0.3041459634 -0.4352861461 0.0037967690 0.4800195015
0.3731634508 0.4925434803 0.4023814411 -0.4338210998 0.0020029120 0.4812499974
-0.0054806685 1.2301082660 0.4405531738 -0.4352508669 0.0017180076 0.4819455895
-0.4175092140 0.8306246281 -0.3337693582 -0.4354238369 -0.0000333302 0.4799785649
0.0050098142 0.8498085617 -0.0408509234 -0.4353084110 0.0037966328 0.4800221393
0.1772351763 0.7995857410 0.2200861676 -0.4361273348 0.0003781038 0.4808450821
-0.2354826422 1.1636115360 0.4348793930 -0.4352565280 0.0017134092 0.4819453075
-0.1601168842 0.8306246876 -0.1827742129 -0.4353127370 -0.0000386460 0.4800044575
-0.1835235316 0.8498085617 -0.2493272055 -0.4352965208 0.0037954818 0.4799748969
-0.1209106848 1.0441551344 0.4446567112 -0.4352088483 0.0022018072 0.4781573842
-0.2026272150 0.8102854898 0.2590988606 -0.4339118110 0.0017223834 0.4813602877
-0.0683739134 0.8498085617 -0.2795807158 -0.4352947962 0.0037957638 0.4799814348
0.1741277397 0.8992534413 0.4021602888 -0.4353431915 0.0036557844 0.4793399011
-0.1646602459 0.8498085617 0.1821264156 -0.4353041982 0.0037965887 0.4800538849
0.3443661814 0.5698373521 0.4021658425 -0.4365112264 0.0018921517 0.4814951162
0.0623108964 0.8306246281 -0.3242092387 -0.4352970714 -0.0000388283 0.4799898738
-0.0148657366 0.8498085617 0.0095640705 -0.4353112848 0.0037967057 0.4800274110
-0.0210461286 0.8443562921 0.3682964869 -0.4353555766 0.0024877936 0.4788378268
0.0871598514 0.8498085617 -0.1487389469 -0.4353022587 0.0037966041 0.4800145827
-0.0346978205 0.8306246281 -0.1592650543 -0.4353153402 -0.0000385962 0.4800061572
0.3070418741 0.8306246281 -0.3535870369 -0.4352938178 -0.0000388436 0.4799859584
0.2368600467 0.8498085617 0.0077807109 -0.4352671713 0.0037955758 0.4800716089
0.3064379275 1.3362004317 0.4496054063 -0.4352429919 0.0017242520 0.4819459675
-0.1798192310 0.8498085617 -0.0829086898 -0.4353060130 0.0037959384 0.4799988116
-0.2103488538 0.8306246281 -0.2970084255 -0.4353000852 -0.0000388225 0.4799937068
-0.4380514967 0.6511368811 -0.4124731897 -0.4339808272 0.0017500236 0.4814104211
0.3335810161 1.2366371745 0.4411102483 -0.4352436691 0.0017247469 0.4819460231
-0.4643352162 0.0465387995 -0.4408246993 -0.4338015341 0.0017160125 0.4812021104
0.3117387994 0.8182316478 -0.3243598153 -0.4366433653 0.0022421376 0.4787273523
0.0760984125 1.3080062303 0.4656252053 -0.4352474636 0.0020374623 0.4781231562
0.0530531617 1.3793782156 0.4532895158 -0.4352477667 0.0017192373 0.4819456317
-0.3069759908 0.8306246281 -0.0869336977 -0.4353233514 -0.0000385213 0.4800143218
-0.0831100865 0.8306246281 -0.3586167900 -0.4352932614 -0.0000388973 0.4799872188
-0.3863121208 1.1595272209 0.4358428773 -0.4352397325 0.0017264025 0.4816832492
0.1778665809 0.8498086212 -0.1036680617 -0.4352813847 0.0037963911 0.4800457298
0.3296545388 1.1789741375 0.4361901967 -0.4352444748 0.0017246433 0.4819460308
-0.1835852079 1.5146742426 0.4648335438 -0.4352077606 0.0016993934 0.4819421844
0.0742039051 0.8306246281 0.1374109837 -0.4352543910 -0.0000369252 0.4800903459
-0.3768631491 0.8498085617 -0.2433422959 -0.4353282261 0.0037956314 0.4799820008
0.3517377230 0.3659553957 0.4095373764 -0.4367309265 0.0018704527 0.4812868363
0.2832328495 1.0736051179 0.4470380723 -0.4353393931 0.0023073937 0.4781777614
0.2571717846 0.7977477878 -0.2229227770 -0.4345084506 0.0003141599 0.4807863562
-0.3658677548 0.1397091240 0.3871922490 -0.4351299659 0.0017817769 0.4781298936
0.3748940335 0.8322952015 -0.3599798277 -0.4353093088 0.0037620173 0.4800089081
0.0406318467 1.3625344322 0.4518523418 -0.4352482387 0.0017189840 0.4819456202
-0.2835530083 0.8769188650 0.3854544225 -0.4353271422 0.0036219535 0.4794027073
-0.1166877965 1.2661034337 0.4621928887 -0.4352649076 0.0020280717 0.4781224618
-0.3129186094 1.4443785432 0.4767956319 -0.4352149315 0.0020154717 0.4781234363
-0.2331065470 1.3946512454 0.4545926727 -0.4352240170 0.0017031746 0.4819431340
-0.2277912718 1.6115326170 0.4730979133 -0.4351849547 0.0016906475 0.4819404866
-0.3524083396 0.2677289497 0.4163394545 -0.4341133248 0.0018953113 0.4815284426
-0.3381066538 0.8306246281 -0.3675885345 -0.4352922677 -0.0000389434 0.4799874950
-0.2168602108 0.7962346397 0.2585186252 -0.4346086175 0.0002087807 0.4806877623
-0.2748762283 0.8498085617 -0.0775762027 -0.4353063161 0.0037956525 0.4799906316
0.1566134433 0.8498085617 -0.2962650251 -0.4352938446 0.0037964276 0.4800002197
0.3234827546 1.4374244842 0.4582422665 -0.4352413651 0.0017246356 0.4819459655
-0.2145804362 0.8306246281 0.1137656787 -0.4353455799 -0.0000382125 0.4800331950
0.1608488606 0.8778209224 0.4083992972 -0.4353081885 0.0023858406 0.4782111376
0.3667353578 0.8498085022 -0.1451752723 -0.4352683665 0.0037957369 0.4800539770
-0.2743508916 0.8498085022 0.0528110547 -0.4353137518 0.0037960017 0.4800091460
0.4669931310 0.7409817743 -0.4482517995 -0.4336258745 0.0019969324 0.4791647422
-0.1770734538 0.8306246281 -0.2613495389 -0.4353040332 -0.0000387650 0.4799969834
0.0814950065 0.8498085617 -0.3288516605 -0.4352919857 0.0037961053 0.4799885444
0.2693208681 1.4242430250 0.4751463162 -0.4352328532 0.0020373280 0.4781233615
-0.3553602885 0.6789119595 0.3655763969 -0.4364995702 0.0018665680 0.4785782298
-0.3210358631 0.8306246281 0.0918435205 -0.4353431512 -0.0000382585 0.4800315624
0.4942542450 0.1278684242 -0.4625271093 -0.4335589130 0.0019202427 0.4807988028
-0.0345810230 0.8306246281 0.2963916870 -0.4352473677 -0.0000363766 0.4801230583
-0.4320617604 0.6846934849 -0.4185199234 -0.4334919323 0.0017655435 0.4806684844
0.0917850018 1.0245001488 0.4434271438 -0.4352997610 0.0019149057 0.4781734699
-0.0641648989 0.8107513889 0.1154360775 -0.4339107406 0.0017515296 0.4813616747
-0.2902338112 1.0553477127 0.4455032425 -0.4351599887 0.0022450401 0.4781577871
-0.4494012567 0.7306482199 -0.4032468936 -0.4356073466 0.0018037118 0.4818885691
0.3601472037 0.5470070189 0.3680033237 -0.4350914465 0.0017978895 0.4781319233
-0.3119565658 1.0951591766 0.4290387408 -0.4352589913 0.0017118611 0.4819452250
0.2440207089 0.8306246281 -0.3727262432 -0.4352916980 -0.0000388782 0.4799844007
0.0098992061 1.0432458178 0.4445074582 -0.4352880492 0.0020890172 0.4781899489
-0.0848471092 0.8498085617 0.2752138521 -0.4352732967 0.0037957254 0.4800944090
-0.4083212378 0.7989781628 -0.4036592235 -0.4343488671 0.0004942165 0.4791330062
-0.2044969713 0.8306246281 -0.2599105098 -0.4353041925 -0.0000387669 0.4799972443
0.2761706584 1.5120617419 0.4823396525 -0.4352347293 0.0020343238 0.4781230335
0.2783558984 0.8306246281 -0.2556414304 -0.4352829808 -0.0000384082 0.4800132591
-0.1890236900 0.9751079023 0.4216379668 -0.4352509532 0.0019312735 0.4818860119
0.1013973420 0.8989590197 0.4026901912 -0.4353389595 0.0036358389 0.4792996302
0.2141347417 0.9374831420 0.4237899840 -0.4353217822 0.0006833010 0.4803487170
-0.1860487108 0.8498085617 0.1873819175 -0.4353214254 0.0037966405 0.4800365023
-0.2129833354 1.2562902857 0.4427871332 -0.4352516438 0.0017127569 0.4819450831
-0.0400217017 0.8306246281 -0.2673577493 -0.4353033675 -0.0000387573 0.4799957940
-0.1283566659 1.1910005110 0.4372163299 -0.4352539363 0.0017155501 0.4819454399
0.2438102995 0.9880900174 0.4222280646 -0.4353412980 0.0015171556 0.4818831708
-0.3462236025 0.8498085617 -0.3118204155 -0.4352929583 0.0037948008 0.4799507540
-0.2656984503 1.5005607493 0.4636293318 -0.4352008946 0.0016946761 0.4819414516
0.2052887517 1.5431187789 0.4672605627 -0.4352425199 0.0017223355 0.4819457910
0.1266297071 0.8307565886 0.3122715622 -0.4352223250 -0.0000257199 0.4801628937
-0.2482845875 0.8498085617 -0.0958322018 -0.4353052744 0.0037956871 0.4799905472
0.1422427049 0.8306246281 0.0564090667 -0.4352557818 -0.0000371785 0.4800729422
0.0944712091 0.9581143020 0.4208655314 -0.4353155628 0.0021937672 0.4818893634
-0.0217344961 1.6332146537 0.4749479121 -0.4352046969 0.0017033012 0.4819424971
0.2313426150 0.9078098690 0.4060219494 -0.4353125605 0.0036395375 0.4793026919
0.0759087275 0.8560844379 0.3866579247 -0.4353132300 0.0025380210 0.4782652229
-0.0050070402 0.8498085617 -0.0201132715 -0.4353095927 0.0037966559 0.4800241344
-0.1726720628 1.5281411664 0.4659825981 -0.4352065520 0.0016993320 0.4819421384
-0.0356595629 0.9504332353 0.4394855226 -0.4352727903 0.0025536597 0.4782575972
0.0630766615 0.7956699759 -0.0320919325 -0.4347203601 0.0001471235 0.4805820243
0.3389681832 0.8498085617 -0.0333061489 -0.4352616540 0.0037953149 0.4800725739
-0.0622212729 0.8306246281 -0.3710951293 -0.4352918783 -0.0000389146 0.4799859258
0.0143342899 0.8498085617 -0.2963723957 -0.4352938389 0.0037959787 0.4799868313
0.0053159438 1.6634904691 0.4777605530 -0.4352731778 0.0016154637 0.4819327344
-0.4605763239 0.4608086135 -0.4152454580 -0.4353279613 0.0017575572 0.4819358882
-0.2651631475 0.8553562599 0.3432058738 -0.4353604647 0.0037058468 0.4800072756
