0.2838555850 0.4941176006 -0.2602191461 -0.4999709176 0.0117459871 0.7294687490
0.0549564066 0.4705881910 -0.2866611907 -0.5005108117 -0.0117393048 0.7290945843
0.4282636773 0.4941176006 -0.1661577902 -0.4996273765 0.0117506107 0.7294780784
0.0464248545 0.4705881910 -0.3228783755 -0.5005106941 -0.0117407754 0.7291190431
0.2558219642 0.7707639039 -0.7294116078 -0.4998561765 0.0000885412 0.7176625736
-0.0730142872 0.4705881910 -0.2238641025 -0.5007844940 -0.0117287165 0.7290329608
0.4330334887 0.4705881910 -0.1966846109 -0.4998274588 -0.0117556930 0.7290818196
0.1328054346 0.4705881910 -0.6426268983 -0.5000274706 -0.0117644577 0.7294381490
0.0059759641 0.6243563295 -0.7058821983 -0.5004757764 0.0001090470 0.7411607361
0.2381299894 0.7716525980 -0.7058821983 -0.4999056706 0.0000867882 0.7411585244
0.1397070339 0.6309048700 -0.7294116078 -0.5001250706 0.0000614000 0.7176606442
0.0658799938 0.8403389562 -0.7058821983 -0.5003162117 0.0001072353 0.7411603361
0.3593805779 0.4941176006 -0.6727946837 -0.4994395177 0.0116725636 0.7297399372
0.4799985078 0.1304506348 -0.6966064697 -0.4923816360 -0.0001604117 0.7379878305
0.4411763820 0.6837211004 -0.7279319491 -0.4994282001 0.0000358235 0.7191393029
-0.0250331153 0.8484300613 -0.7269347492 -0.5006131058 0.0000877059 0.7201374322
0.0259298446 0.4705881910 -0.4528993986 -0.5004908588 -0.0117466577 0.7292082314
0.3987292213 0.4941176006 -0.1585432027 -0.4996658236 0.0117506577 0.7295045137
0.1552102795 0.4941176006 -0.3983069566 -0.5003412823 0.0117398577 0.7294031019
0.0848630861 0.5103598578 -0.7058821983 -0.5000000000 0.0000000000 0.7411764891
0.4418020878 0.4941176006 -0.2000639753 -0.4995478706 0.0117540930 0.7294647843
0.0213743274 0.4941176006 -0.4870129365 -0.5006614941 0.0117355165 0.7293928431
-0.0935384853 0.4705881910 -0.1537665796 -0.5008556705 -0.0117237754 0.7289806314
-0.0766162163 0.4167799608 -0.0823528452 -0.5008069764 -0.0022268233 0.7182137148
0.3705194004 0.4941176006 -0.3966896156 -0.4997361294 0.0117585871 0.7294513490
-0.0336572557 0.7754989741 -0.7257482435 -0.5005840235 0.0001037765 0.7213215851
0.3057099477 0.4588234862 -0.1189087712 -0.4997900824 -0.0116256342 0.7288475726
0.1593184791 0.8867090577 -0.7294116078 -0.5001186588 0.0000991294 0.7176649619
0.2614388107 0.9294777360 -0.7058821983 -0.4997841059 0.0001541412 0.7411531126
0.0209851392 0.4941176006 -0.3234595519 -0.5004683529 0.0117415754 0.7295657607
0.1840562062 0.4941176006 -0.6927978819 -0.4998336824 0.0101458108 0.7335287957
0.4826693310 0.0345083144 -0.0776736927 -0.5116150342 -0.0018705763 0.7294117843
0.3713004709 0.4705881910 -0.6813273065 -0.4989110942 -0.0117053518 0.7294117843
0.1675645136 0.4941176006 -0.6674812136 -0.5000453412 0.0117644695 0.7294158078
-0.0334501380 0.6996936400 -0.7294116078 -0.5005540352 0.0000164588 0.7176610913
0.1239792236 0.7249794259 -0.7058821983 -0.5001935059 0.0000609765 0.7411631361
0.2142944151 0.8690094947 -0.7294116078 -0.4999533765 0.0001185529 0.7176648442
0.3934388218 0.6535515620 -0.7294116078 -0.4995429177 0.0000288000 0.7176609619
0.1287155055 0.6519953386 -0.7294116078 -0.5001675529 0.0000829412 0.7176610442
-0.0411765138 0.6738152307 -0.7215520791 -0.5005513999 0.0000766118 0.7255122788
0.0468394074 0.8827172699 -0.7058821983 -0.5004765647 0.0000763294 0.7411581597
0.4720242615 0.2168113561 -0.6841142827 -0.4883555776 0.0016715998 0.7294117843
-0.0404310785 0.6233518590 -0.7294116078 -0.5005281647 0.0000556588 0.7176603148
0.0526464539 0.4265510657 -0.0941175500 -0.5001660706 -0.0063909053 0.7210786792
0.3531988844 0.4941176006 -0.5806079983 -0.4998944941 0.0117628812 0.7294426431
0.1476661508 0.4941176006 -0.1954865287 -0.5001131294 0.0117473165 0.7296219490
0.4463877933 0.4705881910 -0.2055736571 -0.4997737177 -0.0117571048 0.7291019726
0.4539811926 0.2261300493 -0.6929390701 -0.5000000000 0.0016805881 0.7177697972
0.4091562674 0.4705881910 -0.2261497728 -0.4997910118 -0.0117574577 0.7291150902
0.2126284153 0.6811911477 -0.7058821983 -0.4999472706 0.0000089529 0.7411605361
0.3613363072 0.8226170402 -0.7294116078 -0.4995452353 0.0000744353 0.7176635619
-0.0999695671 0.1763163952 -0.1107910072 -0.5034494350 -0.0010926234 0.7191631147
0.1621822436 0.4588234862 -0.4292578831 -0.5000000000 -0.0117647048 0.7294117843
0.3032772420 0.4941176006 -0.3231826461 -0.5000142941 0.0117438107 0.7293901608
0.2842511497 0.4705881910 -0.1738548601 -0.5001228470 -0.0117460930 0.7290456667
0.4165616196 0.4705881910 -0.1460315333 -0.4998820353 -0.0117520342 0.7290437843
-0.0201038569 0.4328372769 -0.6315181347 -0.4917732361 -0.0072941640 0.7309532430
0.1640319257 0.4705881910 -0.2830423439 -0.5003035059 -0.0117452342 0.7291067020
0.2965049486 0.6775835127 -0.7058821983 -0.4997361883 0.0000052588 0.7411601361
0.4131839611 0.4705881910 -0.2770998504 -0.4998109412 -0.0117583048 0.7291591725
0.0274210680 0.9817649311 -0.7294116078 -0.5005239176 0.0001365176 0.7176629501
0.0619292648 0.4941176006 -0.6406014279 -0.5000486588 0.0117637401 0.7294173843
0.2563926465 0.7862698907 -0.7294116078 -0.4998475412 0.0001111059 0.7176630913
0.2137599446 0.4705881910 -0.6577847910 -0.4999567059 -0.0117641989 0.7294242431
0.4422610172 0.4588234862 -0.1132832187 -0.4995087059 -0.0117488342 0.7294117843
0.0435066665 0.9435436524 -0.7058821983 -0.5005307058 0.0001794470 0.7411535126
0.3631240952 0.4700290499 -0.5690063876 -0.4917601890 0.0012471646 0.7374869600
0.2219180615 0.4358061002 -0.0941175500 -0.5000000000 0.0000000000 0.7176470795
0.2847099026 0.4705881910 -0.4438737406 -0.4999098588 -0.0117611165 0.7292863961
0.0605537825 0.4941176006 -0.3365714330 -0.5004202941 0.0117414107 0.7295272666
0.0818864629 0.4941176006 -0.4762108787 -0.5005514352 0.0117363989 0.7293665372
0.3181690171 0.7196431087 -0.7058821042 -0.4997374706 0.0000686471 0.7411642185
0.0662070291 0.4941176006 -0.3792232408 -0.5004617294 0.0117398695 0.7294787137
0.2920608666 1.0171702572 -0.7294116078 -0.4995972471 0.0002255882 0.7176781148
0.2536494702 0.8838512698 -0.7058821983 -0.4998678824 0.0000754353 0.7411611361
0.1485405272 0.9895350716 -0.7294116078 -0.5003120941 0.0000765882 0.7176568207
0.4418093467 0.4396289586 -0.0941175500 -0.5000000000 0.0000000000 0.7176470795
0.3300863101 0.7489200119 -0.7058821983 -0.4996114118 0.0001100706 0.7411597714
0.1174059537 0.4705881910 -0.3383149740 -0.5003677058 -0.0117456107 0.7291395137
0.2156631679 0.4941176006 -0.5667334584 -0.4999323765 0.0117622930 0.7294323961
0.2510034587 0.7072521217 -0.7058821983 -0.4999270588 0.0000349294 0.7411627597
0.1737914425 0.4705882381 -0.5079789581 -0.4999625294 -0.0117621989 0.7293278784
0.2729208684 0.4941176006 -0.2257475729 -0.4999476588 0.0117471871 0.7295119490
-0.0619597471 0.4705881910 -0.2147031739 -0.5007674823 -0.0117288460 0.7290279726
0.2797596796 0.4941176006 -0.4612883154 -0.4998221412 0.0117599283 0.7294416431
0.0971325438 0.7282839315 -0.7294116078 -0.5002473176 0.0000553412 0.7176615266
0.2433273065 0.4705881910 -0.0874772800 -0.4996539412 0.0111172578 0.7317863017
-0.0745355930 0.3037618655 -0.6765366716 -0.5116206930 0.0018350234 0.7294117843
0.3238912401 0.4705881910 -0.3834613227 -0.4998757765 -0.0117601048 0.7292394196
0.0965492615 0.5359760437 -0.7294116078 -0.5004064705 0.0000000000 0.7177277501
0.3668831419 0.6914349114 -0.7294116078 -0.4996011412 0.0000459059 0.7176613619
0.0437425018 0.7149879680 -0.7294116078 -0.5003722235 0.0000287529 0.7176612913
0.4799676254 0.0687718994 -0.0816803864 -0.5000000000 0.0015694234 0.7410705714
0.0274492562 0.6207214710 -0.7294116078 -0.5003876000 0.0000580941 0.7176599148
0.4546480984 0.4841136721 -0.3788472408 -0.4948360358 0.0043504231 0.7286053373
0.2150525445 0.4705881910 -0.6959252110 -0.4998118588 -0.0117520577 0.7294117843
0.1645810080 0.6569654441 -0.7058822924 -0.5000612588 0.0000593412 0.7411642302
0.2778803386 0.7334122839 -0.7294116078 -0.4998039883 0.0000761765 0.7176618089
0.1950099934 0.4941176006 -0.6625678847 -0.5000257765 0.0117644577 0.7294221843
0.3471950850 0.4941176006 -0.3314037276 -0.4996904824 0.0117569989 0.7294521137
0.2113504978 0.8492309671 -0.7294116078 -0.4999666941 0.0000869412 0.7176640560
0.2989966189 0.4941176006 -0.2789031679 -0.4999687177 0.0117454224 0.7294395843
0.3987543507 0.4823528958 -0.1277752056 -0.4997227647 0.0070322817 0.7375951953
0.1741485366 0.4941176006 -0.4241872013 -0.5003415059 0.0117390460 0.7293639843
0.3668425655 0.8130862176 -0.7058821983 -0.4995337059 0.0000902353 0.7411602655
0.3818683523 0.5786843102 -0.7294116078 -0.4995968000 -0.0001591765 0.7176715854
0.1408101515 0.4941176006 -0.6126379012 -0.4999972118 0.0117632224 0.7294246902
0.1670664902 1.0435996430 -0.7294116078 -0.5003017647 0.0014158234 0.7177813854
0.2175762619 0.4941176006 -0.6791464714 -0.4998398824 0.0117607048 0.7294117843
0.0176002925 0.9499451577 -0.7294116078 -0.5005883647 0.0001880706 0.7176674207
0.1093446956 0.4705881910 -0.4176289783 -0.5003471058 -0.0117494342 0.7291945137
0.0930296854 0.7593686462 -0.7058821983 -0.5002214941 0.0001009765 0.7411612302
0.1161152008 0.4823528958 -0.1210408768 -0.5001015529 0.0113984225 0.7309286900
0.2271055080 0.4705882381 -0.4269534481 -0.4999166353 -0.0117608342 0.7292649725
-0.0157656926 0.8854445520 -0.7058821983 -0.5006539529 0.0000801647 0.7411576185
0.4865180483 0.4869310718 -0.2035622808 -0.4980984119 0.0055120701 0.7291293255
0.2114918624 0.4705881910 -0.1962972109 -0.5002520235 -0.0117432224 0.7290517490
0.0160214573 0.9189796900 -0.7294116078 -0.5005445058 0.0000646118 0.7176651383
0.0909242385 0.4941176006 -0.4945449358 -0.5005586235 0.0117357871 0.7293415490
0.0952017322 0.5960188380 -0.7058821983 -0.5004123882 0.0000379294 0.7411568420
0.2978865837 0.4705881910 -0.2402677480 -0.5000665412 -0.0117504577 0.7290944549
0.1832280533 0.4941176006 -0.3561014194 -0.5002462470 0.0117416460 0.7294302078
0.3786263879 0.4941176006 -0.4843558426 -0.4998057412 0.0117606695 0.7294484784
-0.0027000939 0.4941176006 -0.4630551035 -0.5006717999 0.0117362224 0.7294331372
0.1473693273 1.0127187282 -0.7058821983 -0.4999570118 0.0002103294 0.7411512420
0.4129766200 0.7439821300 -0.7058821983 -0.4994197295 0.0001053294 0.7411594067
0.1602837379 0.4941176006 -0.1985683519 -0.5000964941 0.0117473048 0.7296108313
0.4300363007 0.5962665674 -0.7058821983 -0.4996105765 0.0000591059 0.7411679832
0.2048436984 0.5295929384 -0.7294116078 -0.4999255059 0.0000000000 0.7177564795
0.0058823053 0.5090274109 -0.7198462322 -0.5015724704 -0.0022037292 0.7240677966
0.2877754788 1.0421967372 -0.7294116078 -0.4997194471 0.0012776116 0.7177735030
0.4418690408 0.4705881910 -0.2534513350 -0.4997944235 -0.0117579048 0.7291423961
-0.0147270221 0.5969176262 -0.7294117019 -0.5006610470 0.0000205882 0.7176702677
0.0201905628 0.4705881910 -0.5927221266 -0.5004383176 -0.0117538812 0.7293063255
0.4409668879 0.5960519086 -0.7294115137 -0.4995750589 0.0000828118 0.7176560089
0.4174455607 0.4354955355 -0.1664520137 -0.4917968831 0.0075122816 0.7327512899
0.3481900496 0.4803714489 -0.7176469030 -0.4995600236 -0.0081928698 0.7211432910
-0.0777108986 0.4823528958 -0.0991783495 -0.5004400941 0.0083447992 0.7351074543
0.0646220880 0.9734841672 -0.7058821983 -0.5004211764 0.0001150000 0.7411592185
0.1499868329 0.4941176006 -0.6958738698 -0.5000000000 0.0112503048 0.7306536665
0.0791336867 0.4823528958 -0.0956461263 -0.5001980941 0.0077390699 0.7369154542
0.2063540041 0.4705881910 -0.2749003447 -0.5002261412 -0.0117471754 0.7291066314
-0.0137021634 0.4857823543 -0.1294116643 -0.5002886117 0.0100325049 0.7341087956
-0.0067708229 0.5693220170 -0.7294117019 -0.5004141764 -0.0001381647 0.7176618207
0.4141150081 0.6372201636 -0.7058821042 -0.4995170353 0.0000756823 0.7411636185
0.4008521623 0.5788871690 -0.7058821983 -0.4996646236 -0.0001402941 0.7411627949
0.4643704622 0.4698002146 -0.0823528452 -0.5000150235 0.0003982706 0.7410470891
0.4027043150 0.4288919361 -0.1583036380 -0.5000000000 0.0083189051 0.7377306894
0.0456249369 0.9453411346 -0.7294116078 -0.5004948352 0.0001701882 0.7176671266
0.1290588702 0.8428698501 -0.7294116078 -0.5001851647 0.0000730823 0.7176636913
0.2334620016 1.0208012216 -0.7058821983 -0.4996214353 0.0003084823 0.7411425597
0.3038683008 1.0637641352 -0.7058821983 -0.4992384471 0.0033731997 0.7406355715
0.3391516387 0.9179613960 -0.7058821983 -0.4994846000 0.0001300706 0.7411546185
0.4143339257 0.4705881910 -0.3828312287 -0.4998540000 -0.0117600812 0.7292497725
-0.0574041946 0.4823528958 -0.1229580061 -0.5003502706 0.0111964342 0.7317855252
0.3334376745 0.4941176006 -0.6864390942 -0.5000000000 0.0117647048 0.7294117843
0.3194646641 0.4941175535 -0.3091884591 -0.4999716941 0.0117444577 0.7293948549
0.4201758075 0.4327652887 -0.1550263207 -0.4919013066 0.0074318817 0.7270282316
0.1698084428 0.4929854830 -0.7294116078 -0.4999368118 -0.0005054941 0.7177681736
0.0627450764 0.4235293719 -0.0870572212 -0.5004212117 -0.0088283756 0.7225304673
0.2762786093 0.4705881910 -0.4834512663 -0.4999280941 -0.0117617754 0.7293192431
0.4118379495 0.4941176006 -0.3402307503 -0.4996745883 0.0117573401 0.7294568431
0.1947604287 0.4705881910 -0.0901703739 -0.4998321294 0.0100531285 0.7337763486
0.1603582790 0.4705881910 -0.6137162540 -0.5000090588 -0.0117639754 0.7294167372
0.0365535024 0.4941176006 -0.4914594302 -0.5006423646 0.0117354695 0.7293786902
0.1721011720 0.4117646671 -0.0622113294 -0.5000000000 -0.0117647048 0.7294117843
0.1126302718 0.8345063215 -0.7294116078 -0.5002206588 0.0000586000 0.7176633501
0.2801226560 0.4941176006 -0.1516709093 -0.4998483177 0.0117499871 0.7295856784
-0.0240938918 0.4705881910 -0.2642446869 -0.5006724235 -0.0117336460 0.7290681020
0.4760884846 0.1736984425 -0.7013957516 -0.4998739882 0.0019685292 0.7178158677
0.4790521902 0.0683572642 -0.7183862324 -0.5000000000 0.0015399646 0.7177494324
0.3127074412 0.4705881910 -0.0873269388 -0.4995558353 0.0106035990 0.7322482899
0.0845641097 0.4941176006 -0.1591183674 -0.5001714706 0.0117481754 0.7296996549
0.2361570248 0.4437221818 -0.0941175500 -0.5000000000 0.0000000000 0.7176470795
0.2314867547 0.4705881910 -0.3805117936 -0.5001300000 -0.0117542930 0.7291847020
0.2302633195 0.7828333381 -0.7294115137 -0.4999178118 0.0001066235 0.7176629501
0.0670508407 0.4941176006 -0.5856403508 -0.5002207412 0.0117546695 0.7296952078
0.4584760745 0.4705881910 -0.2758323917 -0.4997996353 -0.0117582812 0.7291635373
0.1562021029 0.4941176006 -0.6634845787 -0.5000378000 0.0117644224 0.7294209961
0.0735499107 0.4941176006 -0.6945477052 -0.5004813058 0.0082771404 0.7355798072
0.1877270176 0.4941176006 -0.4936851477 -0.4998819647 0.0117605165 0.7294331255
0.3366438977 0.9736632378 -0.7294117019 -0.4999405294 0.0000578235 0.7176528207
0.0874673682 0.9156255374 -0.7058822924 -0.5002696823 0.0001178235 0.7411596773
0.2816891147 0.4941176006 -0.4861419248 -0.4998420118 0.0117605165 0.7294407961
0.3782652115 0.5319179264 -0.7294115137 -0.4987006119 -0.0002703529 0.7177399501
0.2493463177 0.4631065329 -0.4474088344 -0.4913960714 0.0000000000 0.7374355365
0.2207057557 0.6626721847 -0.7058821983 -0.4999136000 0.0000408823 0.7411629597
0.1096309779 0.4941176006 -0.2063298688 -0.5001871059 0.0117466224 0.7296341960
0.2580365522 1.0654791350 -0.7294116078 -0.4989847648 0.0053312466 0.7193188088
0.3356083684 1.0123606930 -0.7058821983 -0.4992485295 0.0003689647 0.7411352891
0.2731846684 0.4941176006 -0.6610744966 -0.5000024706 0.0117645165 0.7294241137
0.3058130771 0.9103317261 -0.7058821983 -0.4996136824 0.0001167882 0.7411566538
0.3770740351 0.8787858938 -0.7294117019 -0.4994744353 0.0001071059 0.7176651736
0.3928855513 0.4705881910 -0.5421439196 -0.4999243882 -0.0117627518 0.7293835019
0.2908852197 0.4941176006 -0.4943862417 -0.4998455294 0.0117607283 0.7294411961
-0.0183181277 0.7818964558 -0.7294116078 -0.5005621411 0.0001077882 0.7176626795
-0.0862291566 0.4823528958 -0.1224129944 -0.5003950941 0.0112538578 0.7315419488
-0.0141681398 0.7665780690 -0.7294116078 -0.5005322352 0.0000789765 0.7176621266
0.2768165269 0.4941176006 -0.3020368363 -0.5000317765 0.0117443871 0.7294289843
0.0277888091 0.4657234620 -0.2101415979 -0.4916810949 0.0000000000 0.7377306894
0.2789115620 0.6458580804 -0.7058821983 -0.4998170353 0.0000713176 0.7411641832
0.3950460099 0.4941176006 -0.6493654389 -0.4947791534 0.0086944227 0.7274781962
0.0339491380 0.5598976061 -0.7058821983 -0.5003882823 -0.0004305176 0.7411541361
0.3051294772 0.4941176006 -0.6008767846 -0.4999285177 0.0117632695 0.7294380666
0.4642876151 0.4642155798 -0.1294116643 -0.4997901647 -0.0107799284 0.7260863023
0.1192375064 0.4978277296 -0.7294116078 -0.5000000000 0.0000000000 0.7176470795
0.4155650432 0.4335432180 -0.6235292648 -0.4959118592 -0.0040881408 0.7393389128
0.3369070742 0.4705881439 -0.3393870328 -0.4998546235 -0.0117593636 0.7292032784
-0.0991484613 0.1889527587 -0.1027103962 -0.5116568342 0.0015875293 0.7294117843
0.4241667836 0.4705881910 -0.5358012849 -0.4926395183 -0.0071486582 0.7280397962
0.1068553546 0.4941176006 -0.2824594617 -0.5002817647 0.0117437754 0.7295555490
0.4878732129 0.4705881910 -0.1843450003 -0.4995974824 -0.0116567518 0.7290597137
0.4427726289 0.3180929230 -0.6545768619 -0.5043527996 -0.0023918233 0.7394200775
0.0076312816 0.4705881910 -0.4317607770 -0.5005355294 -0.0117444812 0.7291908196
0.3334083216 0.4705881439 -0.2064075982 -0.5000138824 -0.0117506224 0.7290752902
0.3138219587 0.4705881910 -0.2507860764 -0.5000312353 -0.0117519165 0.7291040431
0.1405690221 0.4941176006 -0.6358129460 -0.5000164706 0.0117637754 0.7294237490
0.1512554211 0.4705881910 -0.7069335276 -0.5005859999 -0.0115590577 0.7289503843
0.3206424639 0.7571072934 -0.7294116078 -0.4996847765 0.0000655882 0.7176621619
0.0857732743 0.7100316391 -0.7294116078 -0.5002709412 0.0000323412 0.7176612913
-0.0139034928 0.4941176006 -0.3108774237 -0.5005095294 0.0117417754 0.7296007843
0.4577418628 0.2891792904 -0.6827698004 -0.4998654235 0.0019587763 0.7178145501
0.2885127493 0.5290924443 -0.7058821042 -0.4996952471 0.0000473529 0.7411502891
0.3653631891 0.6592871968 -0.7294116078 -0.4996082824 0.0000285647 0.7176610089
0.0914372973 0.4705881910 -0.6734091660 -0.5005639411 -0.0117111401 0.7294117843
0.3437316971 0.4957998357 -0.7058821983 -0.5000000000 0.0071293758 0.7382234070
0.0976344732 0.9940293182 -0.7058821042 -0.5001763294 0.0001070823 0.7411589949
0.1314619053 0.4941176006 -0.1500926153 -0.5000854000 0.0117488695 0.7296799725
0.3651946245 0.4941176006 -0.3839415227 -0.4997274824 0.0117582695 0.7294514313
0.0007516705 0.4746578494 -0.0941175500 -0.5003254941 0.0077290816 0.7374533482
0.4038490796 0.9291406067 -0.7058821983 -0.4993205648 0.0001140941 0.7411557244
0.3528815903 0.7093600391 -0.7294116078 -0.4996331530 0.0000898118 0.7176616795
0.2588041639 1.0072986346 -0.7294116078 -0.4995462589 0.0002378000 0.7176922442
0.1441795158 1.0250631859 -0.7058822924 -0.5000023529 0.0003467647 0.7411469008
0.1500289271 0.4705881910 -0.1520538151 -0.5003898706 -0.0117373754 0.7290121961
0.1998652988 0.4705881910 -0.5669251761 -0.4999804824 -0.0117631871 0.7293814549
0.3866041401 0.4705881910 -0.3508052787 -0.4998474706 -0.0117595401 0.7292190314
0.1744778189 0.9697594146 -0.7294116078 -0.5001147059 0.0001442470 0.7176619619
0.0221030685 0.4941176006 -0.3093318003 -0.5004498235 0.0117421165 0.7295799843
0.3723452473 0.4790922255 -0.0941175500 -0.4997026706 0.0079570816 0.7372209600
-0.0209599627 0.6972280403 -0.7294116078 -0.5005241294 0.0000210000 0.7176610913
0.3893561045 0.4941176006 -0.5233698625 -0.4998341647 0.0117616107 0.7294477725
0.1786976773 0.8817640464 -0.7058821983 -0.5000922235 0.0000738235 0.7411598655
0.0380782552 0.4235293719 -0.0937832088 -0.5004005647 -0.0093605168 0.7230268320
0.2092788509 0.8217490874 -0.7294116078 -0.4999664235 0.0000730706 0.7176633501
0.2545112349 0.4705881910 -0.1467667450 -0.5001921176 -0.0117429636 0.7290225137
0.3051694183 0.7556170465 -0.7058821983 -0.4996726589 0.0001115412 0.7411590655
0.2839640203 0.4705881910 -0.5588219533 -0.4999571529 -0.0117630460 0.7293846549
0.3625148129 0.4705881910 -0.3787429467 -0.4998646588 -0.0117600107 0.7292400314
0.0410965373 0.8131082058 -0.7058821983 -0.5004183294 0.0000863647 0.7411613244
0.2761769152 0.4705881910 -0.5228496273 -0.4999442588 -0.0117624342 0.7293529372
-0.0340977380 0.5917491561 -0.7058821983 -0.5007522470 0.0000127647 0.7411499597
-0.0495416542 0.4941176006 -0.3110544237 -0.5005670235 0.0117414812 0.7296228078
0.0776875574 0.6785955361 -0.7294116078 -0.5002880470 0.0000544118 0.7176611619
-0.0289876561 0.4474829344 -0.6129380541 -0.5104432225 0.0053715642 0.7294117843
-0.0435390194 0.4051062678 -0.1580473792 -0.5000000000 -0.0065884347 0.7198456322
0.4282229244 0.5543457361 -0.7294116078 -0.4990113530 -0.0013238352 0.7177742795
0.3360760037 0.6585002910 -0.7058821983 -0.4996496353 0.0000376235 0.7411621244
-0.0389393963 0.4941176006 -0.2079719863 -0.5004278588 0.0117453871 0.7297250313
0.1885500058 0.4705881910 -0.3178638818 -0.5002407176 -0.0117485048 0.7291346196
0.0000160588 0.4363368295 -0.0705881404 -0.5000957059 0.0000000000 0.7411755244
0.4464481109 0.4941176006 -0.3096238709 -0.4996368471 0.0117566812 0.7294607843
0.0761440399 0.4705881910 -0.4560376806 -0.5003932470 -0.0117496460 0.7292172078
0.3791395408 0.4574088158 -0.1796838949 -0.5066320817 -0.0021286116 0.7379236188
0.1961557462 0.8221540638 -0.7058821983 -0.4999762000 0.0000986118 0.7411614302
0.2346378720 0.4941176006 -0.6035350432 -0.4999560118 0.0117631989 0.7294324196
0.1085482721 0.5460571721 -0.7294116078 -0.4996020118 0.0000000000 0.7176783736
0.3934708571 0.4470587815 -0.1050000313 -0.4993397059 -0.0085550345 0.7217385732
0.2152545915 0.4941176006 -0.6592046733 -0.5000120235 0.0117644460 0.7294265372
0.0934533441 0.8139571352 -0.7058821983 -0.5002783764 0.0000867882 0.7411620302
-0.0323391146 0.4705881910 -0.3769955469 -0.5006369764 -0.0117392812 0.7291467137
0.3621217659 0.4941176006 -0.2799974031 -0.4996477765 0.0117556342 0.7294618313
-0.0660996761 0.2831233263 -0.6724583661 -0.4883818011 -0.0018508116 0.7294117843
0.0690110053 0.4705881910 -0.3857596519 -0.5004388470 -0.0117454460 0.7291665490
0.1852325237 0.4705881910 -0.6455958981 -0.5000162118 -0.0117645048 0.7294470078
0.1069784605 0.4941176006 -0.2578158875 -0.5002523647 0.0117446930 0.7295814902
-0.1014316728 0.4384175470 -0.0705881404 -0.5001457176 0.0000000000 0.7411755244
0.3839176933 0.4544158043 -0.0705881404 -0.4997477883 0.0032882232 0.7403955362
0.1008910964 0.4705881910 -0.1883937058 -0.5004674823 -0.0117365754 0.7290312784
-0.0079173875 0.4705881910 -0.3434395030 -0.5006054470 -0.0117388342 0.7291262784
0.4733214378 0.1924890172 -0.6866002118 -0.4947499770 -0.0006743411 0.7389375481
-0.0419741490 0.4120617142 -0.0588234356 -0.5003501882 0.0001327529 0.7411365008
0.2605166461 0.4941175535 -0.3114656942 -0.5000691412 0.0117439048 0.7294291843
0.4510928870 0.2419836360 -0.6903819644 -0.5000000000 0.0017005410 0.7177725383
0.1332826345 0.4941175535 -0.6764372246 -0.4998245530 0.0115518460 0.7302816077
0.0658618644 0.4705881910 -0.6967481991 -0.5002739294 -0.0117578577 0.7294117843
0.3664957420 0.9853518249 -0.7294116078 -0.4985978237 0.0003805411 0.7177569972
0.0949571793 0.4571042746 -0.1058822547 -0.5000700823 -0.0012146705 0.7181516442
0.1211717415 0.4941176006 -0.4781049374 -0.5004905294 0.0117366342 0.7293400667
0.1095334956 0.4588234862 -0.0737231872 -0.5001387765 0.0100162579 0.7351712896
0.2679534218 0.5721850167 -0.7294116078 -0.4997787177 -0.0001784588 0.7176659148
0.0111101401 0.4941176006 -0.2704454040 -0.5004214235 0.0117434695 0.7296278902
0.1296657172 0.5318797735 -0.7294116078 -0.5004086941 0.0000000000 0.7177469854
-0.0006585999 0.4705881910 -0.6015733022 -0.5004742235 -0.0117531871 0.7293097843
-0.0411765138 0.7444930358 -0.7130852447 -0.5005636823 0.0000706588 0.7339684309
0.1308529406 0.7086514862 -0.7058821983 -0.5002120588 0.0000249882 0.7411616420
0.1799748889 0.4613712507 -0.0823528452 -0.5000797412 0.0054897524 0.7388315011
0.3599540367 0.4705881910 -0.4091142144 -0.4998777059 -0.0117605283 0.7292657137
0.0284024797 0.4588234862 -0.1127593012 -0.5004049647 -0.0117467871 0.7294117843
0.4144891257 0.6984442166 -0.7058821983 -0.4995160942 0.0000385882 0.7411632773
0.3201961816 0.4871003071 -0.1294116643 -0.4998332824 0.0078774816 0.7358209013
0.2312614606 0.4705881910 -0.5927855030 -0.4999836118 -0.0117636107 0.7294073608
0.4419022525 0.5927073207 -0.7058821983 -0.4995964236 0.0000532000 0.7411685244
0.0599152414 0.8085382063 -0.7294117019 -0.5003693882 0.0000902588 0.7176630913
0.4407037232 0.4906030950 -0.4555406101 -0.4942648947 0.0075582934 0.7287152549
0.3291210514 0.5969227791 -0.7294116078 -0.4998241883 0.0000827765 0.7176560678
0.1711476310 0.6117692248 -0.7058821983 -0.5001436235 0.0000884000 0.7411636420
0.1225926473 0.4941176006 -0.1919407408 -0.5001492235 0.0117472577 0.7296413137
0.0550449948 1.0539929479 -0.7219696320 -0.5009565058 0.0023198586 0.7251379023
0.0876344506 0.4941176006 -0.6285666408 -0.5000294706 0.0117635048 0.7294198784
-0.0962737556 0.4470587815 -0.0947513264 -0.5006411882 -0.0115605989 0.7289640196
0.1120379189 0.8104959943 -0.7294116078 -0.5002329882 0.0000865765 0.7176631501
0.3352372273 0.9766404963 -0.7058821983 -0.4993482942 0.0002327176 0.7411444655
0.4294116772 0.3689874006 -0.6592494615 -0.5114552813 -0.0025091762 0.7294117843
0.1954660993 0.7282605079 -0.7058821983 -0.5000151059 0.0000761412 0.7411641949
0.2362500601 0.8147697116 -0.7294116078 -0.4998989294 0.0000806000 0.7176633266
0.1491026801 0.4823528958 -0.1072911840 -0.5000644823 0.0117583518 0.7294117843
0.0942451323 0.4705881910 -0.7047760219 -0.5004409176 -0.0117474342 0.7294117843
0.1392161045 0.4705881910 -0.3467662674 -0.5003220823 -0.0117472930 0.7291484196
0.4466954874 0.3304874748 -0.6561749912 -0.4893598716 0.0012608822 0.7319280076
-0.0984633907 0.4941176006 -0.1420871337 -0.5004454705 0.0117473636 0.7298316784
0.3933346924 0.4941176006 -0.1946316699 -0.4997172471 0.0117492812 0.7294697725
0.1575530793 0.4941176006 -0.4647174210 -0.5004162000 0.0117374224 0.7293315255
0.0739105577 0.4941176006 -0.5136256046 -0.5006085764 0.0117349518 0.7293320078
0.4023215857 0.4371165589 -0.0705881404 -0.4998973412 0.0000000000 0.7411755244
0.0836083686 0.4705881910 -0.6001971376 -0.5000217882 -0.0117637518 0.7293959255
-0.1055794136 0.4823528958 -0.0958577733 -0.5005600823 0.0062695994 0.7383128893
0.0533219715 0.4705881910 -0.3530665374 -0.5004837647 -0.0117427989 0.7291413255
0.2211390145 0.5065022112 -0.7058821983 -0.5000000000 0.0000000000 0.7411764891
0.3657230244 0.4705881910 -0.7048202807 -0.4996481059 -0.0117581754 0.7294117843
-0.0857153919 0.4715232380 -0.2567640170 -0.5008110117 -0.0107964813 0.7290505255
0.2362449425 0.9501074400 -0.7294116078 -0.4999509529 0.0001647647 0.7176636560
0.3443639558 0.6274440821 -0.7294116078 -0.4996582589 0.0000561294 0.7176607383
0.2136775564 0.4610661213 -0.3804398995 -0.4915889067 -0.0000340588 0.7211869145
0.3509535905 0.5567121123 -0.7058821983 -0.4996887177 -0.0006082235 0.7411462538
0.3941604688 0.7959953016 -0.7058821042 -0.4995177295 0.0000657412 0.7411626302
0.1635182317 0.4941176006 -0.6884181529 -0.4998066235 0.0106690461 0.7325145605
0.2710987039 0.9294408537 -0.7294115137 -0.4997760118 0.0001102000 0.7176662795
0.3015481481 0.4941176006 -0.2042909278 -0.4998762235 0.0117481989 0.7295167725
0.4754625200 0.0768190516 -0.7048742219 -0.5083189051 0.0000000000 0.7210928792
0.4860619895 0.1080187075 -0.7073026099 -0.4883384011 0.0015524116 0.7294117843
0.3273527339 0.4941176006 -0.6292511349 -0.4999440118 0.0117639754 0.7294386784
0.0353437496 0.9333768063 -0.7058821983 -0.5005039411 0.0001556470 0.7411562538
0.2338263309 0.4705881910 -0.5688878112 -0.4999732000 -0.0117632107 0.7293872314
0.2323772370 0.4941176006 -0.5511986599 -0.4999135294 0.0117619636 0.7294343372
-0.0155610456 0.9239051366 -0.7100014449 -0.5006014352 0.0001320588 0.7370482777
0.3011012540 0.9092944909 -0.7294116078 -0.4996740000 0.0000730353 0.7176654089
0.0040919996 0.7370918953 -0.7058821983 -0.5004548823 0.0000751529 0.7411630538
-0.0026855056 0.4823528958 -0.1111630542 -0.5002762706 0.0117574695 0.7294117843
0.2703616098 0.7155965209 -0.7058821983 -0.4998627530 0.0000558235 0.7411637597
0.0532156068 0.4705881910 -0.3989297801 -0.5004631176 -0.0117452695 0.7291737373
0.0858366507 0.5828086275 -0.7294116078 -0.5003971647 -0.0000168941 0.7176664560
0.3536440726 0.4941176006 -0.5403968727 -0.4998610706 0.0117619401 0.7294442902
0.4730653672 0.1669939019 -0.6891898940 -0.4912116949 0.0002350470 0.7366117366
0.3626681188 0.8495452024 -0.7058821983 -0.4995170706 0.0000984235 0.7411575361
0.3521926021 0.4705881910 -0.2845171556 -0.4998284941 -0.0117584342 0.7291581725
-0.0286225738 0.7594291403 -0.7294116078 -0.5005591764 0.0000653176 0.7176618560
0.4029971032 0.4941176476 -0.3037955538 -0.4996476118 0.0117564577 0.7294576078
0.0827963804 0.4705881910 -0.1836574592 -0.5005042941 -0.0117353048 0.7290254902
0.3863088342 0.5411764197 -0.7284442903 -0.4995310353 -0.0045273408 0.7201209146
-0.0152251280 0.4705881910 -0.4796606196 -0.5005575411 -0.0117457871 0.7292216196
0.1230303884 0.4941176006 -0.6578730263 -0.5000410235 0.0117642577 0.7294214902
0.1296040113 0.4629494623 -0.3187590347 -0.4913916596 0.0000000000 0.7374307953
0.1612052789 0.7776178915 -0.7294115137 -0.5001017412 0.0001003882 0.7176627148
-0.0026133880 0.4537591808 -0.2032688691 -0.5056867524 -0.0018873645 0.7199256440
0.0677196642 0.4941176006 -0.4683718089 -0.5005649176 0.0117365754 0.7293836431
0.4268705481 0.5916116502 -0.7294115137 -0.4996294824 0.0000880235 0.7176552325
-0.0174626101 0.4941176006 -0.5683939642 -0.5008203293 0.0117321989 0.7293311137
0.2559760818 0.6496012800 -0.7294116078 -0.4998689177 0.0000625529 0.7176609972
0.3076584887 0.9405393703 -0.7294116078 -0.4997091647 0.0001331176 0.7176638560
0.3959461039 0.4705881910 -0.5063681700 -0.4999090000 -0.0117621518 0.7293532549
0.1457169275 0.4676257913 -0.0823528452 -0.5000764118 0.0013243881 0.7408628538
0.2079036275 0.7394492833 -0.7294116078 -0.4999730706 0.0000693765 0.7176617854
0.1933755112 0.4941176006 -0.4076441675 -0.5002910000 0.0117398107 0.7293694666
0.3767002822 0.9219592897 -0.7294116078 -0.4994421883 0.0000797176 0.7176655266
0.0836067568 0.4941176006 -0.1461121333 -0.5001576000 0.0117486460 0.7297139843
0.1291696702 0.4856763543 -0.1294116643 -0.5000992588 0.0087934109 0.7353802073
0.3257914987 0.4705881439 -0.6942949405 -0.4994371295 -0.0117446342 0.7294117843
0.3663535655 0.4705882381 -0.2594634756 -0.4999266588 -0.0117553401 0.7291172431
0.4565610041 0.4705881910 -0.2887936493 -0.4998054118 -0.0117585048 0.7291743961
0.3325403687 0.4705881910 -0.1683418606 -0.5000328471 -0.0117485165 0.7290482667
0.1167243420 0.4705881910 -0.3236230931 -0.5000000000 0.0117647048 0.7294117843
0.2967159603 0.7087418745 -0.7058821042 -0.4998142941 0.0000432706 0.7411633832
0.4446957817 0.4588234862 -0.1283441820 -0.4998363294 -0.0106337519 0.7246285259
0.1150524245 1.0529010421 -0.7058821983 -0.5005176470 0.0025907998 0.7408436891
0.0534318773 0.4676147913 -0.0823528452 -0.5000766941 0.0013293058 0.7408616891
0.0066964111 0.6993437107 -0.7294116078 -0.5004589882 0.0000088824 0.7176610677
0.1261397764 0.4941176006 -0.4620979389 -0.5004635882 0.0117372695 0.7293538666
0.2131116270 0.4941176006 -0.1369669224 -0.4999386118 0.0117499989 0.7296429490
0.1658805726 0.4823528958 -0.1031355844 -0.4999812353 0.0114668342 0.7306384901
0.1756851482 0.4941176006 -0.1710087310 -0.5000390941 0.0117484460 0.7296303254
0.1590623144 0.7056071806 -0.7294115137 -0.5000952235 0.0000428353 0.7176613501
0.1291856467 0.4941176006 -0.6036093608 -0.4999939176 0.0117629989 0.7294241372
0.3599854485 0.6105866719 -0.7294116078 -0.4996850824 0.0000668471 0.7176584442
0.1120615659 0.4705881910 -0.4349776826 -0.5003340117 -0.0117505283 0.7292071490
0.3247908753 0.7629644223 -0.7058821983 -0.4996529177 0.0001014588 0.7411581949
0.3127668647 0.4941176006 -0.5774208927 -0.4999063647 0.0117627283 0.7294395961
0.3837687874 0.6666849725 -0.7058821983 -0.4995158589 0.0000146588 0.7411606655
0.3347310744 0.4705881910 -0.6133236540 -0.4999674000 -0.0117639518 0.7294373961
0.1565587029 0.5830056040 -0.7294116078 -0.5002280706 -0.0000025529 0.7176636560
0.0935234383 0.7438937653 -0.7294116078 -0.5002544000 0.0000635294 0.7176616913
0.3564902959 0.6871261824 -0.7058821983 -0.4996216000 0.0000154118 0.7411610655
0.1015593904 0.4705881910 -0.3535277138 -0.5003911529 -0.0117455401 0.7291481373
0.3422168619 0.4941176006 -0.5092296403 -0.4998393883 0.0117611871 0.7294446313
-0.0118452695 0.8075172064 -0.7294116078 -0.5005577058 0.0000930588 0.7176630207
0.2086119921 0.4209777839 -0.0823528452 -0.5002012470 -0.0056994465 0.7202803263
0.2812493029 0.4941176476 -0.4162676255 -0.4997843530 0.0117588695 0.7294435490
0.0114225872 0.4235293719 -0.0935700324 -0.5004636823 -0.0096837756 0.7233509260
0.2330896487 0.4823528958 -0.1010329258 -0.4998574235 0.0112434342 0.7315775959
0.0436368077 0.4705881439 -0.5633717646 -0.5004067411 -0.0117536224 0.7292887255
0.2532081291 0.8121640530 -0.7058821983 -0.4998527059 0.0000855059 0.7411621714
0.2837775851 0.4862130954 -0.1294116643 -0.4998969765 0.0075206934 0.7364893366
0.4176469725 0.4270076539 -0.6346725814 -0.4898950362 0.0024984468 0.7341268897
0.4618348977 0.1834012063 -0.6998307400 -0.5000000000 0.0016257175 0.7177622442
0.2813048559 0.4705881910 -0.2349373132 -0.5001007294 -0.0117492342 0.7290884549
-0.0004091647 0.5862717919 -0.7294116078 -0.5006605999 -0.0000056941 0.7176721972
0.1107187896 0.5303304677 -0.7294116078 -0.5006784705 0.0000000000 0.7177549383
0.4400168880 0.3261514046 -0.6768066716 -0.5000000000 0.0017813645 0.7177838324
0.3292141337 0.5019735410 -0.7058821983 -0.4995147059 0.0074176934 0.7368440542
0.1324421875 0.5897541210 -0.7058821983 -0.5003586235 0.0000215765 0.7411562538
0.1726004896 0.4941176006 -0.3490246672 -0.5002549529 0.0117418224 0.7294443019
0.0532888420 0.4941176006 -0.1337062051 -0.5001916353 0.0117488695 0.7297459725
0.1446410570 0.4941176006 -0.3767835351 -0.5003327764 0.0117405754 0.7294324196
0.0166740337 0.7997280541 -0.7294117019 -0.5004803294 0.0001030706 0.7176629972
0.1457905275 0.4117646671 -0.0700788581 -0.5000000000 -0.0117647048 0.7294117843
0.4526775574 0.4941176006 -0.2225021144 -0.4995625295 0.0117546460 0.7294647490
0.1506627035 0.4941176006 -0.5844189273 -0.4999703294 0.0117625871 0.7294265961
0.0372769965 0.4941176006 -0.3467842203 -0.5004698000 0.0117408460 0.7295309843
0.1202453063 0.9134053846 -0.7294116078 -0.5002262588 0.0000656000 0.7176651619
0.2689490100 0.5143236457 -0.7058821983 -0.4999161647 0.0029020233 0.7399544068
0.2399308362 0.4588234862 -0.1265752410 -0.4999754471 -0.0098523991 0.7244515142
0.4551507336 0.4941176006 -0.3684289006 -0.4963714356 0.0103605873 0.7290751137
0.0842951450 0.6160527773 -0.7058821983 -0.5003257764 0.0000967529 0.7411623008
0.2055691218 0.8129976294 -0.7058822924 -0.4999821529 0.0000853294 0.7411627714
0.4374227235 0.3079503357 -0.6637587905 -0.5100571285 -0.0024631527 0.7338537486
0.3996187153 0.4705881910 -0.5833108686 -0.4987170707 -0.0109880225 0.7291939961
0.2561709406 0.5260289740 -0.7294116078 -0.4999534588 0.0000000000 0.7177256442
0.1988525578 0.4117646671 -0.0703795404 -0.5000000000 -0.0117647048 0.7294117843
0.1636115375 0.9458804874 -0.7058822924 -0.5001570353 0.0001598235 0.7411541008
0.4295586066 0.4858876366 -0.5168389219 -0.4929251536 0.0044453172 0.7284134079
0.1461117274 0.6230911531 -0.7058821983 -0.5001597059 0.0001069882 0.7411620538
0.2078857687 0.4655748738 -0.3627021953 -0.5081138581 0.0020604351 0.7372950659
0.0665394408 0.4705881910 -0.3986269448 -0.5004377411 -0.0117460107 0.7291753137
0.2354655308 0.9572954981 -0.7058821983 -0.4999290706 0.0001137176 0.7411582067
0.2045676984 0.4705881910 -0.7048062690 -0.5001191176 -0.0117524224 0.7294117843
0.1911377232 0.4705881910 -0.5935479030 -0.4999934706 -0.0117636342 0.7294031843
0.1901295233 0.4705881910 -0.4907933362 -0.4999516000 -0.0117619048 0.7293151490
0.1845140179 0.4265560893 -0.0941175500 -0.4998176000 -0.0052549760 0.7199444558
0.1650597374 0.4705881910 -0.7173313148 -0.4994502001 -0.0075699875 0.7214463850
0.3902104103 0.4941176006 -0.5665152584 -0.4998695530 0.0117626224 0.7294461137
0.2006201576 0.4941176006 -0.6317174876 -0.4999915294 0.0117637989 0.7294286313
0.2737190919 0.4941176006 -0.5380700964 -0.4998878235 0.0117617283 0.7294381019
0.0752943106 0.5652423586 -0.7058821983 -0.5003289647 -0.0003440941 0.7411553950
-0.0584520651 0.4941176006 -0.1983813872 -0.5004478588 0.0117455871 0.7297473137
0.3527739668 0.4941176006 -0.6841470474 -0.4993766589 0.0112698107 0.7314281135
0.0112266107 0.4941176006 -0.5847118097 -0.5007935529 0.0117318224 0.7292960078
0.1567494441 0.8156601938 -0.7058821983 -0.5001077294 0.0000880353 0.7411629479
-0.0297490325 0.4705881910 -0.4287074832 -0.5006085176 -0.0117422224 0.7291836314
0.3124318882 0.4117646671 -0.0681132583 -0.5000000000 -0.0117647048 0.7294117843
0.1870139824 0.4941176006 -0.4193534958 -0.5003151059 0.0117393283 0.7293610666
0.3592305897 0.4941176006 -0.1334665580 -0.4996996000 0.0117512812 0.7295556078
0.3014573128 0.4705881910 -0.1792883302 -0.5000874118 -0.0117473636 0.7290518196
0.0382908905 0.4941176006 -0.2586514404 -0.5003637647 0.0117441165 0.7296234078
0.3813487406 0.4941176006 -0.6989590225 -0.5000000000 0.0103466343 0.7328353016
0.0976288143 0.4705881910 -0.1454854510 -0.5004932235 -0.0117340695 0.7290005020
0.3705074592 1.0409648197 -0.7058821983 -0.4991169648 0.0012833058 0.7410423950
0.3073652534 0.5041437408 -0.7058821042 -0.5000000000 0.0012293411 0.7406672773
-0.0132175282 0.4705881910 -0.1888972352 -0.5006858352 -0.0117301871 0.7290162784
0.0798451101 0.4947459887 -0.7058821983 -0.5008066587 0.0060810583 0.7389699599
0.4343214179 0.4235293719 -0.0922182796 -0.4993012589 -0.0066548582 0.7203273146
0.4128548200 0.5720470167 -0.7058821983 -0.4996129412 -0.0002944470 0.7411571597
0.1473201861 0.5459041722 -0.7294116078 -0.4995671177 -0.0002165529 0.7176836207
0.1073385664 0.6253516588 -0.7294116078 -0.5001938117 0.0000560353 0.7176605030
0.4295676772 0.4235293719 -0.0612238236 -0.4997272706 0.0069381876 0.7382508658
0.2226389908 0.8159742644 -0.7294116078 -0.4999353294 0.0000791647 0.7176633148
0.1822142417 0.8117522412 -0.7294116078 -0.5000489176 0.0000834941 0.7176632325
0.3035063008 0.4941176006 -0.4374557059 -0.4997938941 0.0117594107 0.7294444549
0.4875737776 0.4588234862 -0.1099787014 -0.4992819412 -0.0117396224 0.7294117843
0.4914334479 0.4833454369 -0.1765276599 -0.4986668354 0.0015870940 0.7291411961
0.2204930263 0.4705881910 -0.5206073922 -0.4999565882 -0.0117624107 0.7293443137
0.0371392553 0.7718593979 -0.7058821983 -0.5004174705 0.0000830706 0.7411598420
0.4016350328 0.7238669201 -0.7294116078 -0.4995039295 0.0000871176 0.7176618677
0.1074726252 0.4330933122 -0.0705881404 -0.5000334353 0.0009841764 0.7409432891
0.0040213643 0.6381457399 -0.7058821983 -0.5004604117 0.0000917294 0.7411621361
0.2835752792 0.4941176006 -0.7030379632 -0.5000000000 0.0091519403 0.7357195719
0.3700665769 0.4941176006 -0.2303344548 -0.4997969412 0.0117477754 0.7294465843
0.2767586328 0.6589727380 -0.7058821983 -0.4997895177 0.0000429412 0.7411627361
0.0737571225 0.4513183222 -0.0705881404 -0.4999973412 0.0022129880 0.7404147362
0.1239053530 0.4433616171 -0.0705881404 -0.5000346235 0.0000000000 0.7411755244
0.0782718750 0.4319589123 -0.0705881404 -0.5000430471 0.0014914822 0.7408235832
0.3695366476 0.4705881910 -0.1580046616 -0.4999666706 -0.0117500342 0.7290459255
0.4201482428 0.3988157507 -0.6606661908 -0.5028942350 0.0028942350 0.7183904442
0.4285027950 0.4745638259 -0.5226459685 -0.4919964713 -0.0028005762 0.7279922315
0.4653070739 0.4941176006 -0.2661345338 -0.4995940942 0.0117556930 0.7294639961
0.1602747967 1.0251013270 -0.7058821983 -0.4999355177 0.0003482823 0.7411458420
0.2290099432 0.4705881910 -0.5097045461 -0.4999500941 -0.0117622224 0.7293360078
0.1505787858 0.4941176006 -0.3323548805 -0.5002706000 0.0117422695 0.7294756196
0.3723972120 1.0028290703 -0.7294116078 -0.4989316707 0.0003252117 0.7177222560
0.3816908935 0.7559278818 -0.7294117019 -0.4995309530 0.0000641882 0.7176621854
0.1584221616 0.9009149034 -0.7058822924 -0.5001053294 0.0000971647 0.7411610655
0.1182021536 0.4705881910 -0.5445618135 -0.4999907529 -0.0117628224 0.7293524902
0.1143864716 0.4705881910 -0.4835137368 -0.5003075059 -0.0117532812 0.7292417725
0.1766315951 0.4368326059 -0.0941175500 -0.5000000000 0.0000000000 0.7176470795
0.1743456542 0.6560306559 -0.7294116078 -0.5000608823 0.0000730235 0.7176610677
0.3770608469 0.4941176006 -0.5042892878 -0.4998227883 0.0117611283 0.7294475608
0.1014745669 0.4705881910 -0.1726040838 -0.5004735411 -0.0117357518 0.7290201843
0.0388537140 0.4941176006 -0.4585747745 -0.5005997058 0.0117367165 0.7294119725
0.4056060795 0.4571158511 -0.6252369000 -0.5001594588 0.0101152226 0.7236707025
0.3788675761 0.9684418618 -0.7294116078 -0.4998196471 0.0000648823 0.7176528913
0.0494561953 0.7025275927 -0.7058821983 -0.5004031882 0.0000048824 0.7411600538
0.3366907565 0.4135698670 -0.0823528452 -0.4999356588 -0.0008015293 0.7178565971
-0.0260725975 0.4905447068 -0.5483510131 -0.5008787293 0.0081691404 0.7292221372
0.4504400870 0.4117646671 -0.0592706121 -0.5000000000 -0.0117647048 0.7294117843
0.4300614301 0.4823528958 -0.0972271967 -0.4995405295 0.0108390813 0.7332773016
0.4058679030 0.9404328291 -0.7294116078 -0.4994230942 0.0001215294 0.7176620913
0.0565502770 0.8383875329 -0.7294116078 -0.5003792470 0.0000631059 0.7176634089
-0.0662659114 0.4941176006 -0.3208650227 -0.5006055176 0.0117409871 0.7296228666
0.3831718110 0.4705881910 -0.5093512521 -0.4999132588 -0.0117621989 0.7293542784
-0.0032326703 0.4705881439 -0.5703426934 -0.5004933529 -0.0117513636 0.7292873490
0.1970335815 0.9773283080 -0.7294116078 -0.5000373765 0.0001260823 0.7176604913
0.0161173632 0.5397268786 -0.7294116078 -0.5008326117 0.0000000000 0.7177112325
0.1117659895 0.4117646671 -0.0790186220 -0.5000000000 -0.0117647048 0.7294117843
0.1259275881 0.4941176006 -0.6321388170 -0.5000186941 0.0117636577 0.7294227490
0.2712840568 0.5420650666 -0.7058821983 -0.4992914001 -0.0004000235 0.7411041597
0.4165753608 0.4010714917 -0.6474971449 -0.5105226696 -0.0052613407 0.7294117843
0.3611935895 0.4941176006 -0.4559157041 -0.4997884706 0.0117599636 0.7294482431
0.3813033171 0.7556369759 -0.7058821983 -0.4994817883 0.0001135294 0.7411580538
0.1438633512 0.4705882381 -0.5135713928 -0.4999719529 -0.0117622930 0.7293290667
0.2124842271 0.4941175535 -0.3659530303 -0.5002108941 0.0117415048 0.7294015843
0.2539146114 0.6125577423 -0.7294116078 -0.4999155529 0.0000655059 0.7176587030
0.2478596120 0.4941176006 -0.4448432934 -0.4998199765 0.0117594812 0.7294397961
0.2329397075 0.4823528958 -0.1174082066 -0.4999441412 0.0117560695 0.7294117843
0.0012471764 0.4235293719 -0.0602816355 -0.5001278235 0.0102013637 0.7349918896
0.2949644311 1.0373358200 -0.7058821983 -0.4994136118 0.0007635293 0.7411022655
0.3124787353 0.4941176006 -0.1940515641 -0.4998465177 0.0117486695 0.7295207725
-0.0399510551 0.4705881910 -0.1900060115 -0.5007365411 -0.0117287401 0.7290134667
0.4445537817 0.3437657206 -0.6578623440 -0.4903895421 0.0006697529 0.7345889485
0.2321759546 0.4941176006 -0.4631800564 -0.4998407765 0.0117598812 0.7294378313
0.4620559683 0.2940656900 -0.6713328956 -0.4883655893 0.0017415645 0.7294117843
0.2723065744 0.4941176006 -0.2527824644 -0.4999806706 0.0117461754 0.7294837960
0.1748479365 0.4705881910 -0.4623008800 -0.5001957529 -0.0117556577 0.7292361372
0.4746519200 0.0842165450 -0.0868522095 -0.5116157048 -0.0018663763 0.7294117843
0.2266166846 0.9792411314 -0.7058821983 -0.4998104118 0.0001192706 0.7411569832
0.1683150665 0.5291945502 -0.7058821983 -0.5000597412 0.0000322118 0.7411547244
0.2136526387 0.4705881910 -0.2895664610 -0.5002054941 -0.0117483871 0.7291179843
0.4087569380 0.4705881910 -0.0920241384 -0.4996275883 0.0071940817 0.7372726777
-0.0856254508 0.2350048249 -0.1071022429 -0.5112013754 0.0019308939 0.7306158077
0.3660053067 0.4705881910 -0.5566225300 -0.4999367177 -0.0117629989 0.7293926549
0.0535163832 0.7722267744 -0.7058821983 -0.5003780353 0.0000830235 0.7411595714
0.3898236457 0.5883188976 -0.7058821983 -0.4997406000 0.0000403765 0.7411665479
0.0328793616 0.6433403747 -0.7058821983 -0.5003872823 0.0000846941 0.7411629479
-0.0327325263 0.4941176006 -0.4918202537 -0.5007541529 0.0117349165 0.7294214784
-0.1032135432 0.0530175950 -0.7176874677 -0.4883847305 -0.0018691057 0.7294117843
0.0140596222 0.4705881910 -0.1299746289 -0.5006603646 -0.0117285401 0.7289782902
0.1367772107 0.9189105841 -0.7294116078 -0.5001725647 0.0000663529 0.7176653266
0.4790969784 0.0759436987 -0.0946017970 -0.5000000000 -0.0020413998 0.7178266677
-0.0869717212 0.4341187474 -0.0941175500 -0.5000152235 -0.0008360235 0.7180852912
0.1665757843 0.6280945997 -0.7058821983 -0.5001050000 0.0001016000 0.7411626655
0.1192806829 0.4470588285 -0.1023132198 -0.5001244353 -0.0093564109 0.7236229142
0.0215001627 0.4941175535 -0.5981345143 -0.5007929411 0.0117313989 0.7292754431
0.3274683457 0.8866634695 -0.7058821983 -0.4996356000 0.0000804706 0.7411605949
0.3811441877 0.4941176006 -0.1386184634 -0.4996704824 0.0117512577 0.7295365137
0.0548807007 0.4597738861 -0.5491822601 -0.4913125302 -0.0002380117 0.7214840674
0.2898603727 0.6592234321 -0.7058821983 -0.4997577412 0.0000410000 0.7411625597
0.1850884179 0.4941176006 -0.6023007021 -0.4999727765 0.0117630695 0.7294285843
0.0481674072 0.7696987511 -0.7294116078 -0.5003806823 0.0000856941 0.7176623148
0.1182439300 0.4705881910 -0.6926013054 -0.5003737058 -0.0117485518 0.7294117843
0.4351724061 0.6542224090 -0.7294116078 -0.4994440471 0.0000191294 0.7176609501
0.2657886456 0.4705881910 -0.2770854975 -0.5001112941 -0.0117506342 0.7291161726
0.4853217543 0.4744401318 -0.2101416920 -0.4981084237 -0.0068843052 0.7288828314
0.2772653151 0.4839999427 -0.7294116078 -0.4996180236 -0.0052486466 0.7194602793
-0.0196651629 0.4764533552 -0.5796762219 -0.5006281058 -0.0058969171 0.7292667137
0.2006210517 0.4823528958 -0.0949153146 -0.4999715529 0.0083784698 0.7365247954
0.1290638467 0.4705881910 -0.0928443383 -0.5000321412 0.0091469050 0.7356018308
0.3064136417 1.0191122570 -0.7294116078 -0.4995713647 0.0002281647 0.7176767619
0.1661879020 0.4705881910 -0.1627698847 -0.5003540470 -0.0117388577 0.7290219373
0.2762618328 0.6298650701 -0.7294116078 -0.4998146471 0.0000591765 0.7176607266
-0.0352588908 0.4941175535 -0.3939335217 -0.5006422470 0.0117385283 0.7295263960
0.1864687119 0.4823528958 -0.1272638527 -0.5000014118 0.0091393168 0.7353134896
0.2692798570 0.4705881910 -0.1436824041 -0.5001652353 -0.0117436224 0.7290223137
0.3561334135 0.8904186574 -0.7294116078 -0.4995258118 0.0000942470 0.7176652795
0.4036726208 0.4461432051 -0.1669153431 -0.5071436111 0.0043529290 0.7372919483
-0.1117647424 0.4591374627 -0.0897044445 -0.5010218705 0.0058199877 0.7301408901
0.1257536352 0.4941176006 -0.3848986991 -0.5003727529 0.0117401283 0.7294356196
0.2665557161 0.4705881910 -0.4501068576 -0.4999167412 -0.0117612224 0.7292895372
0.0937946853 0.6361551519 -0.7058821983 -0.5002590117 0.0000926941 0.7411627949
0.4341364297 0.4705881910 -0.2395912422 -0.4997905765 -0.0117576812 0.7291295961
0.4204414898 0.4705881910 -0.4152213197 -0.4998658118 -0.0117606224 0.7292782196
0.4480173461 0.4705881910 -0.3502113494 -0.4998326118 -0.0117595283 0.7292259255
0.0558654300 0.5285757973 -0.7058821983 -0.5003593764 0.0000000000 0.7411642067
0.3300163807 0.5231504919 -0.7058821042 -0.4997208824 0.0000000000 0.7411694067
0.2135185917 0.7503895647 -0.7294116078 -0.4999490706 0.0000588000 0.7176618677
0.3217342756 0.4852719426 -0.7294116078 -0.4995062824 -0.0039497290 0.7185932794
0.1755901835 0.8326067922 -0.7058821983 -0.4999966941 0.0001134706 0.7411600420
0.3190489935 0.4278676303 -0.0941176441 -0.4994902471 -0.0033133879 0.7184467736
0.1861085119 0.4941176006 -0.2619183459 -0.5001300470 0.0117451636 0.7295278549
