0.2620907299 0.4328357692 -0.0205280274 -0.4998979254 -0.0149131325 0.4904954340
0.3853651629 0.2686566843 -0.3235279166 -0.4992827762 -0.0148727146 0.4903299862
0.2662277443 0.2613477748 -0.0470049795 -0.5000000000 0.0036978205 0.5030401489
0.4999998806 0.4345336496 -0.1719575914 -0.4996827015 -0.0115200882 0.4901356131
-0.1120753896 0.4477611406 -0.0001463880 -0.5002364030 0.0149131325 0.4905438668
0.4383393506 0.2686566843 -0.3697944932 -0.4912331951 -0.0110034315 0.4893788669
0.2064639156 0.4328357692 0.1161802399 -0.4999482388 -0.0149131325 0.4908202698
0.0905394370 0.2835820557 0.1721016959 -0.4988181792 0.0148560430 0.4901881952
0.3047763964 0.2686566545 0.0830503632 -0.5000192090 -0.0149021027 0.4903661803
-0.1716967705 0.4328357692 -0.2032631101 -0.5002903432 -0.0149131325 0.4900612251
-0.1567164589 0.1333035363 -0.2892086819 -0.4905067623 -0.0003313432 0.5008529402
0.4701491379 0.1269911490 0.1019975401 -0.5102593719 -0.0004794477 0.4949526424
0.1925969173 0.2782107578 -0.2295718084 -0.5040959249 0.0026707758 0.4904261355
0.3455906304 0.2388059416 0.1886673058 -0.5000000000 -0.0084070736 0.5008552238
0.4877372850 0.1963308572 -0.2858109211 -0.4976195077 -0.0001625074 0.5013177013
-0.1567164589 0.1581357125 -0.2969909496 -0.4893938968 -0.0003946716 0.4873268523
0.2703891170 0.2686566843 -0.3456492871 -0.5007230148 -0.0148595057 0.4900994489
-0.1723201585 0.4477611406 -0.0023839549 -0.5002909104 0.0149131325 0.4905385384
0.2003394985 0.2835820557 -0.1982857226 -0.5014987909 0.0148219535 0.4909014638
0.1195195678 0.2835820557 0.1214683736 -0.4983809256 0.0148302669 0.4900912848
-0.1124918821 0.3060679336 -0.3965237885 -0.5052251785 0.0014337312 0.5026393579
-0.1673107561 0.2729718182 0.2491035971 -0.5106042226 -0.0058900590 0.4885434044
0.0849487958 0.1389945655 -0.4653257653 -0.5092926556 0.0007209104 0.4822459424
0.0102126256 0.2835820557 0.2527074624 -0.5000017910 0.0148663266 0.4908627175
0.3745480598 0.4477611406 -0.2731730569 -0.4997961941 0.0149131325 0.4898951057
-0.1604396376 0.3356736763 0.2852245182 -0.4926146128 -0.0002422836 0.4980140898
-0.1716418303 0.4160939205 -0.2494636419 -0.4870042553 0.0020597162 0.4939422097
0.2106377659 0.0447761141 0.1182196127 -0.4900444788 -0.0105552972 0.4908395981
-0.1363525807 0.4477611406 0.0880184671 -0.5002583731 0.0149131325 0.4907533593
0.3971508780 0.4477611406 -0.1333665811 -0.4997757463 0.0149131325 0.4902273146
-0.0020150744 0.4328357692 0.0781911548 -0.5001368507 -0.0149131325 0.4907300011
-0.0996986448 0.4477611406 -0.0447680842 -0.5002252089 0.0149131325 0.4904378370
0.2165209891 0.4472729167 -0.4549109009 -0.5086769094 -0.0007166716 0.4789923159
0.0229399376 0.4803268680 0.3587937034 -0.4886736879 0.0011308805 0.4869174941
0.3185975590 0.4328357692 -0.1469465645 -0.4998468060 -0.0149131325 0.4901950459
-0.1102178376 0.0000303433 0.0425472487 -0.5078294021 -0.0005650596 0.4801347188
0.1210008064 0.2686566843 0.1240718956 -0.4980470450 -0.0147895952 0.4900975683
0.0178093412 0.3942480873 -0.4539944085 -0.5000000000 0.0016482386 0.5051424770
-0.1716959198 0.0413649652 -0.3156616638 -0.5009354775 -0.0006405522 0.4790055697
0.4253730238 0.2741309523 -0.4059447127 -0.4996785374 -0.0039794771 0.4901046579
-0.1119403747 0.0814488858 0.0426967113 -0.5105895510 -0.0002364925 0.4798682860
0.4533107220 0.4213735467 -0.3007362924 -0.5014302983 0.0003265373 0.5050993725
-0.1355483122 0.0553491128 0.1519045341 -0.5145575057 0.0000000000 0.4870721508
0.3176036188 0.4328357692 0.0965076153 -0.4998477015 -0.0149131325 0.4907735235
-0.0911810787 0.2686566843 -0.3618526284 -0.5005836119 -0.0148972520 0.4903785982
-0.1648142341 0.0562782321 0.2689681768 -0.5145102371 0.0000000000 0.4868389269
0.1480109226 0.4328357692 -0.3093295004 -0.5000011194 -0.0149131325 0.4898091952
0.3678124337 0.3887657745 0.1022487341 -0.5065140440 0.0000036269 0.5028048504
0.2518752535 0.4328357692 0.0213178333 -0.4999071642 -0.0149131325 0.4905948668
0.1390626700 0.4477611406 -0.1737522031 -0.5000092239 0.0149131325 0.4901313445
0.1255601790 0.4328357692 -0.2695909380 -0.5000214328 -0.0149131325 0.4899036131
-0.1239849106 0.4477611406 -0.1805928740 -0.5002471791 0.0149131325 0.4901150907
0.4147352042 0.4929777023 0.2018001401 -0.5047007457 0.0016091192 0.4798541218
0.2041404831 0.4083836229 0.1022487341 -0.5005558805 0.0000000000 0.4754525104
0.0337475333 0.2835820557 -0.2315336440 -0.4998178657 0.0148879385 0.4909033742
-0.1441347888 0.2765395789 0.1563996679 -0.5077074618 -0.0034727906 0.4881605387
0.3985059375 0.2835820557 0.0555949635 -0.4995019702 0.0148897594 0.4899690161
0.1596083392 0.4328357692 -0.1131367328 -0.4999906269 -0.0149131325 0.4902753743
-0.1778972773 0.4477611406 0.0279764743 -0.5002959552 0.0149131325 0.4906106877
-0.1717458452 0.4477611107 -0.0229217734 -0.5002903880 0.0149131325 0.4904897474
0.2770143401 0.2835820557 -0.3446480633 -0.5002598806 0.0148719982 0.4897962400
0.0246221015 0.4328357394 -0.0046256860 -0.5001127463 -0.0149131325 0.4905332250
0.1066690022 0.4328357692 0.0018262087 -0.5000385224 -0.0149131325 0.4905485534
-0.0836268109 0.4328357394 -0.1101555839 -0.5002106716 -0.0149131325 0.4902824638
0.1537775488 0.4328357991 -0.0372357120 -0.4999959104 -0.0149131325 0.4904557325
0.3600684943 0.2686566843 -0.2960906811 -0.4994077762 -0.0148739833 0.4904109713
0.1888629028 0.2738611613 -0.0619303508 -0.5017943580 -0.0044563428 0.4895039416
-0.1003165104 0.2686566843 0.2883760700 -0.5002641044 -0.0149099684 0.4907534041
-0.1683510545 0.0785720652 0.3013824267 -0.4938691948 0.0004804029 0.5021430296
0.4347412317 0.5373133687 -0.4356622913 -0.4960302094 0.0011810894 0.4956059259
-0.0470775765 0.4477611406 -0.2540659249 -0.5001776119 0.0149131325 0.4899405087
0.1875037388 0.2681111023 -0.2032835429 -0.5130962372 0.0067718649 0.4884923894
0.4475195585 0.4328357692 -0.2306611665 -0.4997301791 -0.0149131325 0.4899961206
0.3948462215 0.4477611406 -0.1961528423 -0.4997778209 0.0149131325 0.4900781206
0.1658120548 0.4477611406 -0.1412346548 -0.4999850149 0.0149131325 0.4902086131
0.0266972953 0.2323781663 0.3477631973 -0.4919810010 0.0006667163 0.4998242985
0.2587177452 0.2686566545 -0.3061135306 -0.5009351193 -0.0148435206 0.4903089116
-0.1622145179 0.2791119368 0.2287184951 -0.5108960285 0.0007642686 0.4879024044
0.0930524665 0.2835820557 0.1313439395 -0.4987145673 0.0148475803 0.4900095684
0.4108183092 0.0824874081 -0.1664079503 -0.5089665064 -0.0001673433 0.4912253593
0.4999998806 0.0916513473 0.0881893626 -0.4887809416 -0.0004846268 0.4812119873
-0.1865672315 0.0694676633 -0.2858578912 -0.5115868195 -0.0006332238 0.4987764181
0.1085387184 0.2835820258 -0.3213414691 -0.4992189553 0.0148776997 0.4904620608
0.4107908614 0.2835820557 -0.0401511594 -0.4989395971 0.0148531027 0.4896005983
0.4646796609 0.4477611406 0.0682019322 -0.4997146568 0.0149131325 0.4907062698
0.4850745092 0.3978645047 0.0248783105 -0.4866333897 0.0000837164 0.4858354495
0.2393618669 0.4328357692 -0.2276604803 -0.4999184776 -0.0149131325 0.4900032549
-0.1162766279 0.4477611406 -0.1229978958 -0.5002402089 0.0149131325 0.4902519415
0.1940244097 0.0465463079 0.0779987370 -0.5104397749 -0.0069144469 0.4923601352
-0.1840499631 0.4477611406 0.0923224666 -0.5003015224 0.0149131325 0.4907635832
0.4253730238 0.0945614962 -0.4236015315 -0.5122432075 -0.0013087610 0.4980425823
-0.1789545458 0.5373133687 0.3103673958 -0.4978854928 -0.0004136865 0.5010380745
-0.1143542252 0.2686566843 0.1727123077 -0.5007724327 -0.0148618042 0.4899311355
0.2220086302 0.2558108053 -0.3501300179 -0.4860525241 -0.0008162238 0.4908515832
0.0868668553 0.2404793444 -0.2033377518 -0.5016081192 -0.0015853580 0.5044172532
0.4189305171 0.4477611406 -0.0662759175 -0.4997560448 0.0149131325 0.4903867325
0.1194276275 0.0447761141 -0.3190398873 -0.5108316256 -0.0080631184 0.4925814486
0.2152134071 0.2835820557 -0.2877560701 -0.5008293880 0.0148672520 0.4905632101
-0.1238039404 0.5342815332 -0.4496531702 -0.5033672683 -0.0009063133 0.4774977490
0.1365935807 0.4202730543 0.1022487341 -0.4997641344 0.0000000000 0.4754124955
0.4253730835 0.1958446930 -0.0482400241 -0.5131748044 -0.0028814922 0.4953104483
0.4187502037 0.4328357692 0.0108365808 -0.4997561941 -0.0149131325 0.4905699563
0.4845724496 0.0538738891 -0.2858109211 -0.5001916865 -0.0005127910 0.5004053134
0.3608339271 0.4045060114 -0.4402087833 -0.5000000000 -0.0016482386 0.4754743014
-0.2014925730 0.4386119626 -0.2082230647 -0.5003172985 -0.0033702235 0.4900494340
-0.0915687503 0.4328357692 0.0431520993 -0.5002178656 -0.0149131325 0.4906467474
0.3808112680 0.4973121794 -0.4499900060 -0.4988067763 -0.0022545818 0.4758052118
-0.1567164589 0.2945536663 0.1119217777 -0.4937225381 -0.0000339403 0.5036393876
-0.0775213042 0.2835820557 0.1291308950 -0.5001805970 0.0148875803 0.4897057475
0.0487326360 0.2835820557 -0.3103593510 -0.4998879851 0.0148702967 0.4901122997
0.4520502744 0.4328357692 0.0239303852 -0.4997260747 -0.0149131325 0.4906010757
-0.1716418303 0.4226274719 -0.1736496658 -0.4864872703 0.0029491788 0.4923968964
0.0662090667 0.2835820557 0.1603643540 -0.4990872837 0.0148683863 0.4900156579
0.0931940635 0.4477611406 -0.1977307674 -0.5000507164 0.0149131325 0.4900743743
0.2196738693 0.2686566545 0.1291665368 -0.5005738059 -0.0148908490 0.4903031206
0.3465432870 0.4211750393 -0.3007362924 -0.5022248206 0.0001390448 0.4756621820
-0.0393815028 0.2388059416 0.0716354541 -0.4968065078 -0.0053426710 0.4977230301
0.0882766910 0.2547649547 0.1936246187 -0.4867237926 0.0014315819 0.4962993437
0.0158649235 0.4477611406 -0.1348966257 -0.5001206716 0.0149131325 0.4902236728
-0.1062665246 0.2686566843 0.1967428720 -0.5006789104 -0.0148696699 0.4901184788
0.0266905789 0.1653740698 0.3519643908 -0.4893097326 -0.0001531642 0.4948794931
0.4840184646 0.1770418445 0.0873233329 -0.4986775225 -0.0001508657 0.4787463458
0.1550033696 0.4328357692 0.0513255461 -0.4999948060 -0.0149131325 0.4906661653
0.3090944556 0.4328357692 -0.1258028357 -0.4998554030 -0.0149131325 0.4902452847
0.0399221146 0.0462496810 0.3092223661 -0.5140766700 -0.0004054179 0.4866614344
0.3664208667 0.2835820557 0.0109149838 -0.4996571344 0.0148893564 0.4897263744
-0.1865672016 0.4107221450 -0.1867742762 -0.5141052073 0.0002141045 0.4903083892
-0.1692321887 0.3180662008 -0.2858109211 -0.4958740005 -0.0014268357 0.5012445819
0.4175767561 0.4477611406 -0.1315470888 -0.4997572687 0.0149131325 0.4902316280
0.0820894827 0.3123210373 -0.4401999624 -0.5089651631 0.0013711491 0.5016809849
-0.1981534540 0.4328357692 -0.1909501712 -0.5003142835 -0.0149131325 0.4900904788
0.2802572352 0.4049041905 0.1022487042 -0.5015582386 0.0000863731 0.5049942233
0.3019867699 0.4477611406 0.0957345408 -0.4998618358 0.0149131325 0.4907716877
0.4104277868 0.2686566843 -0.1900108430 -0.4988014330 -0.0148361624 0.4910756279
-0.1074572260 0.2794931905 0.2977729197 -0.5004840746 0.0067016410 0.4914184637
0.1978301704 0.4477611406 -0.0699524245 -0.4999560597 0.0149131325 0.4903779862
0.2724043705 0.4477611406 0.0650291415 -0.4998885970 0.0149131325 0.4906987325
-0.0041665070 0.2686566843 -0.2945717409 -0.5002583880 -0.0148890281 0.4904990310
-0.1865672016 0.4113281598 -0.0269594893 -0.5141135058 0.0003183582 0.4903083892
0.0282502205 0.1336985064 0.3458369438 -0.4878075537 -0.0012830446 0.4862478822
0.0852509003 0.4178142038 -0.4697245111 -0.5114786255 -0.0006758954 0.4814716888
-0.1865672016 0.2160804070 0.1123128224 -0.5106089689 -0.0000058060 0.4974870749
0.4701491379 0.1460529826 -0.3004900984 -0.5102284913 -0.0004443432 0.4851915092
0.2176358546 0.2520829998 -0.3173342606 -0.4861886733 -0.0020979997 0.4905414638
0.1987324390 0.2270675699 -0.0470049795 -0.4923078964 -0.0048847606 0.4927714785
0.4221484123 0.2596655063 0.0013641192 -0.4853384644 0.0002379403 0.4927664337
0.0640387983 0.4477611406 -0.1149260012 -0.5000770895 0.0149131325 0.4902711206
-0.1865672315 0.3898855505 0.0704983796 -0.5122418941 -0.0036840443 0.4833475692
0.0447579499 0.2835820557 -0.2684674306 -0.4998435821 0.0148767743 0.4905029564
0.0289651010 0.4328357692 -0.2196722275 -0.5001088209 -0.0149131325 0.4900222251
0.4701491379 0.4017038625 -0.2881345775 -0.5054342232 0.0004897462 0.5040319249
0.0491607852 0.4168126816 0.1022487341 -0.4987392688 0.0000000000 0.4755406149
0.1650827713 0.4477611107 -0.0871207806 -0.4999856866 0.0149131325 0.4903371952
0.4911894040 0.1996209314 -0.3156616638 -0.4951496573 -0.0000875373 0.4793159278
0.1111020166 0.3939454455 -0.3007362924 -0.4994653284 0.0000000000 0.5051669248
0.2315695097 0.2835820557 -0.2657982220 -0.5007026417 0.0148716848 0.4906958369
0.2786953100 0.4477611406 -0.2097604973 -0.4998828955 0.0149131325 0.4900457773
0.1257293880 0.0273476087 0.1160379264 -0.4857707480 -0.0006935522 0.4892704640
0.2941631738 0.2835820557 -0.2026337967 -0.5001119104 0.0148965505 0.4911158966
0.2686525799 0.2686566843 0.0388202939 -0.5006007611 -0.0148639236 0.4900920012
0.3813478351 0.2835820557 -0.2771614147 -0.4996672836 0.0148984311 0.4907227325
0.3247189463 0.2835820557 0.0180915949 -0.4999577463 0.0148825206 0.4900435684
0.3329456468 0.4477611406 -0.1592702496 -0.4998338209 0.0149131325 0.4901657624
-0.1522476833 0.3449078543 0.2979028600 -0.5037927757 -0.0084744766 0.4994948210
0.4671150338 0.4328357692 -0.2223669884 -0.4997124478 -0.0149131325 0.4900158221
0.4402983952 0.1449074006 -0.4215025318 -0.4886320014 -0.0006975372 0.4922775979
0.5000000000 0.0986885554 -0.2875728612 -0.4888201058 -0.0004568656 0.4988224927
0.3090786347 0.4477611406 -0.2730193853 -0.4998554179 0.0149131325 0.4898954639
0.0344356078 0.4328357692 0.0647759475 -0.5001038657 -0.0149131325 0.4906981354
0.4398781564 0.5232707286 -0.4484297375 -0.4935219261 -0.0007527462 0.4771737191
0.2803104143 0.3472243466 0.2067263335 -0.5015016267 -0.0049362531 0.5007998656
0.0328014438 0.1733468599 0.3392444371 -0.4855156286 -0.0009136417 0.4897176579
0.4104476525 0.0682855142 0.1985163345 -0.5114439688 -0.0012905819 0.4821843603
0.3202215289 0.2835820557 0.1677760546 -0.4999678806 0.0148897296 0.4911130906
0.1055478680 0.4477611406 0.0062354918 -0.5000395373 0.0149131325 0.4905590310
0.1206264632 0.4477611406 -0.1257945820 -0.5000258955 0.0149131325 0.4902452997
0.3871698642 0.4358474703 -0.3156617235 -0.4997847761 -0.0088946557 0.4897941505
0.4037998324 0.2686566843 0.0831863483 -0.4992211493 -0.0148719982 0.4901509564
-0.0429331591 0.2835820557 -0.3619783448 -0.5002743731 0.0148627296 0.4895705087
0.1577874140 0.4477611406 -0.0316570261 -0.4999922836 0.0149131325 0.4904689862
0.0933946456 0.4328357692 -0.1541525189 -0.5000505373 -0.0149131325 0.4901779116
0.2034915876 0.4477611406 -0.2519374326 -0.4999509403 0.0149131325 0.4899455684
0.2214206601 0.4477611406 -0.1860458882 -0.4999347164 0.0149131325 0.4901021355
0.4279402026 0.4328357692 0.0876609000 -0.4997478806 -0.0149131325 0.4907525086
0.2741004747 0.2835820557 -0.4127472940 -0.5002661791 0.0148699684 0.4892848222
0.4232424868 0.2190555261 0.1942697828 -0.4922938218 0.0011770596 0.5009012088
-0.1663221443 0.2562494172 0.2478090301 -0.5138442222 -0.0000695821 0.4872504344
-0.0415487712 0.2686566843 -0.2864125628 -0.5007205969 -0.0148615654 0.4905925683
0.1397331326 0.4477611406 0.0114496703 -0.5000086119 0.0149131325 0.4905714190
0.1551038024 0.4328357991 -0.0146281177 -0.4999947015 -0.0149131325 0.4905094489
0.4253730238 0.0263460267 -0.4457233498 -0.5077565065 0.0006926268 0.4788815995
0.3862104315 0.4477611406 -0.0767343341 -0.4997856418 0.0149131325 0.4903618817
-0.1340752974 0.4945537469 0.3150618281 -0.4942288514 -0.0056050143 0.4785523458
0.3595184944 0.4328357692 0.0201318633 -0.4998097911 -0.0149131325 0.4905920459
0.0238971315 0.4477611406 -0.2265811521 -0.5001134030 0.0149131325 0.4900058072
0.4886008820 0.0133371626 0.0873233627 -0.4977340749 -0.0006508805 0.4804907635
0.3401517803 0.2686566843 -0.1672705323 -0.4996061195 -0.0148803714 0.4911569861
0.2851025182 0.4477611406 -0.0663087682 -0.4998771045 0.0149131325 0.4903866429
-0.0952422722 0.2686566843 0.1142092849 -0.5010412685 -0.0148302072 0.4895942848
0.1564829067 0.1456178035 -0.2111840643 -0.4896320460 0.0003535223 0.5009097163
0.4402983952 0.0241698926 -0.4350567839 -0.4893526281 -0.0016574774 0.4967458661
-0.0077740737 0.4290877100 -0.4575541543 -0.4917661950 0.0017233580 0.5023351042
-0.1863385449 0.2280821817 -0.3156616638 -0.5103936107 0.0000383731 0.4797553756
0.4253730238 0.0375878164 -0.0477433227 -0.5142420729 -0.0019762684 0.4931371053
-0.0568563514 0.2686566843 0.1179099411 -0.5004948059 -0.0148612221 0.4896842102
0.4355061719 0.3162322160 -0.4254254716 -0.4938060903 -0.0008126118 0.4811322261
0.2289017936 0.4139753983 0.1022487341 -0.5008460297 0.0000528806 0.5051275964
-0.1112251210 0.1999878418 -0.4249915015 -0.5081098349 0.0013871342 0.4813519276
-0.1079926140 0.4336881572 0.1171741054 -0.5002327164 -0.0132097447 0.4908226280
0.4999998806 0.4330443811 0.0585307990 -0.4996827015 -0.0144962520 0.4906832847
0.0127615806 0.4683147053 0.3483135256 -0.5035767160 0.0017472834 0.4776236743
0.2709209677 0.2835820557 0.1405120728 -0.5001074925 0.0148712818 0.4911055533
0.2633629089 0.4477611406 -0.0061186560 -0.4998967761 0.0149131325 0.4905296728
0.3325886021 0.4784067041 -0.4484199465 -0.5000000000 0.0016482386 0.5051424770
0.1289771189 0.4328357991 -0.2349069272 -0.5000183433 -0.0149131325 0.4899860310
0.3253252597 0.2557542978 -0.1813333216 -0.5000000000 0.0017299252 0.4762870924
0.4999998806 0.2667806547 -0.2990693225 -0.4889189267 0.0001142686 0.4908024936
0.4325516498 0.4328357692 -0.0008928059 -0.4997437164 -0.0149131325 0.4905420907
0.4278742176 0.4328357692 -0.0728702152 -0.4997479403 -0.0149131325 0.4903710609
-0.1642093834 0.0000000000 -0.2898604281 -0.4941277619 -0.0006698507 0.4965330303
0.2560628799 0.2819574439 -0.4350646346 -0.5003641940 0.0116127747 0.4889965834
-0.1116531956 0.4477611406 -0.1375169687 -0.5002360298 0.0149131325 0.4902174489
0.2763066237 0.4477611406 -0.2780849668 -0.4998850597 0.0149131325 0.4898834340
-0.0998164358 0.0276497131 0.0574726200 -0.4911783593 -0.0008350596 0.5019523132
0.4850745092 0.4177495770 -0.0463711139 -0.5146872072 0.0000000000 0.4888407178
0.2669613114 0.2701720573 -0.1712840392 -0.5007354775 -0.0118337001 0.4911132846
0.4758811969 0.4477611406 -0.0824858110 -0.4997045224 0.0149131325 0.4903482101
0.1837990975 0.4328357991 0.0588747840 -0.4999687463 -0.0149131325 0.4906841056
0.0416387264 0.4328357692 -0.0514406804 -0.5000973582 -0.0149131325 0.4904219713
0.2364475986 0.4477611406 -0.0513115461 -0.4999211194 0.0149131325 0.4904222847
0.3236254390 0.4328357692 -0.2904199802 -0.4998422538 -0.0149131325 0.4898541206
0.1896959326 0.2835820557 -0.0423985920 -0.5015103133 0.0148259684 0.4896616430
-0.0651338430 0.2508794626 0.3118807240 -0.5044742084 -0.0012257909 0.5028350892
-0.1624295627 0.4328357692 -0.1524423400 -0.5002819552 -0.0149131325 0.4901819862
-0.1073221663 0.4541857667 -0.4402697534 -0.4906840011 -0.0002549850 0.4794644054
0.4366289926 0.1127366134 -0.4358978883 -0.4927792994 0.0008433880 0.4802095546
-0.1716418303 0.4114931897 -0.1604139211 -0.4865838374 0.0004681641 0.4928380904
-0.0213921915 0.4328357394 0.0689007380 -0.5001543731 -0.0149131325 0.4907079265
-0.1306041784 0.2519328207 0.1227960600 -0.5142965655 0.0011079700 0.4865402255
-0.0291706980 0.2686566545 0.2718105198 -0.4998047911 -0.0148862669 0.4907496727
-0.1830856647 0.4328357692 -0.1488368927 -0.5003006418 -0.0149131325 0.4901905534
0.2544082234 0.4391637237 0.1171741353 -0.4999048657 -0.0022675818 0.4908226280
0.1074033603 0.2817128022 0.1098757331 -0.4984654181 0.0111270434 0.4899738519
0.1020896595 0.4179294725 -0.3007362924 -0.4993597613 0.0000400149 0.4754633611
0.4999998806 0.1781890534 -0.3010665163 -0.4893240610 -0.0001377015 0.4899362251
0.4789031219 0.2416475234 0.1171741054 -0.5025375221 -0.0000325373 0.5022674923
0.4402983952 0.2591994019 -0.0490700986 -0.4890653744 0.0003632537 0.4975399555
-0.0383892342 0.4983396868 -0.4649153773 -0.5019527311 -0.0040652383 0.4768971520
-0.1011437790 0.3429757501 -0.4198049349 -0.4898184191 0.0037023279 0.4897595833
-0.0205366244 0.4418395293 0.1171741054 -0.5001535970 0.0030796116 0.4908226280
-0.0552473964 0.3435980037 -0.4350646346 -0.5024313430 -0.0101770436 0.4798211517
0.1986322300 0.2661002667 -0.2867471747 -0.5131747596 0.0059168202 0.4879992253
0.2086498557 0.2465476422 -0.0619303508 -0.4949690454 -0.0021399997 0.4784981518
-0.1622614284 0.4328357394 -0.2218798989 -0.5002818059 -0.0149131325 0.4900169863
-0.0800772591 0.4328357692 -0.3134163506 -0.5002074627 -0.0149131325 0.4897994788
0.3376772433 0.2835820557 0.1043645249 -0.4999285522 0.0148766549 0.4907748369
0.2073653782 0.0597014854 0.1855072764 -0.5004892686 0.0091357900 0.4910785832
0.1223955675 0.2701487439 -0.3398868102 -0.4930233740 -0.0104610734 0.4881960462
0.2017794087 0.0548794561 -0.0424136815 -0.4927418516 0.0040029697 0.4957091348
0.3362524822 0.4054238173 0.1970470511 -0.5100105809 0.0008143581 0.4797186591
0.0134428193 0.4328357692 0.1120575687 -0.5001228657 -0.0149131325 0.4908104787
0.4394158878 0.1626349806 -0.1804508143 -0.4856727778 -0.0000459104 0.4910255235
0.1119402254 0.0945914962 0.1057018829 -0.5025504922 -0.0007294626 0.4761242417
-0.0520907699 0.2388059416 0.3054044113 -0.5011718208 -0.0125817298 0.4938238515
0.3101002913 0.2686566843 -0.2424418069 -0.5000751940 -0.0149035355 0.4906878071
-0.0481293525 0.3456672125 0.3281840653 -0.4959406572 -0.0049509248 0.4781303459
-0.0027673728 0.2835820557 0.2622366702 -0.5001028955 0.0148564758 0.4911105981
0.0651193803 0.4246454717 0.1022487341 -0.4989264628 0.0000670895 0.5050990591
0.4402983952 0.2787675040 -0.3106749480 -0.4908002996 -0.0001017313 0.4903567026
-0.1176579262 0.4328357692 -0.2384792999 -0.5002414627 -0.0149131325 0.4899775385
-0.0208745348 0.2686566843 0.1579061901 -0.4999060896 -0.0149004460 0.4900228072
0.2869462792 0.2686566843 0.0132486701 -0.5003062537 -0.0148820281 0.4899218519
0.1997277821 0.4328357692 0.0763651401 -0.4999543433 -0.0149131325 0.4907256727
-0.0952160931 0.0448711140 -0.2928134576 -0.4852389421 0.0012585670 0.4885419118
0.0049089397 0.4328357692 -0.2974726212 -0.5001305821 -0.0149131325 0.4898373594
-0.1739755464 0.3185164247 0.2868931598 -0.5112783419 -0.0012598655 0.4987984628
0.3248667523 0.4477611406 -0.2028271400 -0.4998411343 0.0149131325 0.4900622549
0.1865670225 0.1299143427 -0.0478948301 -0.5141910282 -0.0004080000 0.4930811650
0.1210440303 0.0402640847 0.1229956719 -0.4875920761 -0.0007819701 0.4950778364
-0.0800892740 0.1400341176 -0.1793330532 -0.4930251799 -0.0007933581 0.4779709429
0.3768485968 0.4477611406 -0.1469976392 -0.4997941045 0.0149131325 0.4901949116
0.1966738720 0.2538672682 0.1045966442 -0.5130611477 0.0003907462 0.4925058069
0.3868249986 0.2835820557 0.1811312023 -0.4998178060 0.0148471624 0.4917033592
0.0838938855 0.4477611406 -0.2642042520 -0.5000591343 0.0149131325 0.4899164191
0.4850745092 0.4156162340 -0.1962823795 -0.5145755803 0.0000953433 0.4924009114
-0.1865672016 0.4296505756 0.0921841979 -0.5141822819 0.0001128209 0.4919505233
0.3509536447 0.2686566843 -0.2831866975 -0.4995097314 -0.0148792221 0.4904803295
0.3736437464 0.4477611704 -0.0609125151 -0.4997970000 0.0149131325 0.4903994638
-0.0456161438 0.2822155335 -0.4287057100 -0.5003007910 0.0121430732 0.4891688819
-0.1716418303 0.4087396378 -0.1844761720 -0.4869168523 -0.0000013284 0.4939714485
-0.1188320157 0.4477611406 0.0893359893 -0.5002425224 0.0149131325 0.4907564936
0.3570277783 0.2835820557 -0.1847018735 -0.4995427911 0.0148782370 0.4911442100
0.4253730238 0.3607486733 -0.4159464578 -0.5126459836 0.0010589999 0.4972002541
0.0330785931 0.2835820557 0.1695335171 -0.4994991493 0.0148895057 0.4898984340
0.0022933729 0.2535121638 -0.4366906643 -0.5029918205 -0.0002538209 0.4774184206
0.1267768356 0.2325158528 0.1170853741 -0.4851501809 0.0006024925 0.4902273295
0.0970148541 0.2023549161 -0.4466761108 -0.4877053746 -0.0006614328 0.4938003440
0.2188485261 0.2835820557 -0.2335056736 -0.5010512088 0.0148496251 0.4907996877
0.0089878795 0.4328357692 0.0953766155 -0.5001268955 -0.0149131325 0.4907708369
0.4218141437 0.2399097773 0.0063785664 -0.4855618823 0.0000000000 0.4938112545
-0.1532544295 0.2481610002 0.2502716418 -0.4868211359 -0.0030267310 0.4946520006
-0.1266790744 0.4477611406 0.0721226183 -0.5002496268 0.0149131325 0.4907155832
-0.0970149436 0.1923017979 0.0536690234 -0.4872140015 -0.0028244922 0.4931011202
-0.0691035141 0.2133150641 -0.1797401427 -0.4878245089 -0.0010108656 0.4929234038
0.2219963914 0.2398570311 -0.3500385701 -0.4866203449 -0.0063092231 0.4900809564
0.2164178249 0.4900793445 -0.4467954541 -0.5131817596 0.0008759402 0.4951969856
0.4797400770 0.4477611406 -0.1633262492 -0.4997010299 0.0149131325 0.4901561206
0.0223879973 0.4274604564 0.3713210452 -0.4965112243 -0.0005032238 0.5006416716
0.3140969476 0.2526838056 -0.0619303508 -0.5004147164 -0.0018491192 0.4765125103
0.4875023597 0.3677776874 0.1171741054 -0.4969761048 0.0004209850 0.5018313878
0.0930902725 0.2835820557 -0.2725086242 -0.4992802389 0.0148756699 0.4907204936
0.3510700178 0.2835820557 -0.4276234713 -0.4997903881 0.0148839087 0.4892991953
-0.1601010406 0.1055412710 -0.3156616041 -0.4937157918 -0.0004869850 0.4782457041
0.4402983952 0.2778186534 -0.2399004788 -0.4945937917 0.0006489701 0.4907648220
0.4165600995 0.2517288207 0.1768755610 -0.5007657313 -0.0002265373 0.4788927488
0.0090609840 0.2686566843 -0.2286697190 -0.5001842537 -0.0148879385 0.4909006280
0.0545834711 0.4477611406 -0.1508390865 -0.5000856418 0.0149131325 0.4901857922
-0.1315201933 0.2835820557 0.1616765329 -0.5005431492 0.0148832967 0.4898992848
-0.0731293346 0.4328357692 -0.2860376375 -0.5002011791 -0.0149131325 0.4898645385
0.4311453963 0.4328357692 -0.0552462024 -0.4997449851 -0.0149131325 0.4904129414
0.1075889722 0.4477611406 -0.2357237181 -0.5000376866 0.0149131325 0.4899840907
0.1549217278 0.4477611406 0.1006073014 -0.4999948657 0.0149131325 0.4907832698
0.0934503321 0.2686566545 -0.3772304176 -0.4993099255 -0.0148836848 0.4902777773
-0.0642896640 0.4477611406 -0.0032658951 -0.5001931791 0.0149131325 0.4905364489
-0.0716602750 0.2835820557 0.0611664106 -0.5005882089 0.0148573415 0.4893244640
0.2641507894 0.2686566545 -0.3229178420 -0.5008562536 -0.0148488042 0.4902117325
0.4129811298 0.0344872496 -0.1689414276 -0.5127752821 -0.0006810447 0.4832788378
0.1773480385 0.4328357692 -0.3103683510 -0.4999745821 -0.0149131325 0.4898067176
-0.0609131121 0.2686566843 0.2217013019 -0.5003344179 -0.0148869087 0.4904000011
-0.0111684614 0.4328357692 -0.2984937106 -0.5001451194 -0.0149131325 0.4898349415
0.2034364682 0.4328357692 0.0475411436 -0.4999509851 -0.0149131325 0.4906571802
0.2019018266 0.4328357394 -0.0969754063 -0.4999523731 -0.0149131325 0.4903137773
-0.0175686248 0.2835820557 0.1356427002 -0.4998455821 0.0148898937 0.4898900609
0.4941908365 0.0765610804 0.1171741054 -0.4932109710 -0.0004903134 0.5011471640
-0.0545320681 0.4326082319 -0.3007362924 -0.4975241197 0.0001547463 0.4756936895
0.4812516142 0.0379568313 0.0873233627 -0.5029946116 -0.0005428358 0.4805797784
0.4701491379 0.0996492269 -0.2996881582 -0.5103932376 -0.0005236417 0.4868910463
-0.0905225265 0.0463249795 -0.2514645819 -0.5135542820 -0.0009715670 0.4856832704
0.0243499523 0.4477611406 0.0304417128 -0.5001130000 0.0149131325 0.4906165384
0.0640152162 0.4477611406 0.0581622766 -0.5000771045 0.0149131325 0.4906824190
0.3195419469 0.4477611406 -0.1014643909 -0.4998459552 0.0149131325 0.4903031056
0.3294267965 0.2686566843 -0.0233170271 -0.4997034926 -0.0148838191 0.4896877326
0.4701491379 0.3702894334 -0.3134829029 -0.5065329097 0.0002396865 0.4769854356
0.4999998806 0.1187312396 -0.2923711740 -0.4891213595 -0.0003570149 0.4958283438
-0.1790368741 0.5191946992 0.3091907392 -0.4994159105 -0.0006961193 0.5026108504
0.3845623720 0.2528096862 -0.4201392633 -0.5037052682 -0.0009092685 0.4770162117
0.0973577197 0.1352854018 0.1168312398 -0.5120022374 -0.0011129252 0.4853528525
0.4173499800 0.0676314546 -0.1733102778 -0.5113875658 -0.0010249402 0.4815703903
0.3785722235 0.4328357692 0.0678684397 -0.4997925523 -0.0149131325 0.4907054787
0.2141533774 0.2637691178 0.1429090426 -0.4857261510 0.0019400147 0.4901837922
0.1336000139 0.2835820557 -0.2375732254 -0.4986443584 0.0148401624 0.4907017623
0.2393305983 0.2686566843 -0.0612440524 -0.5010728058 -0.0148312967 0.4894561654
-0.1760681581 0.1679846814 0.2883150999 -0.5104845510 0.0013568058 0.4981294032
0.4927631203 0.0601663809 -0.3156616041 -0.4941331201 -0.0005504328 0.4793965099
0.2313431963 0.3962453706 -0.4488935882 -0.4916539264 -0.0009594476 0.4787382563
0.1228672838 0.4334258587 -0.3156616638 -0.5000238657 -0.0137339685 0.4897941505
0.3660396876 0.2390624640 0.1918009622 -0.5000639403 -0.0065677455 0.5036427757
-0.1865672016 0.3581081065 -0.3052717994 -0.5113820583 0.0003434925 0.4851809719
-0.1342737750 0.4328357394 0.0266897580 -0.5002564925 -0.0149131325 0.4906076280
0.1001073761 0.2614748643 -0.4206327259 -0.4862500166 0.0015398804 0.4862128524
0.1972043347 0.0299006979 -0.1962586930 -0.4942123589 -0.0049970591 0.4873670164
0.2333410766 0.2555535367 -0.1813333216 -0.4968234780 0.0003204179 0.5038373876
0.4387768431 0.2736940718 -0.4206989945 -0.4881607626 -0.0005567761 0.4843027183
0.3248034985 0.2686566843 -0.3123225448 -0.4998182985 -0.0148975505 0.4902884788
0.2507861939 0.2686566843 0.0412518757 -0.5008883880 -0.0148456699 0.4901129713
0.4544040651 0.4477611406 -0.2255117790 -0.4997239403 0.0149131325 0.4900083594
0.1186178814 0.1319403126 0.1089263900 -0.4906362548 -0.0002018806 0.4827383901
0.2786842055 0.2821965782 -0.1698186812 -0.5005262686 0.0121268493 0.4912232249
0.2313431963 0.3862421479 -0.4283126205 -0.4897521057 0.0018102834 0.4991036568
0.2064495127 0.4477611406 -0.1106254644 -0.4999482537 0.0149131325 0.4902813444
-0.1748047851 0.2605047301 0.1171741054 -0.5029435817 0.0001065522 0.5014520148
0.4074799961 0.4350820525 0.1171741054 -0.4997664030 -0.0104242376 0.4908226280
0.4219478750 0.4328357394 -0.1485978181 -0.4997533135 -0.0149131325 0.4901911206
0.4764958834 0.1430908486 0.1171740756 -0.5043966562 -0.0003483731 0.5022034923
0.4701491379 0.2239157643 0.0965259735 -0.5107257450 -0.0002578955 0.4935340455
0.4344438586 0.2686566843 0.0040463727 -0.4970679854 -0.0141219535 0.4900214340
0.0136333267 0.4328357692 0.0154627295 -0.5001226866 -0.0149131325 0.4905809563
0.1865670822 0.2491720150 -0.0500266209 -0.5134246850 0.0001094030 0.4919408517
-0.1865672016 0.4225323525 0.1084416736 -0.5117293270 0.0004963283 0.4975253884
0.4402983952 0.4196909797 -0.4316783813 -0.4874770164 0.0000126866 0.4869654642
-0.0949116454 0.2498614179 -0.3736635524 -0.4862038076 -0.0023857908 0.4883544193
-0.0687111261 0.2686566843 -0.3237760360 -0.5007401641 -0.0148722669 0.4904712549
0.0485129793 0.4477611406 -0.0404173982 -0.5000911343 0.0149131325 0.4904481653
0.0223879973 0.1239651643 0.3632722402 -0.4906622250 -0.0000370000 0.4960109109
0.3551477636 0.2835820557 -0.0273304743 -0.4996111642 0.0148818639 0.4895489565
0.0585345303 0.2757281611 -0.4460641706 -0.5000329403 0.0003299403 0.4865522255
0.3217959168 0.2388059416 -0.0575382170 -0.5008076118 -0.0065977455 0.4849697779
0.4144317266 0.4328357692 -0.0545629189 -0.4997601045 -0.0149131325 0.4904145534
-0.0082470289 0.2686566843 -0.2525657758 -0.5003622835 -0.0148795654 0.4907690608
-0.1543609666 0.2388059416 0.2200436155 -0.5002992835 -0.0057797456 0.4914672249
0.4852153749 0.0065717604 -0.3156616638 -0.4990084927 -0.0007571193 0.4790100174
-0.0430141889 0.2797595039 -0.1724080093 -0.5007936566 0.0072674320 0.4913260010
-0.0821296320 0.4328357692 -0.0071736857 -0.5002093134 -0.0149131325 0.4905271653
0.4842594198 0.4477611406 0.0470650989 -0.4996969403 0.0149131325 0.4906560459
0.4360918136 0.0000000000 -0.1796599188 -0.4903212698 -0.0008313730 0.4881137477
0.2981455465 0.2835820557 -0.3565858380 -0.5001394030 0.0148866400 0.4898712251
-0.1796073218 0.4328357991 -0.0497879941 -0.5002975074 -0.0149131325 0.4904259116
0.3803629098 0.4477611406 -0.3021301878 -0.4997909254 0.0149131325 0.4898262997
0.4203549946 0.2593290735 0.0282654295 -0.5148894161 0.0001742985 0.4893157625
0.3188879321 0.2835820557 -0.1749049343 -0.4999001343 0.0148916102 0.4912209563
0.4347980526 0.4328357692 -0.1950485737 -0.4997416866 -0.0149131325 0.4900807475
-0.1716418303 0.3962862512 -0.0009285074 -0.4870358374 -0.0025870743 0.4859591062
-0.0142494311 0.4328357692 -0.0689326485 -0.5001479104 -0.0149131325 0.4903804191
-0.1874183358 0.4477611406 0.1114135091 -0.5003045671 0.0149131325 0.4908089414
0.3002466358 0.4328357692 -0.1115733897 -0.4998634030 -0.0149131325 0.4902790907
-0.0671642308 0.2225973764 -0.1665198906 -0.4915986428 0.0004484179 0.5001008806
0.1016906446 0.1540499965 0.1124982851 -0.5088293572 -0.0005111492 0.4791884801
0.3067800828 0.2835820258 -0.1933261560 -0.5001150597 0.0148926400 0.4911098518
0.1242772986 0.2725397884 -0.2030743041 -0.4984508808 -0.0070610887 0.4909270906
0.2068592738 0.0597014854 -0.2629952820 -0.5013088207 0.0076816707 0.4824492708
-0.0880084522 0.2835820557 0.1545387129 -0.5001185970 0.0148958490 0.4898500609
0.0171142666 0.4477611406 0.1151452549 -0.5001195373 0.0149131325 0.4908178071
0.0127204761 0.2835820557 0.1253563731 -0.4996622687 0.0148939534 0.4895932550
0.0387719506 0.4477611406 -0.2787594891 -0.5000999403 0.0149131325 0.4898818221
0.3247658567 0.2686566843 -0.2080807214 -0.4997934179 -0.0148923564 0.4909042847
0.3176595292 0.2835820557 -0.4097872048 -0.5000219104 0.0149001475 0.4896374639
0.4145635923 0.4477611406 -0.2972133376 -0.4997599851 0.0149131325 0.4898379863
0.4829207483 0.0908379444 0.0873233627 -0.5008789253 -0.0003968507 0.4798501367
0.0481340689 0.4328357692 -0.1525747281 -0.5000914776 -0.0149131325 0.4901816728
0.0612589628 0.4477611406 -0.2040161398 -0.5000795970 0.0149131325 0.4900594340
-0.1071693603 0.2587500288 -0.3694314036 -0.5143204610 0.0012672088 0.4908674787
0.4382293507 0.4477611406 0.0070127753 -0.4997385821 0.0149131325 0.4905608668
-0.0183937291 0.4477611406 -0.3040873667 -0.5001516567 0.0149131325 0.4898216430
0.4256484268 0.0808139306 -0.0470049795 -0.5093067750 0.0000056418 0.4983925972
-0.1664783234 0.4477611406 -0.0873586015 -0.5002856268 0.0149131325 0.4903366280
-0.0675540367 0.0233291912 -0.1664079503 -0.4873213896 -0.0006658805 0.4867550762
0.1045105099 0.2686566843 0.1264977909 -0.4982600450 -0.0148025057 0.4900795833
-0.0800545128 0.1555816978 -0.1792982622 -0.4933674486 -0.0007532984 0.4777930027
-0.1567164589 0.0680674546 0.1079408080 -0.4903209116 -0.0006346268 0.4976343436
0.0949299290 0.2686566843 -0.3057969784 -0.4988449255 -0.0148336400 0.4903194937
0.4999998806 0.4474306331 0.0467194422 -0.4996827015 0.0142526401 0.4906552250
0.2984807853 0.2422032696 -0.1813333216 -0.4994812687 -0.0002269403 0.5050716561
0.2918629054 0.4177900397 -0.4416847831 -0.5000000000 0.0016482386 0.5051424770
0.4253730238 0.0588706646 -0.2840607124 -0.4852291062 0.0000000000 0.4893688371
0.2220865854 0.0544020532 -0.3879099686 -0.5126272970 0.0022072385 0.4875318373
0.2282902414 0.0852523480 -0.4542588264 -0.4957673736 0.0008762089 0.4787120473
0.4668292129 0.4477611406 0.0475271137 -0.4997127015 0.0149131325 0.4906571354
0.4305410829 0.4477611406 -0.1140947923 -0.4997455373 0.0149131325 0.4902731056
0.1980469316 0.2593376108 0.1251931045 -0.5132322372 0.0028890146 0.4923987024
0.0251649224 0.2835820557 0.0902008997 -0.4994502836 0.0148805952 0.4894888669
-0.0677885292 0.2527818504 0.0508976506 -0.4935172247 0.0001770149 0.4788870921
0.3295308114 0.4328357692 0.0466268750 -0.4998369105 -0.0149131325 0.4906550011
0.1276924773 0.4328357692 -0.0884888999 -0.5000195075 -0.0149131325 0.4903339415
0.4701491379 0.1477214301 0.0918016756 -0.5090968049 -0.0003278806 0.4795110472
0.4758103760 0.1188629112 0.0873233627 -0.5059022381 -0.0002800597 0.4798852412
-0.1848597839 0.0997054209 0.0873233627 -0.5084783273 -0.0015863879 0.4807486590
0.2115153628 0.0597014854 0.1260714626 -0.4899823296 0.0080379095 0.4923225382
0.4402983952 0.0954960781 -0.4315255007 -0.4887373297 -0.0005070746 0.4898941206
-0.1263048357 0.5272175788 -0.4334109930 -0.5138922521 0.0003018955 0.4953267319
0.1976220809 0.2310154053 -0.1813333216 -0.5027317758 0.0003642388 0.5040908801
-0.1650576072 0.1478664749 0.2927206367 -0.4937403440 0.0004878507 0.5007443283
-0.1880089925 0.4477611406 -0.0050140442 -0.5003051044 0.0149131325 0.4905322996
0.3650053893 0.4477611406 -0.2394723147 -0.4998048209 0.0149131325 0.4899751803
0.3773859102 0.5087637154 0.2067263335 -0.4988843434 -0.0006605074 0.4769218834
0.4176927262 0.2686566843 -0.3031864116 -0.4991552091 -0.0148722221 0.4905715086
0.4858055689 0.2216481228 -0.3156616638 -0.4986272688 -0.0000325522 0.4790402413
-0.1725108451 0.4443890066 0.3008790089 -0.4978470152 -0.0008157163 0.5029803877
-0.0872299299 0.2048556472 -0.1715482183 -0.5094926705 0.0003639104 0.4994792836
0.4098071749 0.5221589974 0.2067263335 -0.4966184183 0.0100680585 0.4799621367
0.2044658711 0.4328357692 0.0004557164 -0.4999500597 -0.0149131325 0.4905452996
0.2747141314 0.2835820557 -0.3931199381 -0.5002656268 0.0148704012 0.4894304938
-0.1143358669 0.5162579533 -0.4315553962 -0.4934727172 0.0018805669 0.4983244330
0.3549466591 0.2832947274 -0.0619303508 -0.4994550448 0.0143001475 0.4894050759
0.0629175000 0.4477611406 0.0233145196 -0.5000781045 0.0149131325 0.4905996131
0.3634357775 0.2686567142 0.0551306800 -0.4992736120 -0.0148614161 0.4902046131
-0.1716418303 0.3930426695 -0.0163532667 -0.4868615389 -0.0033289698 0.4865933300
-0.1148151505 0.2686566843 0.1207673736 -0.5010143879 -0.0148377445 0.4895804938
0.0112930434 0.4328357692 -0.2616205061 -0.5001248060 -0.0149131325 0.4899225534
-0.1587307870 0.3437214366 -0.3156616638 -0.4940639709 0.0002120149 0.4774163311
-0.0821902588 0.4328357692 -0.0944505857 -0.5002093731 -0.0149131325 0.4903197773
0.4166374876 0.0541785905 0.0927637501 -0.4861574345 0.0003994179 0.4941667619
-0.1310195515 0.3956815647 0.1022487341 -0.4968888362 0.0000417463 0.4757662417
0.0615118733 0.2644481028 0.0955619737 -0.4962922094 0.0041961637 0.4772228982
0.3380114522 0.2686566843 0.0726806182 -0.4995949851 -0.0148798788 0.4903134937
0.2258893760 0.4477611406 -0.0625979776 -0.4999306717 0.0149131325 0.4903954638
-0.0048809397 0.4328357692 -0.1991257523 -0.5001394328 -0.0149131325 0.4900710460
-0.0678547979 0.4257232925 0.3336308855 -0.5000000000 -0.0008960745 0.4983730599
0.0753730507 0.4477611406 0.0443941887 -0.5000668358 0.0149131325 0.4906497026
-0.1636048014 0.2429542844 -0.2858109211 -0.4970276272 0.0000735522 0.5022670893
0.4222390541 0.4328357692 0.1136774491 -0.4997530448 -0.0149131325 0.4908143295
0.3488438240 0.2835820557 0.1896014699 -0.4999033881 0.0148719087 0.4914852547
-0.1029097638 0.3298002741 -0.4095096974 -0.4904824489 0.0015372237 0.4987069852
-0.0898954370 0.4328357692 -0.1884779626 -0.5002163433 -0.0149131325 0.4900963594
-0.0535409190 0.4140986371 -0.3007362924 -0.4982835226 0.0001193731 0.5050354322
0.1431675053 0.4328357692 -0.1260625223 -0.5000055075 -0.0149131325 0.4902446579
0.0788094682 0.2835820557 -0.4230078002 -0.4999323284 0.0148819833 0.4895619415
-0.0575240081 0.4344158437 0.1171741054 -0.5001870597 -0.0117555956 0.4908226280
-0.0320708917 0.2561172679 0.0760280954 -0.5036441190 0.0008643730 0.5030627907
0.1950647976 0.2198646454 -0.1962586930 -0.4990092538 -0.0037854921 0.4870000165
0.1617365926 0.4477611406 0.0317991455 -0.4999887015 0.0149131325 0.4906197623
0.2325568976 0.2835820557 0.1231740301 -0.5001322537 0.0149139087 0.4902452847
-0.0050507158 0.2686566843 0.2397844341 -0.4995372090 -0.0148724460 0.4905890608
0.0576047095 0.3444555708 -0.4538450204 -0.5028450146 -0.0074321484 0.4785040175
0.2983112181 0.4328357692 -0.2530960295 -0.4998651493 -0.0149131325 0.4899428072
0.2014924536 0.0591299929 0.2004375432 -0.5104777002 -0.0015674625 0.4813844201
0.1266848207 0.4477611406 0.0419514129 -0.5000204179 0.0149131325 0.4906438966
0.3693755529 0.2686566843 0.0278503549 -0.4991985225 -0.0148565803 0.4900285087
0.2671910427 0.4477611406 -0.2599751779 -0.4998933134 0.0149131325 0.4899264639
0.0734579017 0.2388059416 0.2298021815 -0.4920405980 -0.0054029397 0.4947512245
0.0782586772 0.4070699663 -0.3007362924 -0.4990804628 0.0000574776 0.4754984059
0.2632350880 0.4477611107 -0.0468653228 -0.4998968806 0.0149131325 0.4904328519
0.4402983952 0.1933393948 -0.0615837240 -0.4894606729 0.0006569999 0.4802587337
0.1865670822 0.2280248683 -0.0580289931 -0.5114760285 0.0005980447 0.4837672407
0.0408996369 0.2686566843 -0.3309259157 -0.4995394478 -0.0148741176 0.4901680758
0.0092973869 0.2835820557 -0.3020450684 -0.5000356866 0.0148895206 0.4903880758
-0.1567164589 0.3892057446 -0.2985894121 -0.4960076124 0.0000800000 0.5046337009
0.4335585154 0.4462521706 -0.4198877708 -0.5002764328 0.0015270297 0.4994584329
0.2164178249 0.1703064722 0.1929409919 -0.4885005835 -0.0002931343 0.4895452102
0.1912267085 0.2006776178 -0.1962586930 -0.5073015066 0.0024731490 0.4837581064
0.0097131779 0.5254253999 0.3555888680 -0.5026189997 0.0019617311 0.4775855251
-0.0029925519 0.4328357692 0.0607875301 -0.5001377313 -0.0149131325 0.4906886578
-0.1183827471 0.3846197899 -0.4206970095 -0.5126819537 -0.0000338358 0.4930903292
-0.1596550257 0.2746748777 -0.3156616638 -0.4942669410 0.0000140896 0.4777062415
-0.0060508500 0.4328357692 -0.2436347172 -0.5001404925 -0.0149131325 0.4899652848
-0.1096862556 0.2287801518 -0.4213924721 -0.5078260588 0.0013660297 0.4820034947
0.4358429480 0.2835820557 -0.2209463915 -0.4988697166 0.0148559684 0.4909164936
-0.0987786151 0.2645698341 -0.3065008141 -0.5146366550 0.0021704475 0.4909452847
0.4228822480 0.2424644337 -0.4201392633 -0.5009680148 -0.0054074919 0.4770621371
0.4228983674 0.2392116729 -0.0098855809 -0.4856052107 0.0000000000 0.4940506873
0.4073935036 0.2438681052 -0.0470049795 -0.5088568945 -0.0026054325 0.4992025225
0.1559524291 0.4477611406 0.0643424401 -0.4999939403 0.0149131325 0.4906971056
0.3342871690 0.2431773590 -0.1772880385 -0.5048198502 -0.0013124775 0.5030478056
-0.0983172121 0.2214344810 0.0425472487 -0.4997690299 0.0002544925 0.4764435998
0.4400613206 0.0050501934 -0.0470049795 -0.4902346728 -0.0005112537 0.5015726416
-0.0861055420 0.2835820557 0.2113324375 -0.5002996567 0.0148604908 0.4908632847
-0.1434995650 0.2388059416 0.2853044435 -0.4934807769 -0.0114436554 0.4919223442
-0.0969465407 0.1432904456 -0.1812648888 -0.5147529833 -0.0001587761 0.4898983445
0.4850745092 0.4296270980 -0.1738572031 -0.4850816286 0.0001552537 0.4905412549
0.3585479124 0.4477611406 -0.0777077071 -0.4998106567 0.0149131325 0.4903595683
0.2919417114 0.4328357692 -0.1668499950 -0.4998709254 -0.0149131325 0.4901477474
0.3343627213 0.2399671206 -0.0470049795 -0.5025911191 -0.0055945963 0.5023424624
0.2124506015 0.2553766411 0.1173668367 -0.4860564196 -0.0009464626 0.4906694787
0.2141318550 0.2399345236 -0.4029941907 -0.5108160286 -0.0092722675 0.4880387178
0.4095197123 0.2680230725 0.1918009622 -0.5072818499 0.0055219695 0.5019190595
0.2145692281 0.4328357692 0.0820949454 -0.4999409105 -0.0149131325 0.4907392847
0.4096231600 0.4477611406 0.0306255784 -0.4997644627 0.0149131325 0.4906169862
-0.1119403448 0.0159362817 0.0541300682 -0.5137831625 -0.0007165522 0.4897026579
0.2592517452 0.2835820557 -0.3681213740 -0.5003561940 0.0148596848 0.4894924639
-0.0337016527 0.2578183274 0.3223581257 -0.5077224021 0.0016928356 0.4987097763
0.2758855939 0.4328357692 -0.2537806712 -0.4998854478 -0.0149131325 0.4899411803
0.2269882863 0.3105164555 -0.4165454727 -0.4963232243 0.0015751789 0.5012706416
-0.1494690120 0.2835820557 0.2596788197 -0.5001529104 0.0149109087 0.4906038668
0.2022166176 0.2287179279 0.1781365757 -0.5097073421 -0.0011167312 0.4796428233
0.0846294377 0.2645593565 0.1808992918 -0.5124836254 0.0052884919 0.4861130017
0.4701491379 0.3197719917 -0.2978613823 -0.5052000889 -0.0000964925 0.5037388354
0.2853216077 0.2539420592 0.1918009622 -0.4980828360 -0.0001666865 0.5031361787
0.2901695773 0.2835820557 0.0959400184 -0.5000484627 0.0148844311 0.4906084190
0.0823123335 0.0540768294 -0.4733039584 -0.5124417000 0.0005363283 0.4825794797
-0.1774324863 0.0489385912 0.3050866054 -0.5035086264 0.0010583432 0.5019657311
0.2278924355 0.2835820557 -0.2196095409 -0.5009899999 0.0148514161 0.4908803742
0.1888412163 0.0459273378 -0.0094960884 -0.5124352821 -0.0055479993 0.4931619710
0.0466608004 0.4328357692 0.0349563391 -0.5000928060 -0.0149131325 0.4906272698
0.4701491379 0.2664797145 -0.3029747847 -0.5097552526 -0.0002417164 0.4805005993
0.1057655396 0.0578920080 -0.4182452336 -0.4870820165 0.0052409397 0.4862277778
0.2079090647 0.3432138545 0.2000850955 -0.5029380444 -0.0010043581 0.5018838654
0.4707667796 0.4477611406 -0.0376171746 -0.4997091493 0.0149131325 0.4904548220
-0.1090503750 0.4328357692 -0.0324781603 -0.5002336716 -0.0149131325 0.4904670310
0.0269268625 0.2686567142 0.2067249156 -0.4991644329 -0.0148520281 0.4904403892
0.4310042023 0.2835820557 -0.3419729442 -0.4978618510 0.0138892073 0.4903612250
0.0915808398 0.2647898938 -0.2040111846 -0.4989903285 0.0021484027 0.5043038950
0.4342796049 0.4308074262 -0.3007362924 -0.5007626566 0.0003974776 0.5051924770
0.4402983952 0.3048453964 -0.3980303107 -0.4917127473 0.0015097162 0.5012570148
0.4852070615 0.2039982294 0.1171741054 -0.4990138210 -0.0000939552 0.5016071938
0.3001783224 0.4328357692 0.0632578133 -0.4998634627 -0.0149131325 0.4906945235
0.2712512960 0.2686566843 -0.2300098830 -0.5006943581 -0.0148608788 0.4907545683
0.2722633854 0.2835820557 -0.0528892325 -0.5004217611 0.0148735355 0.4894180311
0.1937549321 0.4477610809 -0.0543320980 -0.4999597463 0.0149131325 0.4904151056
0.4701491379 0.2389531804 -0.2951527110 -0.5106860584 -0.0002312537 0.4866159419
-0.0269783998 0.3889331625 -0.3007362924 -0.4943670604 0.0000044776 0.4774780176
-0.0213870124 0.4477611406 -0.1760407402 -0.5001543731 0.0149131325 0.4901259116
0.2913339652 0.2835820557 0.0695016932 -0.5000448955 0.0148844311 0.4904018668
0.2002463044 0.1405200280 -0.1813333216 -0.4957639408 0.0000079701 0.5018705371
0.3228072749 0.2835820557 0.0336571303 -0.4999620597 0.0148842072 0.4901441206
0.0093444168 0.4328357692 -0.2784678026 -0.5001265671 -0.0149131325 0.4898825236
-0.0520131729 0.4061233843 -0.4403884698 -0.5023692236 -0.0015989849 0.4760288238
0.0930961381 0.4477611406 -0.1346727451 -0.5000508060 0.0149131325 0.4902242101
0.1417909681 0.0511481133 -0.2140106461 -0.5129528641 -0.0009062685 0.4953798662
0.2301912710 0.4477611406 -0.1136431208 -0.4999267761 0.0149131325 0.4902741803
0.4353007391 0.4135015476 -0.3007362924 -0.5052343725 0.0001304627 0.4768253759
-0.1366189538 0.3432835411 0.2932071590 -0.4960670751 -0.0091727899 0.4809960023
0.0602170376 0.2388059416 -0.4321502618 -0.5001077761 -0.0145176998 0.4896617027
0.4225636958 0.4328357692 0.0297442651 -0.4997527463 -0.0149131325 0.4906148817
-0.1758786208 0.4477611406 -0.1236105226 -0.5002941343 0.0149131325 0.4902504937
0.0122956702 0.2686566843 -0.2923921293 -0.5000623433 -0.0149002221 0.4904943295
0.0404571295 0.4286097399 -0.3007362924 -0.4994570299 0.0001308209 0.5051836710
0.2572536409 0.2835820557 -0.0461938751 -0.5005968805 0.0148666549 0.4894821953
0.2164178249 0.3809031635 0.1894783505 -0.4901416877 0.0013791640 0.4794188532
0.2017009461 0.2819961604 -0.3024039340 -0.5073874170 0.0079199095 0.4895829565
0.0509560835 0.2686566843 0.1653515325 -0.4989160001 -0.0148403564 0.4902156579
0.3599332705 0.2700864304 -0.1664079503 -0.4993778508 -0.0120132821 0.4911897324
0.2511725670 0.2835820557 0.0679507979 -0.5001381045 0.0149050878 0.4899708818
-0.1567164589 0.0975940480 -0.2985810390 -0.4894779565 -0.0005187611 0.4877112552
0.0386016521 0.4477611406 -0.0040061189 -0.5001001045 0.0149131325 0.4905346877
0.1268522237 0.0560390679 0.1171607323 -0.4851055391 -0.0004829253 0.4902961653
0.0595203660 0.2835820557 -0.2191215410 -0.4995671642 0.0148844609 0.4910688966
0.2798336830 0.4477611406 -0.0165668935 -0.4998818657 0.0149131325 0.4905048370
-0.0955522871 0.1180356128 -0.1813333216 -0.5146129087 -0.0002941791 0.4889595834
