-0.0457257667 0.1250050861 -0.0841875920 -0.5030342693 0.0194417702 0.4795639706
-0.1522421006 0.0416683620 0.0439368085 -0.4998146800 0.0208325143 0.4791302863
-0.1873614045 0.3235671026 -0.4463571612 -0.4978860807 -0.0007510097 0.4585607410
0.2751873946 0.1250050861 0.1328730938 -0.5001082961 0.0203709747 0.4829717342
0.4768839761 0.5832886701 -0.1146011003 -0.4793571184 -0.0004003913 0.4796294733
-0.2529596360 0.2677002254 -0.4404764219 -0.4972929732 -0.0009273294 0.4586424735
0.3908453088 0.1968734478 0.1666734899 -0.4910649490 -0.0045666650 0.4936644401
0.0975956897 0.4167819370 -0.2708443116 -0.5000000000 0.0000000000 0.4583520242
0.4065233217 0.7469041605 0.0722782325 -0.5145482169 0.0130773863 0.4772705439
0.1872011688 0.1250050861 -0.1851892224 -0.5006853404 0.0203251186 0.4779758018
-0.0500705685 0.3958494395 0.1828153966 -0.4995740868 -0.0169998167 0.4837007639
0.1881286441 0.4090154960 -0.3048445075 -0.4980852763 0.0170040877 0.4898700566
0.3574106567 0.5308084723 -0.2073883756 -0.5139686308 0.0082546067 0.4763550067
-0.0434353610 0.3333468964 0.0022891973 -0.4981145900 -0.0202980550 0.4819877150
-0.0107470727 0.3618559313 0.3253825307 -0.5002132170 -0.0013288457 0.4999593629
0.2961795821 0.3497761899 -0.3244064285 -0.4804015151 -0.0040178093 0.4795583870
0.0091144021 0.0416683620 -0.1512446329 -0.4997484689 0.0207154887 0.4803161470
-0.0095864838 0.3333468964 0.0603045161 -0.4981533207 -0.0201936758 0.4826677635
-0.2434134976 0.1717086947 0.3053670288 -0.5012445715 -0.0018284286 0.4998907351
-0.0369764941 0.0416683620 -0.1419614219 -0.4997210303 0.0207461149 0.4802435191
0.0202728353 0.2503268518 -0.2916784927 -0.5087507519 0.0035366647 0.4640254009
0.2412138456 0.4166836205 0.1927700100 -0.5003514518 -0.0201486323 0.4814861530
-0.1808694737 0.4375178015 -0.3853589501 -0.4939027936 0.0155862800 0.4868733097
0.4167039651 0.4048408886 -0.0370723834 -0.5200831505 0.0000041877 0.4750638083
0.4812987183 0.6230213700 0.2718053299 -0.4793701815 0.0001013791 0.4807340807
0.2708646979 0.5918004122 -0.1667232836 -0.5204738330 0.0025714588 0.4813638772
0.2708646979 0.5554521416 0.1481345064 -0.5206406732 0.0000000000 0.4820192372
0.4167039651 0.0236418161 -0.3284581141 -0.4841856274 0.0020461874 0.4847483482
0.4167039651 0.3748793571 -0.1720930020 -0.5194847511 0.0010035825 0.4746690631
0.2786150549 0.0416683620 -0.2732405966 -0.5001039417 0.0206022341 0.4764467188
-0.0823541529 0.1889972732 -0.4321919181 -0.4970405879 -0.0016936522 0.4587525822
-0.2221381945 0.3333468964 -0.2442129781 -0.4976364455 -0.0206445066 0.4793294194
0.1653302581 0.3333468964 -0.1627649350 -0.5000000000 -0.0205755663 0.4778831730
-0.2708240087 0.1752038994 -0.2481770977 -0.5070566621 0.0177160542 0.4719746826
0.4128804553 0.7955223053 -0.4069510162 -0.4852980476 0.0147019524 0.4803489609
0.2967594390 0.2702523709 0.2455034889 -0.5157345985 0.0034113055 0.4898046164
0.4010327024 0.7227452609 -0.2088534352 -0.5041647111 0.0128233134 0.4718169262
0.0997359434 0.4375178015 -0.2842685453 -0.5004852906 -0.0208153261 0.4791862052
0.4827904873 0.6364468954 0.1143395064 -0.4793618270 0.0002823865 0.4803903167
0.3029977553 0.2952059070 0.2430176586 -0.5169074796 0.0035678118 0.4867733264
-0.2045496455 0.0416683620 0.0902769440 -0.5003771195 0.0208017422 0.4786656424
0.3823239621 0.6656388332 -0.2297466603 -0.4952095134 0.0084320097 0.4727103376
0.4008863215 0.7221015055 -0.3357804121 -0.4989556867 0.0129528395 0.4691137121
-0.1069392157 0.0416683620 -0.1514771007 -0.4996939250 0.0208003880 0.4796287024
-0.2364757570 0.0565676766 -0.2916784927 -0.5059519297 0.0032072347 0.4615653424
0.1150104191 0.2500101723 -0.0593344350 -0.5006808819 0.0204286437 0.4770463057
0.3740406459 0.8125330599 -0.2408346115 -0.5000000000 0.0208341810 0.4791862052
0.3594872204 0.1843401878 -0.2916784927 -0.5011352129 0.0034114513 0.4642735151
-0.2049091393 0.2694692140 0.1666734690 -0.4908119595 -0.0072266274 0.4935021835
-0.1237502330 0.0416683620 0.1853895014 -0.4997533233 0.0208124510 0.4793365447
-0.1223644058 0.0746220987 -0.2916784927 -0.5047974869 0.0076039761 0.4650756311
-0.0983368448 0.2500101723 -0.1377197076 -0.5018150322 0.0198999347 0.4746854596
-0.2708240296 0.1541410633 0.0812583479 -0.5057825478 0.0188171823 0.4816217418
-0.0385813094 0.4791861636 -0.3602651791 -0.5013623054 -0.0198704751 0.4742133571
0.0506671136 0.0906616055 0.1666734899 -0.5015807935 0.0200052098 0.4842699121
0.3959376618 0.1250050861 -0.1756687517 -0.4925977822 0.0167605153 0.4789802385
0.0570829580 0.0990653849 0.2977203635 -0.5005448347 -0.0020254157 0.4998993813
-0.0144876624 0.4791861636 -0.3884288667 -0.5009843734 -0.0208087633 0.4791862052
0.2500305169 0.3611676117 -0.0274118237 -0.5201415487 0.0000000000 0.4831685756
0.4656509149 0.4821909941 0.1113954491 -0.4793562017 -0.0017210492 0.4801267435
0.4712768522 0.5328244293 0.1309858712 -0.4793590977 -0.0010642100 0.4802565613
-0.1469142588 0.3497870445 -0.2916784927 -0.5000000000 0.0000000000 0.4583520242
0.4167039651 0.4114834506 0.1326250212 -0.5139183580 0.0000000000 0.4649552304
-0.2014242475 0.2500101723 0.1133719670 -0.5069536996 0.0192956393 0.4786708718
0.3015896772 0.2895733028 0.0521788314 -0.5199286025 0.0039577027 0.4825016318
-0.0137718624 0.3795465470 -0.2708443116 -0.5000000000 0.0000000000 0.4583520242
0.4524132096 0.6356466129 -0.3958493978 -0.4924988823 0.0033145307 0.4672285312
-0.1841241478 0.0416683620 -0.2175495599 -0.4997660946 0.0208314934 0.4792703336
-0.1946895568 0.4791861636 -0.4146408915 -0.5011397964 -0.0208019089 0.4791862052
-0.2266121890 0.1250050861 0.1265523366 -0.5034491820 0.0194587084 0.4849160634
-0.1418264060 0.1588020863 -0.4290134972 -0.4966667602 -0.0017416542 0.4587972090
0.2500305169 0.3492922743 0.0980634900 -0.5201740500 0.0000000000 0.4830259031
0.2500305169 0.3762082653 0.1342780884 -0.5207343436 0.0000000000 0.4810943037
0.3333673243 0.7713333628 0.0495940804 -0.5206362146 0.0016702138 0.4807046420
0.2661890493 0.3548898146 -0.2916784927 -0.5000000000 -0.0118915880 0.4687320924
0.2789165880 0.3333468964 -0.3503412337 -0.4964351675 -0.0177468679 0.4811846824
0.4110013997 0.1773297568 -0.4309636807 -0.4987188854 -0.0019866225 0.4585071555
-0.1631800040 0.4394466925 0.3333469381 -0.5005548142 -0.0010186456 0.4961250403
-0.2383728342 0.2500101723 0.0457665080 -0.5065434329 0.0192518041 0.4775978073
-0.0346199398 0.2835648709 -0.2916784927 -0.5001378389 -0.0017891770 0.4586956215
0.1033495905 0.3827586985 -0.2916784927 -0.5000000000 0.0000000000 0.4583520242
0.3691654892 0.6173910368 -0.3228001339 -0.4896091397 0.0062203781 0.4718503026
0.4943347903 0.7403462062 -0.1043692257 -0.4794781859 0.0016163783 0.4783065653
-0.2329453009 0.3333468964 0.0254615151 -0.4963052247 -0.0196917595 0.4836049475
0.4167039651 0.2300179214 0.3092564162 -0.4899399865 -0.0011932569 0.4905221873
0.0861641204 0.0416683620 0.1009026471 -0.4998986625 0.0206525070 0.4811605772
-0.1024609710 0.0906954610 0.2968393277 -0.5010201873 -0.0020458541 0.4998789847
0.4167039651 0.2683515436 0.1024014165 -0.5067649627 0.0163982714 0.4779666764
0.3424850494 0.2500101723 0.1446201551 -0.5003581396 0.0208039715 0.4791714963
0.1319262115 0.0416683620 0.0656263160 -0.4998925373 0.0206166513 0.4815930323
0.3563786772 0.4077334647 -0.4552167716 -0.4987522409 -0.0020387496 0.4585180726
0.3458930631 0.2500101931 -0.1353146931 -0.5004919992 0.0203584533 0.4757941505
0.4461627262 0.3312167055 0.2175446430 -0.4793631187 -0.0026838800 0.4798980467
0.1419885376 0.2500101723 -0.0532646672 -0.5005720024 0.0204934797 0.4773884654
-0.1332436193 0.2619873888 -0.2916784927 -0.5015880438 0.0000540022 0.4594038587
0.4916404724 0.7160963653 0.0434514971 -0.4794060371 0.0013109283 0.4797232896
0.2338519628 0.0416683620 0.0757345606 -0.4999555399 0.0205448359 0.4820147578
0.2961158503 0.3333468964 -0.2716601365 -0.4898696503 -0.0056850438 0.4792667710
0.3844972380 0.2655205742 0.2916785760 -0.5042050253 0.0007551766 0.4987995032
0.2708646979 0.5391695625 -0.0327379154 -0.5206406732 0.0000000000 0.4820192372
0.3711465281 0.5912457855 0.0399319997 -0.5175774443 0.0095544096 0.4784029650
0.3406428703 0.1250050861 0.1567863376 -0.5000000000 0.0183044948 0.4875917972
0.4685466161 0.5082522003 -0.2240555329 -0.4793383260 -0.0013684098 0.4793902135
-0.1017731096 0.0416683620 -0.2424320931 -0.4996432772 0.0207956170 0.4797410195
0.2245981696 0.2285674873 0.3113521681 -0.4995662115 -0.0016851311 0.4999243407
0.4539189584 0.3855098313 -0.3095680122 -0.4793314924 -0.0025933555 0.4789053396
0.1789332699 0.4328128184 -0.3750152168 -0.4982963265 0.0139011073 0.4929436608
0.4087138275 0.2500101723 -0.0411600705 -0.5072440447 0.0152272654 0.4746077481
0.2402462854 0.4791861219 -0.4317136278 -0.5007646978 -0.0208184721 0.4791862052
-0.2882734479 0.4791861636 -0.4778062532 -0.5012205080 -0.0207983671 0.4791862052
-0.2708240087 0.2796851922 0.2256937037 -0.5130061125 -0.0114531118 0.4813926492
0.2813219150 0.3168088277 0.1666734899 -0.5034510987 -0.0002653233 0.4974051757
0.3159554492 0.4209998794 0.2206017257 -0.4818489490 -0.0044771822 0.4837084517
0.4167039651 0.0995237577 -0.1694705620 -0.4850466833 0.0122359562 0.4769828031
0.2725198694 0.2500101723 0.1456107370 -0.5002852199 0.0207731994 0.4791825801
0.4030414717 0.8053613723 -0.3325470097 -0.4853366742 0.0146633258 0.4810236550
0.4945190062 0.7420036694 -0.3095707832 -0.4795529389 0.0016295038 0.4766264136
-0.0279707735 0.0661341700 0.2942539100 -0.5008612225 -0.0021121484 0.4998789222
0.1594678738 0.0957934393 -0.4223808940 -0.4986329444 0.0003237632 0.4585922423
-0.0467262241 0.4375178015 0.2292631406 -0.5046827322 -0.0198952887 0.4791862052
0.3750042892 0.3181840503 -0.3958493978 -0.5092538974 0.0007830735 0.4610606761
-0.0854431536 0.0416683620 -0.3534605064 -0.4994422898 0.0207822206 0.4784013816
0.3796662706 0.8125330599 0.2114854381 -0.5000000000 0.0208341810 0.4791862052
0.0361545856 0.0416683620 0.0215678359 -0.4998376184 0.0206906960 0.4807740615
0.4846165199 0.6528820016 -0.0533061689 -0.4793904531 0.0004955202 0.4795039265
-0.2708239879 0.0211297556 0.2747913889 -0.5179194374 0.0002940745 0.4854426681
-0.2015701910 0.4166836205 -0.3723342535 -0.4948038928 0.0180938404 0.4872848056
0.1183396170 0.1250050861 -0.2683574188 -0.5025730422 0.0194691046 0.4749408867
0.1049078830 0.3333468964 -0.2691355755 -0.5000000000 -0.0205669201 0.4762642113
0.0080541923 0.0416683620 -0.3553047481 -0.4995471899 0.0207326561 0.4776774147
-0.2607307439 0.0416683620 0.1287370088 -0.5012275916 0.0207458649 0.4779367586
0.3496903634 0.1982312322 -0.3958493978 -0.5141001154 -0.0076376233 0.4703522416
0.0442359561 0.3333468964 -0.0707772339 -0.5000000000 -0.0204973757 0.4787891474
-0.1118574366 0.3000882515 0.3188806620 -0.5005838779 -0.0014879772 0.4999484875
0.4124957938 0.2428261092 -0.4378580862 -0.4987513659 -0.0020366662 0.4585049054
-0.0636916644 0.1250050861 -0.2757305730 -0.5056627512 0.0181424048 0.4730472054
-0.1196625042 0.0416683620 -0.3241840652 -0.4995109593 0.0208075341 0.4789102148
0.3983314050 0.3728431701 -0.2916784927 -0.5000000000 0.0022314450 0.4600743026
0.3029644623 0.1412535806 0.1882741812 -0.5111106396 -0.0149494833 0.4827325995
-0.2708240087 0.0834237068 -0.0598388930 -0.5146286369 0.0083297764 0.4777703976
0.3392335213 0.4342960038 0.2083418519 -0.4999390600 -0.0161100305 0.4909339124
-0.2916581898 0.2943459345 -0.0872495708 -0.5208263057 0.0000000000 0.4792085186
-0.0241756399 0.2291089885 0.1666735107 -0.4983098479 -0.0003823281 0.4984449471
0.3066545291 0.6966050931 0.2680394684 -0.5188046609 0.0088576937 0.4803564403
-0.1778905817 0.2500101723 -0.2433298380 -0.5018399082 0.0197382823 0.4734036574
0.2071576058 0.2021465582 -0.2916784927 -0.5018045109 0.0073746959 0.4662898263
0.3795849756 0.6432229211 0.2458953590 -0.5077606699 0.0059008234 0.4882251772
0.4837934656 0.6454738044 -0.1408396262 -0.4794158917 0.0003969328 0.4788598586
0.4013764456 0.2500101723 -0.0158050597 -0.5050690604 0.0175275882 0.4759363438
0.2721572088 0.4228282663 0.2083418519 -0.5001404432 -0.0100462213 0.4969121973
-0.0235124879 0.1977469417 0.1666734899 -0.5004901033 0.0084102589 0.4964901593
0.1422733825 0.4375178015 -0.3868086758 -0.4973279746 0.0193548917 0.4832293489
0.2877426346 0.2302290549 0.1061172760 -0.5184805228 0.0005931491 0.4842933714
0.3385889743 0.4479929569 -0.1870772992 -0.5190114194 0.0062608797 0.4787344993
0.3333672410 0.7527435856 -0.0216183796 -0.5202285731 0.0043855743 0.4805611570
-0.2708240087 0.0791663461 -0.3458032990 -0.5028907426 0.0065417453 0.4642492016
0.4438619034 0.3151108211 0.1371905611 -0.4793592435 -0.0027007557 0.4796421613
0.1138868525 0.1250050861 -0.0287497948 -0.5011661724 0.0201413612 0.4809251093
0.1255555356 0.4280768757 0.3323531685 -0.5002252383 -0.0011649641 0.4999807388
0.1068139606 0.2500101515 -0.0312930441 -0.5007197585 0.0204054761 0.4769241132
-0.2138434612 0.1250050861 0.0193837053 -0.5045437265 0.0188923729 0.4814766734
0.1673077553 0.3206651929 0.1666734899 -0.4982441786 -0.0179273961 0.4847182845
-0.2708239879 0.1061513815 -0.2217663148 -0.5106731426 0.0128340222 0.4719464732
-0.2708240087 0.3176625916 0.2269120450 -0.5130293843 -0.0127315180 0.4808617317
0.2768591085 0.6161799875 -0.2926423027 -0.5199962094 0.0052036076 0.4808906496
0.3410335946 0.5142408398 -0.0272423793 -0.4942410157 0.0011039616 0.4786368287
0.3145531005 0.7124022359 -0.1684857719 -0.5187169699 0.0090397636 0.4803059591
0.3182520843 0.7198003494 0.0120505320 -0.5189148113 0.0085550564 0.4803519193
0.2708646979 0.5448198340 0.2006472055 -0.5206406732 0.0000000000 0.4820192372
-0.1254872620 0.4375178015 0.2400486211 -0.5047771735 -0.0200351693 0.4791862052
-0.2708240087 0.2290700495 -0.3179768127 -0.4936633672 0.0079071967 0.4747264404
0.4813265319 0.6232720677 -0.0454632665 -0.4793641395 0.0001156922 0.4798326482
0.0414982822 0.1678293494 0.1666734899 -0.5008832651 0.0120652201 0.4938002582
0.1624140145 0.3333468964 -0.1080163116 -0.5000000000 -0.0205631908 0.4786194947
-0.0267667453 0.2323320155 -0.4367534371 -0.4975110862 -0.0015661262 0.4586891004
0.0733787252 0.1250050861 -0.1286057118 -0.5016122739 0.0200083141 0.4791695170
0.4057480193 0.7515270569 -0.2487707052 -0.4975525671 0.0125797618 0.4702862389
0.3185907231 0.7204774811 0.2597800906 -0.5191247156 0.0077348980 0.4803692950
-0.0807895892 0.1413498137 -0.2916784927 -0.5029496617 0.0123852331 0.4682003207
0.0545354585 0.1250050861 -0.1427688297 -0.5020952728 0.0197889302 0.4785289701
-0.2916581898 0.3098642118 0.1664876698 -0.5208133885 0.0000000000 0.4801116387
0.3732208417 0.4621142606 0.2329383318 -0.4993001590 0.0168554983 0.4670630870
0.3885866752 0.2618626962 -0.3958493978 -0.5129734029 0.0004966660 0.4633233098
0.0652022258 0.4465786285 0.3632419461 -0.4997254055 0.0147295368 0.4644566684
0.2587496008 0.3775175686 -0.4520361422 -0.4993075552 -0.0013344085 0.4584745292
-0.1727788112 0.0416683620 0.0318310035 -0.4998732240 0.0208331810 0.4791063686
-0.1154744379 0.0416683620 -0.0441772141 -0.4997529483 0.0208079300 0.4794745295
-0.1567939733 0.4232818889 -0.2708443116 -0.5000000000 0.0000000000 0.4583520242
-0.0254403372 0.0416683620 0.2480372795 -0.4993880376 0.0207236349 0.4805097591
-0.1660190361 0.4148787137 -0.3107077669 -0.4940021310 0.0164831082 0.4899200795
-0.1676819996 0.3406113378 0.3231462522 -0.5006540683 -0.0013793895 0.4999559878
0.4167039651 0.3915733071 0.0854102668 -0.5194915639 0.0001986539 0.4723712196
0.3393232541 0.3272607529 -0.4467458853 -0.4988259314 -0.0013295541 0.4585232395
-0.0299060606 0.2500101723 -0.0957775219 -0.5013850147 0.0200724000 0.4753511742
-0.2708240087 0.3014942254 -0.3920289923 -0.4942124937 0.0066428119 0.4815391760
0.4954940250 0.7507782348 -0.0571703261 -0.4794695813 0.0017521963 0.4785962229
0.3663073729 0.6069115270 -0.0278448413 -0.5012957194 0.0053855733 0.4783554006
-0.1593440354 0.2309662099 0.3116046576 -0.5008727647 -0.0016715472 0.4999199655
-0.2708240087 0.1760355999 -0.2075199851 -0.5075906630 0.0176909906 0.4726306677
0.1510934705 0.3333468964 0.0045312052 -0.5000000000 -0.0205351480 0.4801179723
0.0597747133 0.1250050861 -0.1756473342 -0.5024092855 0.0196244860 0.4774857610
-0.1337639946 0.0416683620 -0.2471028873 -0.4996306933 0.0208204305 0.4794601122
-0.2336516004 0.0416683620 0.2566621096 -0.5015018944 0.0204126222 0.4822278915
0.4049235482 0.8034792332 -0.2863844231 -0.4853220486 0.0146779514 0.4807852703
0.2880868570 0.2319497083 0.0159138975 -0.5185689639 0.0026910887 0.4779064657
-0.2037076321 0.1789631566 -0.4311356668 -0.4966911154 -0.0015095614 0.4587693537
-0.1695015528 0.3800911941 -0.4523069866 -0.4983786215 -0.0004770819 0.4584789877
0.4167039651 0.2283077684 0.0116837462 -0.5026432534 0.0148737093 0.4744040106
0.4842255873 0.6493626709 0.0122096426 -0.4793642229 0.0004529351 0.4800671369
-0.2708240087 0.2783411375 -0.0151202402 -0.4874083210 -0.0093855694 0.4858585809
0.2640603585 0.2597020250 0.1666734899 -0.5160892171 0.0033824085 0.4879793338
0.4391879007 0.2823929274 0.2438025030 -0.4793664730 -0.0027464034 0.4797497490
0.0236291177 0.1250050861 -0.2671374733 -0.5041190426 0.0188097862 0.4741233326
0.3109430577 0.1967516303 0.2916785760 -0.5113731919 -0.0059377833 0.4907076532
-0.2082198157 0.0612259078 -0.4187422459 -0.4958425600 -0.0019212657 0.4589186098
-0.2708240087 0.1141000383 -0.0743247741 -0.5087694401 0.0153797091 0.4777044991
0.0523158890 0.1772099186 0.3059460940 -0.5003855990 -0.0018171989 0.4999251949
-0.1428895117 0.0416683620 -0.1217345156 -0.4996999045 0.0208285766 0.4792875010
0.3031149892 0.2956745094 -0.3219708085 -0.5189703344 0.0037762161 0.4742607548
0.0349947468 0.2617337118 0.1666734690 -0.5067185442 0.0023091565 0.4949378461
0.4167039651 0.0933317766 -0.1953788245 -0.4853692797 0.0129450475 0.4769666357
0.2352954798 0.1250050861 -0.1257409077 -0.5003699109 0.0203897046 0.4787760010
0.4081241993 0.4791861636 -0.4678919332 -0.5015854187 -0.0207539903 0.4791862052
0.4167039651 0.4717838415 -0.3854771216 -0.5051118330 -0.0170590691 0.4791862052
0.2708646979 0.5023903993 -0.1649217103 -0.5205120638 0.0017913437 0.4813742317
0.3257036792 0.2101072154 0.1666734690 -0.4967733062 -0.0022150485 0.4970559948
0.2583944197 0.3333468964 0.2162046302 -0.5054503468 -0.0188187032 0.4824106072
-0.0329780397 0.0416683620 0.0060307245 -0.4998073047 0.0207442607 0.4801710161
0.3956526502 0.7134931344 0.2843099012 -0.4880365549 -0.0008908071 0.4950795394
0.4667136665 0.4917556958 -0.3556563458 -0.4793706815 -0.0015851062 0.4784925728
0.4477938134 0.3426341909 -0.1153364219 -0.4793440137 -0.0026554830 0.4791730797
0.3976487731 0.7218299320 0.0291916877 -0.5079497818 0.0108359409 0.4769365304
0.4498865027 0.3572828286 0.2491584918 -0.4793638895 -0.0026524204 0.4800833251
-0.2480685829 0.2793268443 0.3166952605 -0.5010198332 -0.0015417086 0.4999264866
-0.2643331613 0.0717775246 -0.4198529161 -0.4956977833 -0.0019763304 0.4589249017
0.3010025075 0.4558368802 -0.4166835788 -0.5039388269 -0.0017136322 0.4912731137
0.2500305169 0.3858190313 -0.1148523606 -0.5206654658 0.0000000000 0.4816942448
-0.0027966867 0.1250050861 -0.0088607564 -0.5019314328 0.0199280192 0.4817531847
-0.0707895990 0.4375178015 0.2517396177 -0.5068525496 -0.0189734178 0.4791862052
0.1020818305 0.3333468964 -0.2344317884 -0.5000000000 -0.0205585865 0.4767281469
0.3192234363 0.4791861636 0.2593204886 -0.4987765752 0.0207982212 0.4791862052
-0.2437903255 0.1032978071 0.1666734899 -0.5069949096 0.0153265403 0.4854674816
0.1497947094 0.2253519607 -0.2916784927 -0.5055483924 0.0094697603 0.4678213678
0.2558141480 0.3333468964 -0.3014414941 -0.5006049829 -0.0180381506 0.4772976284
0.4009541784 0.7339496334 0.0527047278 -0.5093622976 0.0113913385 0.4771555184
0.1610328749 0.1250050861 -0.1691730916 -0.5008569724 0.0202732832 0.4783565048
0.2500305169 0.3896391451 -0.2190246199 -0.5206367355 0.0000000000 0.4819443383
0.3530860641 0.1047561789 0.1666734899 -0.5000908579 0.0188933312 0.4863928943
-0.0369208668 0.2547725744 -0.4391155540 -0.4976684051 -0.0014234329 0.4586569741
0.2364772988 0.2500101723 0.1609980298 -0.5000000000 0.0078595490 0.4941839821
0.4611805455 0.4419568155 -0.3586621347 -0.4793322216 -0.0022245697 0.4789139650
0.4677466877 0.7776743708 0.2916785760 -0.4838120705 0.0014442671 0.4874356034
0.4167039651 0.0622279277 0.2643511308 -0.4839556180 -0.0011715685 0.4803006881
0.1458847169 0.1849351912 0.1666734899 -0.4947378067 -0.0060515587 0.4953946772
0.2642550748 0.4659668549 -0.2904094202 -0.5198347237 0.0061367705 0.4804953418
0.4090620916 0.0416683620 -0.0432655104 -0.4900740961 0.0153833342 0.4801326187
0.0710191292 0.1250050861 0.1089714129 -0.5014473089 0.0200179395 0.4834300654
-0.0959663109 0.2500101515 -0.0729086956 -0.5027054851 0.0198364529 0.4757141681
0.2848036817 0.2500101723 -0.2106101734 -0.5082441063 0.0141021988 0.4744519709
0.4167039651 0.0988595640 -0.2936748447 -0.4873322137 0.0159150642 0.4753908633
-0.0815710377 0.3333468964 0.0960242403 -0.4973428711 -0.0198712877 0.4837016806
0.4627571722 0.4561472678 -0.1994192180 -0.4793378468 -0.0020462083 0.4793607748
-0.2208430376 0.3794048120 0.3272297725 -0.5007204876 -0.0012754269 0.4999631964
0.3822408962 0.6400613550 -0.3218540538 -0.5036954629 0.0109848428 0.4713382609
0.3684599188 0.6148040148 0.0415861087 -0.5018763472 0.0058043195 0.4783314204
0.4961143419 0.7563618995 -0.3795129206 -0.4795893570 0.0018110529 0.4759302602
-0.0129269530 0.0416683620 -0.2081992628 -0.4997375935 0.0207402605 0.4796297024
0.4167039651 0.3508956104 0.1201484719 -0.5161800542 0.0054021365 0.4784649259
0.0574794116 0.1950546238 -0.2916785760 -0.4972585760 0.0103709220 0.4671202351
0.4030007825 0.1054499155 -0.4233973936 -0.4987570328 -0.0017199866 0.4585060721
0.4469977810 0.3370622767 -0.0145355706 -0.4793498890 -0.0026667335 0.4793835466
0.3857136208 0.2736875315 0.1666734899 -0.4889906354 0.0012330710 0.4938033833
0.4379845601 0.7916988789 -0.2496002806 -0.4894886348 0.0115134060 0.4697518005
0.4335511505 0.7916988789 0.2294290016 -0.4985178772 0.0065074939 0.4856741150
0.2708646979 0.5918068083 0.2189557213 -0.5200510658 0.0042886328 0.4813243547
0.4471308281 0.3379930646 -0.1597001020 -0.4793417220 -0.0026594415 0.4790500330
-0.2708240087 0.3194612897 -0.1909569987 -0.4940187358 -0.0177243253 0.4804514234
0.3050170041 0.0416683620 -0.1295460001 -0.5001283386 0.0205715037 0.4784431958
0.2778198142 0.1806148696 0.1869867747 -0.5166576986 -0.0075163058 0.4838536451
0.4586948402 0.4416322814 -0.3958493978 -0.4808893891 -0.0020712718 0.4774556973
-0.1240097644 0.4032384484 -0.4547436482 -0.4986649873 -0.0004400804 0.4584447780
0.4167038817 0.2833883637 0.3151837824 -0.4874216549 -0.0009143497 0.4878725378
-0.2175799465 0.1250050861 -0.2759175181 -0.5082011462 0.0170578399 0.4716468568
-0.0303699544 0.3136328651 -0.2916785760 -0.5001403182 -0.0090288674 0.4645477346
0.0736640910 0.4488860557 0.1780417441 -0.4984906469 0.0102802099 0.4626240313
0.4167039651 0.3441256058 -0.1690563368 -0.5186167366 0.0018366372 0.4723075295
0.3071730294 0.6976422603 -0.3467950894 -0.5189199573 0.0084710322 0.4804154844
0.4343480580 0.5792755276 0.2916785760 -0.4944743168 0.0005110000 0.4953371124
0.4167040484 0.1007155770 0.2546976547 -0.4916789739 -0.0127251844 0.4821732643
0.2937464206 0.1425704467 -0.2753385987 -0.5112303944 -0.0160007344 0.4776464134
0.3566783769 0.5275860703 0.1480503988 -0.5182826605 0.0082008128 0.4785963062
-0.0706251131 0.3333468964 -0.0182365753 -0.4979641255 -0.0202926798 0.4818479385
-0.2312685452 0.1250050861 0.1515700003 -0.5034298479 0.0194683338 0.4854246674
-0.2708240087 0.3169928768 0.1766140402 -0.4993623491 -0.0109010477 0.4874560000
0.1880232648 0.1473513495 -0.2916784927 -0.4949754414 0.0060409333 0.4645277963
0.4899743212 0.7011015469 -0.2463325435 -0.4794978117 0.0011068992 0.4775057618
0.4341822595 0.2473530433 0.2373573450 -0.4793674522 -0.0027902177 0.4795845131
0.4214548875 0.1582614809 -0.1229766494 -0.4793695356 -0.0029012639 0.4791465578
-0.2028043454 0.4433071621 0.3599704380 -0.4996871748 0.0147296826 0.4644565226
0.3812376887 0.6356470921 0.0383132880 -0.5170781740 0.0105386371 0.4782681262
0.3258670816 0.3333468964 0.1214304615 -0.5000347931 -0.0189873142 0.4751502285
0.3820727435 0.4375177598 0.2464659864 -0.4981573000 -0.0206707160 0.4791862052
-0.1286844338 0.4541799169 0.3333469381 -0.5007641353 -0.0002243008 0.4667120935
-0.1346860321 0.4527150657 -0.4791861219 -0.5000000000 0.0000000000 0.5000203862
0.4710828651 0.5310782541 -0.0398412877 -0.4793494514 -0.0010796898 0.4798564825
0.4566716954 0.4047793653 -0.0751393906 -0.4793438887 -0.0025790008 0.4795329902
0.3520141663 0.5070639437 -0.3593558088 -0.5093342131 0.0091668313 0.4735847065
0.3220740940 0.4447227822 -0.1445866329 -0.4889830934 -0.0021996312 0.4788479623
0.3875225694 0.6633008839 -0.0600617146 -0.5133269797 0.0112391031 0.4763993002
0.4623570934 0.4525467255 0.2113899134 -0.4793607644 -0.0021102942 0.4803098968
0.2896651712 0.3333468964 -0.0468192800 -0.4816784629 -0.0079089051 0.4791862052
0.2987703541 0.2782961357 0.1338005898 -0.5197790964 0.0040326016 0.4833557707
-0.0660099879 0.1250050861 -0.2181693143 -0.5050000368 0.0184785435 0.4749356573
0.2768734007 0.3754807982 -0.2708443116 -0.5000000000 0.0000000000 0.4583520242
0.1862369629 0.4166836205 -0.3328509179 -0.4984154355 0.0205798165 0.4793430449
0.4897685629 0.7117133537 0.2916785760 -0.4801271914 0.0013382419 0.4815754274
0.3461065510 0.3933265451 0.1483622240 -0.5015481672 -0.0146828266 0.4645033786
0.3828849849 0.6968766667 -0.4166835788 -0.4983583290 -0.0012549261 0.4970545364
0.3179554681 0.3112371218 -0.3958493978 -0.5090203253 0.0022572377 0.4606210332
0.1535684671 0.4791861636 -0.4643516641 -0.5014598511 -0.0207696367 0.4791862052
-0.2172624753 0.2500101723 -0.0641865908 -0.5046546894 0.0194397076 0.4758525904
-0.2708240087 0.1548374041 0.0297125839 -0.5064353868 0.0185002736 0.4798785667
0.3551236678 0.0416683620 0.1116661684 -0.5002426349 0.0205511070 0.4818411257
-0.1966709291 0.2500101931 -0.2640875784 -0.5019124736 0.0196950513 0.4731755648
-0.1961345115 0.0946093703 0.2972513027 -0.5012797604 -0.0020343328 0.4998699635
-0.2529705740 0.0416683620 -0.1920253339 -0.5000911287 0.0208261807 0.4790564291
0.4349431030 0.2526790517 0.1118354670 -0.4793602227 -0.0027782172 0.4793155230
0.4379202658 0.7284004701 0.2916785760 -0.4891080360 0.0006505681 0.4935816243
0.4728488120 0.5469719633 0.1114271587 -0.4793584935 -0.0008796400 0.4802346437
0.0199398426 0.0416683620 -0.2641247674 -0.4997920957 0.0207359687 0.4785427624
-0.0273820620 0.3580438596 0.1666734899 -0.4993564113 -0.0144760265 0.4896493809
0.3328789294 0.4228688513 -0.1384879681 -0.5194892513 0.0057217328 0.4789143192
-0.1450175358 0.4166836205 -0.3623415553 -0.4946633454 0.0190417539 0.4828268325
-0.2246449423 0.2970861502 -0.2916784927 -0.5000269386 -0.0102607300 0.4664578540
-0.2708240087 0.0674070760 0.0457331316 -0.5164943794 0.0052490469 0.4810560105
0.2401658655 0.3333468964 0.1128018188 -0.5000000000 -0.0205575864 0.4818444384
0.1268252540 0.3615552316 -0.2916784927 -0.5000000000 -0.0034622659 0.4613742097
0.4070271130 0.4493962223 0.3660595399 -0.4996337143 0.0147266617 0.4644595435
0.3282188648 0.4421899291 0.3588532467 -0.4993823707 0.0147233074 0.4644628978
0.0436033262 0.4403660632 0.1695217933 -0.4985540870 0.0139505468 0.4639688569
0.4587898858 0.4204412525 0.1154724483 -0.4793542433 -0.0025232693 0.4800334480
0.4544964402 0.7916988789 0.1155419094 -0.4950335271 0.0088327135 0.4772103748
0.3899162293 0.2084473354 -0.2916784927 -0.5068559873 0.0036301269 0.4651655098
0.2709290755 0.1461612178 0.0166515525 -0.5148693133 -0.0138815648 0.4810356763
-0.2708240087 0.3978358744 -0.4337474189 -0.4911629529 0.0063806346 0.4686464639
0.3329554742 0.7492071500 -0.3471169567 -0.5197624916 0.0063807179 0.4805388436
0.0692376192 0.3333468964 -0.0812813488 -0.5000000000 -0.0205118137 0.4787175403
0.3766021459 0.2381267930 0.2916785760 -0.5049473055 -0.0009378923 0.4973120260
-0.0662709360 0.1967010658 -0.2916784927 -0.4994107469 0.0133330842 0.4687063205
0.4446054753 0.3203158870 0.0021842764 -0.4793514724 -0.0026885052 0.4793506077
0.4070275088 0.7562186020 0.0192619087 -0.5087923994 0.0124992794 0.4759164263
-0.0971012737 0.0416683620 -0.3855769590 -0.4993081177 0.0207803038 0.4782158324
0.3333672410 0.7656953417 0.1444748992 -0.5205965255 0.0021325868 0.4807278513
0.3431075123 0.1807509793 -0.4313238620 -0.4995092925 0.0002729903 0.4584689873
0.4102536818 0.0416683620 -0.3983806258 -0.4844199911 0.0123938168 0.4759421566
-0.2708240087 0.4081100633 -0.3080744931 -0.4897920847 0.0135421343 0.4884372275
-0.2708239879 0.2324849384 0.1410996368 -0.5078857792 0.0190413164 0.4798658162
-0.2708240087 0.2971204016 -0.4336248514 -0.4940151315 0.0024641003 0.4635636529
0.1611206910 0.0416683620 0.2101857603 -0.4997239888 0.0206039633 0.4817430384
0.2941878344 0.0416683620 0.1941937554 -0.5000089379 0.0205685035 0.4819789439
0.3225488841 0.2500101723 -0.2568117824 -0.5056275415 0.0175309008 0.4751533120
0.4167039651 0.0731326423 -0.3715536384 -0.4858139436 0.0066805218 0.4702541543
-0.0923741022 0.4214825032 -0.4566640180 -0.4988813086 -0.0004025997 0.4584179019
0.2500305169 0.3502446256 0.2304628561 -0.5205796707 0.0000000000 0.4815143833
0.3097703017 0.3996086966 -0.2528119113 -0.4845662054 -0.0043216758 0.4784627591
0.4390369779 0.2813365094 -0.0469555147 -0.4793502223 -0.0027354655 0.4790692213
0.2910638739 0.1915066669 -0.4324560122 -0.4991764040 0.0000585024 0.4585106557
0.4167039651 0.2866704347 0.2706482203 -0.5050568307 0.0000142922 0.4952076696
0.4084602338 0.3287129787 -0.4468988082 -0.4988635371 -0.0019027858 0.4584985718
0.4854135940 0.6657961104 0.2916785760 -0.4797195915 0.0006956116 0.4811497851
0.2708646979 0.5460915733 -0.0722193343 -0.5206406732 0.0000000000 0.4820192372
0.3253773534 0.1380517628 -0.3678695302 -0.5097328960 -0.0166622821 0.4766466019
0.1855008496 0.0416683620 0.2193965725 -0.4997755117 0.0206295269 0.4813682940
-0.0675704472 0.0852242592 -0.2916785760 -0.5043208841 0.0100998693 0.4670263146
0.3093195334 0.5623826111 0.2916785760 -0.5150999685 0.0024511622 0.4857429928
0.3333672410 0.7580669063 -0.2548511818 -0.5201089223 0.0045851657 0.4805269056
0.4051624538 0.7455328130 0.2586963590 -0.4985663792 0.0037073383 0.4919449327
-0.1026745213 0.1883998739 -0.2916784927 -0.5009136413 0.0140166328 0.4691078160
0.3460257143 0.1518836589 0.1666734899 -0.4920651563 -0.0101337457 0.4930921877
0.4167039651 0.3364168130 -0.0512063960 -0.5181893651 0.0018860767 0.4700982105
0.2472593416 0.1250050861 -0.1792322925 -0.5002914494 0.0204293312 0.4778228581
0.2925202665 0.0416683620 -0.0497442115 -0.5000617733 0.0205441276 0.4796928717
0.2718056945 0.1505444794 -0.1334651595 -0.5147005148 -0.0136283045 0.4794884467
0.0952686367 0.4102946939 -0.4554862618 -0.4992077178 -0.0008332631 0.4584304232
-0.1428244258 0.1250050861 0.0911862518 -0.5028497826 0.0196456952 0.4840324232
-0.2444336850 0.1757474424 -0.2916784927 -0.5056547717 0.0171398224 0.4709230982
0.0828163175 0.2500101723 -0.2170639568 -0.5007815526 0.0203686621 0.4767298761
-0.0141533779 0.2056975568 0.3089447994 -0.5005129167 -0.0017405500 0.4999274658
0.3400887019 0.5198999451 0.2916785760 -0.4867197513 -0.0021816096 0.4924179311
0.3399936356 0.1250050861 -0.0905200164 -0.4997550525 0.0184407503 0.4831021146
-0.2708240087 0.1057564071 0.1165209701 -0.5080871415 0.0146066985 0.4839226063
0.2949453235 0.6731866819 -0.3480129723 -0.5198191189 0.0059603883 0.4808166466
0.4852232529 0.6583415363 -0.2575573335 -0.4794678729 0.0005574810 0.4777974404
0.4167039651 0.2902939572 -0.1526324394 -0.5169402934 0.0039702240 0.4708065101
0.2908178847 0.6440976234 -0.0716795206 -0.5196992807 0.0064799095 0.4806295139
-0.0759206619 0.3333468964 -0.0934753241 -0.4982608459 -0.0205353772 0.4807101422
0.4073675852 0.4537176065 0.2916785760 -0.4996994669 -0.0020573129 0.4993279414
0.4041829764 0.3497486471 -0.2916784927 -0.5026864218 0.0037853624 0.4621074270
0.0166581049 0.2664832175 0.3153432889 -0.5000006667 -0.0015772308 0.4999347578
0.4834351177 0.6422489023 0.0746378285 -0.4793598060 0.0003594313 0.4803076675
-0.0664314425 0.1250050861 -0.1217779132 -0.5038332393 0.0190658174 0.4781294122
-0.0316982168 0.1424363787 0.3022857368 -0.5007030911 -0.0019088485 0.4999042149
0.3779184495 0.6365567749 0.2156594205 -0.5135381967 0.0088546728 0.4840597368
0.2916988789 0.6467001876 -0.0084433435 -0.5198273484 0.0060671427 0.4806761200
0.1144435418 0.3333468964 -0.1124357414 -0.5000000000 -0.0205403774 0.4784226533
-0.2708240087 0.0808467686 0.1234216467 -0.5129041084 0.0088522768 0.4838148102
-0.0694740246 0.4791861636 0.2575466039 -0.4981897388 0.0207379271 0.4791862052
0.2500305169 0.3879791609 -0.0061018524 -0.5206936961 0.0000000000 0.4814570685
0.0374355336 0.4166836205 -0.3596195904 -0.4966351756 0.0196754464 0.4816125123
0.3044733153 0.2807236928 0.3168422874 -0.4996092549 -0.0015546258 0.4999407372
0.1082444146 0.3333468964 0.0376545112 -0.5000000000 -0.0205073761 0.4804463607
0.2970824313 0.3530866579 -0.2255028835 -0.4820308314 -0.0064968893 0.4791262653
0.2763886101 0.6152389909 0.1104602444 -0.5195956515 0.0068455702 0.4808685445
-0.1221719188 0.2324882719 -0.2916784927 -0.5015257079 0.0156451991 0.4702673215
0.1278676089 0.4375178015 0.2604351798 -0.5025291237 -0.0202367400 0.4791862052
-0.2367114333 0.0586871795 0.1666734899 -0.5155192981 0.0052031700 0.4848420812
-0.1565238790 0.2500101723 -0.0799740456 -0.5035154555 0.0196509037 0.4756020177
0.1776106328 0.3653203640 -0.2916784927 -0.5000000000 -0.0038335726 0.4616983270
0.4420699555 0.7916988789 0.1695480860 -0.5035202057 0.0105010106 0.4783456085
0.1993002861 0.2500101723 0.0315203033 -0.5003547019 0.0206229224 0.4780714515
-0.1966277399 0.3333468964 -0.1152336677 -0.4972754933 -0.0202741374 0.4811709735
0.3345330801 0.7928648014 -0.2462013090 -0.5146451792 0.0146451792 0.4813372094
-0.0126251283 0.4581746420 0.2916785760 -0.5119602783 -0.0000787324 0.4920597290
0.1276360578 0.3515566998 0.3242984032 -0.5000163548 -0.0013625971 0.4999585504
0.3132806945 0.1421195950 -0.3958493978 -0.5114221106 -0.0162212433 0.4757750039
-0.1482450421 0.1250050861 -0.0380307765 -0.5041617735 0.0190026482 0.4801663493
0.3531696717 0.0416683620 0.1799356961 -0.5002206756 0.0205723370 0.4822162243
0.4167039651 0.2339296222 0.0584836296 -0.5024505997 0.0167915582 0.4759810540
0.1319171695 0.2797636329 0.3167412416 -0.4998175134 -0.0015481672 0.4999377579
0.0030894695 0.1552268991 0.1666734899 -0.5014129533 0.0139450257 0.4920011641
0.3559692022 0.5690048806 -0.1370097829 -0.4955191510 0.0036839207 0.4769654065
0.0978379287 0.3177764712 0.3207425919 -0.4999616651 -0.0014482673 0.4999482791
0.3343372388 0.6129733570 0.2916785760 -0.4997254055 0.0089801362 0.4955148279
0.4849620131 0.6559905448 0.1282496140 -0.4793632853 0.0005356468 0.4804551735
0.3895472976 0.6722095172 -0.3433772212 -0.5011746520 0.0117743541 0.4701224823
0.3925322732 0.6853434057 -0.3006371905 -0.5022729675 0.0120380940 0.4707294236
0.2708646146 0.5556205443 -0.2146615465 -0.5206406732 0.0000000000 0.4820192372
0.3886635325 0.1250050861 0.0684473266 -0.4985629624 0.0164227515 0.4887836999
0.0194901993 0.3333468964 -0.2500171309 -0.5000000000 -0.0205208766 0.4762807745
0.2612298059 0.1148463603 0.2993815144 -0.4994462691 -0.0019828515 0.4998997980
0.1213331763 0.3333468964 0.1300166859 -0.4990110223 -0.0203192434 0.4828867933
0.3065632129 0.3878493848 -0.0606669267 -0.4846292079 -0.0047622771 0.4790206777
-0.1870221407 0.2500101723 -0.1212356619 -0.5033845960 0.0195987766 0.4749470952
0.2916988789 0.6610722932 -0.0501509155 -0.5199346653 0.0057006069 0.4808208134
0.4884232790 0.6871423539 0.1076915484 -0.4793632437 0.0009411425 0.4804592362
0.3625853464 0.1932718221 0.1666734899 -0.4954119383 -0.0043805324 0.4958911766
-0.2708240087 0.2781493589 -0.3858005931 -0.4942745170 0.0107650422 0.4755232645
0.1009142830 0.2845819539 -0.2916784927 -0.5038148636 -0.0001562980 0.4608895858
-0.0492263050 0.3938994851 -0.2916784927 -0.5000000000 0.0000000000 0.4583520242
0.0685472161 0.2500101515 -0.0076802917 -0.5011629432 0.0202901172 0.4767494811
0.4281350135 0.2050222793 -0.2561978199 -0.4793615561 -0.0028377821 0.4790907847
0.3224968195 0.2263314797 0.2916785760 -0.5100727640 -0.0015335207 0.4941280632
-0.0827892956 0.0810220258 -0.4208260390 -0.4967507220 -0.0012580512 0.4588106470
0.3580552871 0.3207326956 -0.2916784927 -0.5000000000 0.0075286397 0.4641628023
0.4167039651 0.0613268702 0.1278779530 -0.4801852771 0.0052540888 0.4797169768
0.3257222841 0.5848361914 0.2916785760 -0.4985313569 0.0089768652 0.4947383380
0.3782287954 0.3958456268 -0.4539653457 -0.4987665331 -0.0019246200 0.4585161350
-0.2156399093 0.2068582915 0.3090669918 -0.5010872942 -0.0017351123 0.4999056316
0.2916988789 0.6481778936 -0.1057983047 -0.5197705752 0.0062455875 0.4806612652
0.2708646979 0.4816202834 0.1300056438 -0.5203802042 0.0037541319 0.4806511815
-0.2524044468 0.2500101723 -0.2424291347 -0.5026362739 0.0195228985 0.4730234753
0.3470274426 0.5362181715 -0.1376257663 -0.4942993722 0.0021095650 0.4777220623
0.1668068807 0.3333468964 -0.0161130514 -0.5000000000 -0.0205470443 0.4798819835
0.0921977409 0.3898289653 -0.2708443116 -0.5000000000 0.0000000000 0.4583520242
0.3271268621 0.2500101515 -0.3079980317 -0.5093944864 -0.0042553190 0.4642158878
0.0860946176 0.2500101723 -0.1101318560 -0.5007889488 0.0203642661 0.4767066252
0.2905347065 0.3333468964 0.0402478459 -0.4811391076 -0.0075679121 0.4791862052
0.4703849825 0.5247966652 -0.1606910798 -0.4793424512 -0.0011561929 0.4795650748
0.2121790810 0.4375178015 -0.2834832426 -0.5002214257 -0.0208288266 0.4791862052
-0.1182525301 0.0695843104 0.2946171122 -0.5011121077 -0.0021018980 0.4998701301
0.4167039651 0.3052237938 -0.2710155061 -0.5177083455 0.0030343943 0.4707817799
-0.2185008173 0.1250050861 -0.0527317914 -0.5054986196 0.0184179994 0.4790421994
0.4886307874 0.6890108466 0.0828900393 -0.4793704106 0.0009647684 0.4802858125
-0.2708240087 0.2325983805 0.1655999670 -0.5013895774 0.0058807809 0.4968228395
-0.0678991689 0.3333468964 -0.2776083577 -0.5000000000 -0.0204831876 0.4756564158
0.0476568036 0.3072323130 0.3196326717 -0.4999945414 -0.0014728933 0.4999444248
0.2227544071 0.4399438794 0.1690995886 -0.4989352900 0.0140778645 0.4640292969
-0.1673747371 0.1250050861 -0.2193600085 -0.5066850637 0.0177576183 0.4739778475
0.3446948060 0.5276654694 -0.1879148958 -0.4919110250 0.0017560715 0.4768458600
-0.2708240087 0.0619931682 0.2657030816 -0.5205983589 0.0000000000 0.4807320806
0.2953800495 0.6740561340 -0.1089872261 -0.5195051478 0.0069559705 0.4806625778
0.4612808413 0.4428597480 -0.2506874290 -0.4793345133 -0.0022166319 0.4792194566
0.3782688596 0.2500101723 0.0044173256 -0.5017636759 0.0204750414 0.4774799900
-0.0791072916 0.1749613479 -0.2916784927 -0.5010033325 0.0131329093 0.4686070873
-0.1347205544 0.0416683620 -0.3448169256 -0.4994157054 0.0208102842 0.4788483581
0.4679668425 0.5030337589 0.1605717833 -0.4793597019 -0.0014524133 0.4802757704
-0.0088399326 0.3958494395 0.1810686797 -0.5004918117 -0.0157706000 0.4853813531
0.3650383837 0.1250050861 -0.0496314569 -0.4982577416 0.0174999620 0.4843987506
0.4770131272 0.5844501131 -0.1457146371 -0.4793691814 -0.0003867032 0.4793665667
0.4592111112 0.6635771035 0.2916785760 -0.4886314333 0.0011860483 0.4899061622
0.0696058842 0.4166836205 -0.3585301294 -0.4969327710 0.0198372446 0.4811264300
0.4639033855 0.4664624375 -0.3677704220 -0.4793549308 -0.0019103069 0.4786206822
-0.1625686249 0.0416683620 0.0963238358 -0.4998777034 0.0208333477 0.4790755757
-0.2708240087 0.1555535374 -0.1624492972 -0.5088011914 0.0173223090 0.4734698268
-0.0807474833 0.4137009575 -0.2708443116 -0.5000000000 0.0000000000 0.4583520242
0.4357733034 0.2584907048 -0.2196105187 -0.4793524307 -0.0027652167 0.4790270321
-0.0960571479 0.4791861636 0.3212758219 -0.4991858419 0.0208156594 0.4791862052
0.4167039651 0.3266738749 0.0887720494 -0.5141902649 0.0076712496 0.4775840150
0.2050489575 0.1984939929 0.1666734899 -0.4958342263 -0.0040675822 0.4963000057
-0.2916581898 0.4429155836 0.3268502154 -0.4816945885 0.0026935263 0.4791862052
0.2067558603 0.4375178015 -0.4058554299 -0.4985383989 0.0206118178 0.4791862052
-0.2708240087 0.0476836276 -0.3278410682 -0.5031299190 0.0005815445 0.4599655273
-0.2116993948 0.4106474999 -0.3064765531 -0.4911716825 0.0141790561 0.4893704113
0.4167039651 0.2485030068 0.2184098240 -0.4902817296 0.0002150504 0.4943964908
-0.0379324288 0.2500101723 -0.0673273852 -0.5019122861 0.0200156061 0.4758027551
0.4167039651 0.0237619043 -0.3784445230 -0.4826278557 0.0021336910 0.4750420574
0.3972154638 0.1277891369 0.2536508621 -0.4991009843 -0.0193463705 0.4828756053
-0.0931657803 0.1250050861 -0.0523042115 -0.5034278686 0.0193030146 0.4801918503
0.3959832678 0.3000077066 -0.3958493978 -0.5111750797 0.0004039331 0.4623013724
-0.1596279011 0.2500101723 -0.0516723733 -0.5039665572 0.0196099645 0.4760512235
-0.1225261415 0.2883962341 -0.2916784927 -0.5000865452 -0.0053599056 0.4620039853
0.0632214786 0.4791861636 -0.4085844784 -0.5009173707 -0.0208117218 0.4791862052
-0.2708240087 0.0705796217 0.2181792938 -0.5202799085 0.0000000000 0.4830031939
0.4167039651 0.0473045289 0.2848316099 -0.4809303699 0.0033466362 0.4794886550
-0.1215969579 0.0416683620 0.1145550985 -0.4998422644 0.0208140344 0.4793042309
0.0797027117 0.1250050861 -0.1618660651 -0.5019130570 0.0198491826 0.4781234745
0.3190337203 0.4335747452 -0.0986453678 -0.4881210792 -0.0026789840 0.4788818178
-0.0779392649 0.0416683620 0.0322242903 -0.4998084505 0.0207794288 0.4797523324
-0.1217101708 0.4166836205 0.1962345051 -0.5042147548 -0.0192729508 0.4830003396
0.2937097732 0.1496328382 -0.4280482704 -0.4994265808 0.0006148167 0.4584905090
0.4555997976 0.7916989623 -0.0939554895 -0.4866177055 0.0088957369 0.4729782235
0.4795350632 0.6071483492 0.0886810874 -0.4793593477 -0.0000970664 0.4802818956
-0.0144845998 0.3333468964 -0.2879553620 -0.5000000000 -0.0205116679 0.4756679371
-0.2708240087 0.3865748538 0.2841651661 -0.5194262487 0.0000000000 0.4862382838
-0.2708240087 0.4047543434 -0.3853030729 -0.4934576296 0.0116074514 0.4879067892
0.2403212468 0.0416683620 -0.0794251066 -0.5000054586 0.0205774206 0.4796408696
-0.2003533498 0.4008211834 0.3294841351 -0.5005499599 -0.0012184454 0.4999677174
0.3816189959 0.6373251603 0.1367764818 -0.5170494437 0.0106293908 0.4782630218
-0.1693814855 0.1220128394 -0.4251408604 -0.4963108707 -0.0018885768 0.4588507320
0.3754411612 0.0416683620 -0.2134276005 -0.4925861358 0.0177364508 0.4783851935
-0.0584646392 0.3333468964 -0.0522227498 -0.4982289488 -0.0204427693 0.4812375387
0.2074635974 0.4256739654 0.3321002207 -0.5001186715 -0.0011754020 0.4999813222
0.3515597937 0.6375902336 0.2916785760 -0.4982090313 0.0058295289 0.4960447037
0.4167039651 0.1154997202 -0.4069610999 -0.4929885272 -0.0079483442 0.4815453220
-0.2708240087 0.3168885601 -0.3313065425 -0.4894900724 0.0083125882 0.4806755575
0.4167039651 0.1122859853 -0.0967975426 -0.4840112661 0.0101831852 0.4772650646
0.0919559810 0.1900297735 0.1666734899 -0.4951497818 -0.0054728685 0.4957560044
0.2935197655 0.6703355451 -0.2595351848 -0.5198193689 0.0060037859 0.4808115630
0.2708646979 0.5683098523 0.1256791969 -0.5206161930 0.0004736859 0.4818904819
0.2148048753 0.2500101723 0.1109574104 -0.5006581934 0.0206269643 0.4786325369
0.4816108143 0.6258301301 -0.3509841973 -0.4794754982 0.0001363805 0.4773302755
0.4303178940 0.2203026094 0.2123827247 -0.4793670980 -0.0028231774 0.4794104643
-0.0415829315 0.4166836205 0.1481869460 -0.4995801913 0.0205798790 0.4781371209
0.3971537946 0.2314107905 -0.2916784927 -0.5118629202 0.0043114254 0.4661840512
0.3974105134 0.2500101931 0.0925160976 -0.5025155399 0.0205524821 0.4785428665
0.4866265600 0.6709712793 -0.0040815411 -0.4793872030 0.0007297172 0.4797414778
0.3886048843 0.2917902680 0.3180071889 -0.4995362936 -0.0015304164 0.4999452790
-0.1165288767 0.4375178015 -0.4710182896 -0.5010723770 0.0208048882 0.4791862052
0.3310149161 0.3333468964 -0.1243182874 -0.5002238424 -0.0100407835 0.4652631596
-0.2021223384 0.0416683620 -0.2341536938 -0.4998139508 0.0208320559 0.4792537496
-0.0276051544 0.1250050861 -0.2095222333 -0.5042618192 0.0188018900 0.4755704331
-0.2636387581 0.0416683620 0.0192347201 -0.5009114746 0.0207686367 0.4782591883
0.4751074455 0.5672993528 0.0909516798 -0.4793580560 -0.0006147542 0.4802208515
0.2955403477 0.0416683620 0.0284108435 -0.5000513771 0.0205281477 0.4808508980
0.3222175373 0.6920353030 0.2916785760 -0.5148007272 0.0051692103 0.4853689359
-0.0399758453 0.3333468964 0.0313344833 -0.4980127525 -0.0202083014 0.4824175659
-0.2689505992 0.2462609572 -0.4382196842 -0.4970857148 -0.0010130829 0.4586736623
-0.1157335318 0.0416683620 0.0354894648 -0.4997986376 0.0208088258 0.4794140687
0.4167039651 0.4397441213 -0.4449988351 -0.4892335619 0.0010244167 0.4802629782
0.2013197849 0.0416683620 0.1115201000 -0.4999403726 0.0205631283 0.4821762227
0.2096529990 0.4166836205 0.1819614661 -0.5018083444 -0.0188196199 0.4831070523
0.3277891390 0.3333468964 -0.0498808212 -0.5001665901 -0.0127775616 0.4685560644
-0.0385515581 0.2500101723 -0.0143873979 -0.5026781090 0.0199555828 0.4766430392
0.1304903197 0.4545653910 0.3333469381 -0.5000608566 -0.0002035708 0.4659319159
-0.1977588067 0.2500101931 0.1431378031 -0.5073239022 0.0192747217 0.4791433285
0.1544287937 0.1250050861 -0.0705568499 -0.5009002658 0.0202275522 0.4800485111
0.2269246809 0.2500101723 -0.2520451093 -0.5001869243 0.0207228432 0.4785987022
0.2340845972 0.0416683620 0.1100524153 -0.4999496438 0.0205376481 0.4824684846
0.2723548002 0.1532898203 -0.3084283200 -0.5144080446 -0.0137319129 0.4776214332
0.0563877214 0.1450848406 0.3025645189 -0.5004450181 -0.0019028274 0.4999148195
0.2769709255 0.6164037883 0.2123825997 -0.5197295527 0.0064164486 0.4809175673
-0.1674125720 0.0416683620 0.0703906765 -0.4998782659 0.0208333060 0.4790867845
0.0709068121 0.2566840272 0.1666734899 -0.5092902322 0.0027855092 0.4930247474
0.2708646979 0.5054827335 -0.3708613186 -0.5203544740 0.0022217154 0.4814476097
0.3396221621 0.5090657543 -0.3795773816 -0.4857223149 0.0024165775 0.4775086161
0.3880879674 0.2416038511 0.3127244115 -0.4994016007 -0.0016599425 0.4999306951
-0.1444016983 0.4791861636 0.2513530603 -0.4974610842 0.0206630699 0.4791862052
-0.0711811774 0.2500101931 -0.0208147011 -0.5030770835 0.0198584747 0.4765410143
0.1156069642 0.0893851577 -0.4217064707 -0.4983125772 0.0000852535 0.4586302230
0.2708646979 0.4835744463 -0.3150911119 -0.5199361445 0.0054307001 0.4806308890
-0.2587361836 0.0885639368 0.2966149644 -0.5014723724 -0.0020497084 0.4998610256
0.4126640299 0.7768856512 0.2114577912 -0.5028476575 0.0072831713 0.4864104158
-0.2225005217 0.1475672958 -0.2916784927 -0.5066235612 0.0159497948 0.4702564669
0.4510791137 0.3656311891 0.1462517006 -0.4793578060 -0.0026375865 0.4798798584
0.4781492359 0.5946759667 0.1935498751 -0.4793647854 -0.0002634899 0.4805049672
0.4125052526 0.4743369246 -0.3493317968 -0.5010821274 -0.0167067006 0.4669076223
-0.2218005974 0.4375178015 -0.3782389313 -0.4941217817 0.0115450531 0.4934498897
-0.2415305460 0.1230541734 -0.4252504690 -0.4961592396 -0.0017408208 0.4588506070
-0.0597527958 0.2500101723 -0.1001740133 -0.5017711554 0.0199819380 0.4752814005
0.4598522415 0.4300030166 -0.2733071202 -0.4793327841 -0.0023826803 0.4791454744
0.2759605511 0.6143830185 0.0593207261 -0.5196603624 0.0065837470 0.4808830451
-0.2491975246 0.4143150241 0.1458393088 -0.5011690684 0.0000000000 0.4591616613
-0.2491053542 0.4289854543 0.1666734899 -0.4997129258 0.0070668084 0.4625114226
0.0733255147 0.2093315797 0.1666734899 -0.4967105953 -0.0028737628 0.4970733497
-0.0325074372 0.1250050861 0.0541822670 -0.5021262740 0.0198536828 0.4829424206
-0.1718547319 0.3333468964 0.1060787744 -0.4964853987 -0.0195858177 0.4844567947
0.4989380401 0.7817745376 -0.3577174088 -0.4796017534 0.0021381912 0.4758796540
0.1178334714 0.0416683620 0.2223023783 -0.4996324850 0.0206344854 0.4814261505
