0.2805402863 0.9473683213 -0.5963087267 -0.5000000000 0.0526315734 0.7105262936
0.4093595885 0.2397049221 0.2595106043 -0.5068107361 0.0033326839 0.7546431837
0.3274060182 0.9473683213 -0.5394038906 -0.5000000000 -0.0526315734 0.7105262936
-0.2368421330 1.3991789053 0.1870537172 -0.4652172668 0.0059195783 0.6752346658
-0.2506236052 0.4552725310 0.1799330863 -0.4883470539 -0.0056919468 0.6706315084
-0.1679855086 1.2105261884 0.2237229765 -0.5060677362 -0.0364799962 0.7284530286
-0.2587731307 0.6929462428 0.2028554523 -0.4931883165 0.0034698944 0.7456202373
-0.0992075685 0.9473683213 0.0485598896 -0.5000000000 -0.0526315734 0.7105262936
-0.3421052798 0.5350892595 -0.6681381928 -0.5494347316 -0.0010948420 0.7053668205
-0.2368421330 0.2021969261 0.2186658191 -0.4559970046 -0.0035525259 0.6914760325
0.1578656676 0.9473683213 -0.5704126768 -0.5000000000 -0.0526315734 0.7105262936
-0.2492333948 0.3099553358 0.2507292894 -0.4879693171 0.0032531049 0.7526544997
-0.1358977752 1.7394447643 0.2381435539 -0.4998487369 -0.0114717883 0.6594539306
0.4130907460 0.8421051745 -0.1379907749 -0.5462959425 -0.0235521028 0.7147306090
-0.3122305987 0.1820035072 -0.1500252474 -0.5523378892 0.0000000000 0.7155916089
-0.2368421330 0.9689135296 0.1547884048 -0.4687888454 0.0102328937 0.7014696630
0.2342678174 0.9473683213 0.0492713632 -0.5000000000 0.0526315734 0.7105262936
0.0627043092 0.9473683213 -0.6661216141 -0.5000000000 0.0526315734 0.7105262936
0.4186092191 0.1865692435 -0.1689902980 -0.5425748903 -0.0041172627 0.7102721358
-0.0118871566 0.9473683213 -0.6841998753 -0.5000000000 -0.0526315734 0.7105262936
-0.3338866491 0.9473683213 -0.5949021479 -0.5000000000 0.0526315734 0.7105262936
-0.1998094000 0.9473683213 -0.1423475640 -0.5000000000 -0.0526315734 0.7105262936
0.1044575153 0.9473683213 0.1181333560 -0.5000000000 0.0526315734 0.7105262936
-0.0932760954 0.9473683213 -0.6601305095 -0.5000000000 0.0526315734 0.7105262936
0.4659401615 0.8691999611 -0.1469993003 -0.4559550046 -0.0128175776 0.7181562402
-0.3421052798 0.7756634973 -0.6828024018 -0.5453226794 0.0002288421 0.6929274534
0.4433278481 0.5202547873 0.2244418711 -0.4675352666 0.0036308944 0.7484034475
0.4079040623 0.9006304315 -0.0659304667 -0.5491768896 -0.0033078944 0.7117469777
0.4991268422 0.1583048254 -0.6430524586 -0.4542024259 -0.0227754713 0.7212438714
0.3200315453 1.2105261884 0.2183862402 -0.4973402634 -0.0370512066 0.7218068188
-0.2945674427 0.8462110162 0.0551734679 -0.5525149945 0.0000000000 0.7140272933
-0.3403064379 0.9343531648 -0.7105261884 -0.5350438910 0.0020258419 0.6730391923
0.1905717694 0.9473683213 -0.7040916101 -0.5000000000 0.0526315734 0.7105262936
0.4413768483 0.9473683213 -0.6839425596 -0.5000000000 -0.0526315734 0.7105262936
-0.1090229359 0.9473683213 -0.0522912577 -0.5000000000 -0.0526315734 0.7105262936
-0.2532969207 0.6583206149 0.2071836098 -0.4855583699 0.0033119997 0.7454468689
0.4972980003 0.8666380667 -0.6173664613 -0.4509820052 -0.0038553680 0.7203197137
-0.2382198170 1.3539792785 0.2320471335 -0.4724910555 -0.0038795785 0.7535155523
0.4126010618 0.6407769325 0.1567449835 -0.5021751577 -0.0057064731 0.6666994561
-0.2982865475 0.9291175864 -0.0006137894 -0.4475853739 0.0000000000 0.7090603464
0.4834135807 0.4441494796 -0.6578946150 -0.4789021601 0.0243058395 0.7346364490
-0.2961049162 0.0664768877 -0.7105260831 -0.4655159510 -0.0011805262 0.6828279808
0.4630788460 0.2105262936 -0.6506075631 -0.5042359469 0.0376529960 0.7377690802
-0.2894737064 0.5784106760 0.1734359817 -0.5370454172 -0.0033511575 0.6860172962
0.3178095455 0.8862372225 -0.6578946150 -0.5182689981 0.0000000000 0.6636238249
-0.1563007204 0.9473683213 -0.1766646656 -0.5000000000 -0.0526315734 0.7105262936
0.4205956926 0.8779883286 -0.2563052362 -0.5482477318 -0.0110762620 0.7135341880
0.4437825849 0.7868493909 0.1911175062 -0.4670927929 0.0042657890 0.7482416054
0.4413276378 0.3878683276 0.1883586118 -0.4698191611 -0.0056545784 0.6723527187
0.2896418116 0.9473683213 0.1813812441 -0.5000000000 -0.0526315734 0.7105262936
-0.1491273527 0.9473683213 -0.6996392421 -0.5000000000 0.0526315734 0.7105262936
0.4132476407 0.1934234533 -0.0778431497 -0.5431375744 0.0042405785 0.7107135041
0.4434602691 0.1747752448 -0.5914572535 -0.5337322070 -0.0135999459 0.7178823455
0.4657112668 0.1765476656 -0.0749881500 -0.4638182143 -0.0088487885 0.7166717667
0.4710806873 0.1913456114 -0.1662682457 -0.4601147937 0.0147032090 0.7192726611
-0.3421052798 0.6979449792 -0.7046467153 -0.5389127327 0.0007473157 0.6774930339
-0.2894737064 0.5488646791 0.1971473477 -0.5370238382 -0.0003920526 0.7142512932
-0.3182183349 0.8218927030 -0.7105261884 -0.5087229465 0.0017397367 0.6693600874
0.1783225602 0.9473683213 -0.4833489491 -0.5000000000 -0.0526315734 0.7105262936
0.4512888472 0.9473683213 -0.3527931734 -0.5000000000 -0.0526315734 0.7105262936
0.2772294445 0.9473683213 -0.6477366687 -0.5000000000 0.0526315734 0.7105262936
0.3492637527 0.9473683213 0.0006078420 -0.5000000000 0.0526315734 0.7105262936
0.4144419564 1.4605123199 0.2445804479 -0.5081404202 -0.0037147891 0.7557263941
-0.3066889151 0.6969902951 -0.6578946150 -0.4852103173 0.0000000000 0.7546578679
0.4473683213 0.2844989701 -0.7064369256 -0.5404196800 -0.0006496841 0.6795507179
0.3947367479 1.4697701611 0.2223943450 -0.5309033125 0.0003826842 0.7191670296
-0.2856940226 0.9473683213 -0.2890574959 -0.5000000000 -0.0526315734 0.7105262936
-0.2368421330 0.0835959386 0.2316911335 -0.4533547418 -0.0036744733 0.6922634008
0.3947367479 1.0959965162 0.1490908790 -0.5336714701 0.0043304732 0.6704126136
-0.0577708887 0.9473683213 -0.3917297482 -0.5000000000 -0.0526315734 0.7105262936
0.2055543468 1.2631577618 0.2108825041 -0.5000000000 0.0372161540 0.7110300304
0.4614072146 0.9062069572 -0.0790034654 -0.4536455838 0.0063064204 0.7180352402
0.4035084312 0.2105262936 0.2114606620 -0.5346581016 0.0258795762 0.7107491883
-0.2368421330 0.2544797101 0.2073566098 -0.4595471622 -0.0043833153 0.6831705070
0.0748238869 0.9473684266 -0.6843584543 -0.5000000000 0.0526315734 0.7105262936
0.4323292703 0.9473683213 -0.5283429970 -0.5000000000 0.0526315734 0.7105262936
-0.2894737064 0.5335049965 0.1812589283 -0.5370316277 -0.0031829997 0.6891452959
-0.3046472311 0.2071510308 -0.0211078925 -0.4499488474 0.0000000000 0.7166400298
0.1139191459 0.9473683213 -0.0999341474 -0.5000000000 -0.0526315734 0.7105262936
0.0958486215 1.2223681871 0.1842105596 -0.5000000000 -0.0204689452 0.6733101397
0.3947367479 1.1340828806 0.1603369831 -0.5332132597 0.0064988414 0.6809327704
0.4928486323 0.9473683213 -0.6901157695 -0.4704932136 0.0139642617 0.6882652960
0.2460081846 1.7368419224 0.2554899731 -0.5003797368 -0.0154539457 0.6941914006
0.1489878791 1.7617052882 0.2544534469 -0.5043106838 0.0060695783 0.6589552464
-0.3343167017 1.7894734958 0.2489610791 -0.5000000000 -0.0526315734 0.7105262936
0.4465602162 0.1578947202 -0.0719430977 -0.4983796844 -0.0434764165 0.7127060302
0.0089151570 0.9473683213 -0.5354424700 -0.5000000000 0.0526315734 0.7105262936
0.4876655802 0.8421051745 -0.6190016717 -0.4686968980 -0.0156835247 0.7208200820
-0.2440608690 0.1398276695 0.2719952872 -0.4842005806 0.0031287365 0.7556151836
0.0554960468 1.3436965428 0.2457909215 -0.5000000000 -0.0058122099 0.7628359723
0.4968258424 0.9220835871 -0.6102847779 -0.4527908471 0.0157138405 0.7158551878
0.4345411122 0.8421051745 -0.4209770609 -0.5420801008 -0.0241733659 0.7159305036
-0.2874807592 1.4631557934 0.1922598745 -0.5342325227 0.0046569469 0.6768704024
-0.3160881246 0.9473683213 -0.5203148400 -0.5000000000 0.0526315734 0.7105262936
0.1281257234 0.9473683213 -0.2613912883 -0.5000000000 0.0526315734 0.7105262936
0.4999998947 0.4184971138 -0.6745346132 -0.4536365312 -0.0013503683 0.7082130307
-0.0227053134 1.2385234486 0.1842105596 -0.5000000000 -0.0018890524 0.6698120874
0.2740700238 1.2164818193 0.1842105069 -0.5000000000 -0.0287936812 0.6733101397
0.3123439671 0.9473683213 -0.6997091895 -0.5000000000 -0.0526315734 0.7105262936
0.4882790539 0.9272520077 -0.4820820545 -0.4528973734 0.0173193666 0.7159466088
0.4494483211 0.8899021169 0.1003787263 -0.4580434781 -0.0086428412 0.7163172930
0.2710883399 0.9473683213 -0.6282764075 -0.5000000000 -0.0526315734 0.7105262936
0.4473683213 1.7452479216 0.2600540779 -0.4660360036 -0.0003630000 0.7310648704
0.2826611808 0.9473683213 0.1516267735 -0.5107292620 0.0401573642 0.7256735026
-0.2526976050 1.7835490754 0.2299531863 -0.4868618435 0.0058669994 0.6761569815
0.0894324643 0.9473683213 0.1530829313 -0.5000000000 -0.0526315734 0.7105262936
0.4537104786 0.8531824365 0.0364467856 -0.4603920568 -0.0277286287 0.7164074509
0.4651859510 0.0664812562 -0.7105261884 -0.5166985772 -0.0014184209 0.6801534021
0.4853759489 0.3889726433 -0.7105261884 -0.4802565284 -0.0003155789 0.6709030873
-0.2894737064 1.5266354709 0.2443447638 -0.5350093121 -0.0015925261 0.7391955538
-0.3342309648 0.2056190836 -0.5240314712 -0.5524969945 0.0000000000 0.7140427143
-0.2176789771 1.7368419224 0.2839554438 -0.5248549448 -0.0276200497 0.7338323964
0.4098305884 0.7776007603 0.1922736113 -0.5195373664 0.0032496839 0.7424961324
0.4603008463 0.1578947202 -0.4051277995 -0.4995944211 -0.0364941541 0.7144871353
0.4787006338 0.8421051745 -0.3454447531 -0.4561059520 -0.0222840503 0.7194546611
-0.3107885989 0.2216312398 -0.7105261884 -0.4922980008 -0.0007332104 0.6758266657
0.4237601659 0.1653279300 -0.2565549730 -0.5385919433 -0.0286226812 0.7116065040
0.4998331579 0.7862650225 -0.7105261884 -0.4630821091 0.0030610523 0.6733817712
-0.3531334891 0.9473683213 -0.1852912963 -0.5000000000 0.0526315734 0.7105262936
0.1336620912 0.9473683213 -0.1330971439 -0.5000000000 -0.0526315734 0.7105262936
-0.2000626105 0.9473683213 -0.3170103877 -0.5000000000 0.0526315734 0.7105262936
0.2895413379 1.8148476511 0.2758449183 -0.5045259995 0.0102967358 0.6610335094
0.3947367479 0.5283306812 0.2006611368 -0.5441033111 -0.0003928421 0.7147469774
0.4473683213 0.6629904039 -0.6972293477 -0.5325253650 0.0002350526 0.6711485083
0.4390636380 0.8559493310 -0.5333239965 -0.5473145740 -0.0186233665 0.7156339773
0.2107925568 0.8658947510 -0.6578946150 -0.5052231047 0.0000000000 0.7607878147
-0.0270216814 1.4090957990 0.2530574470 -0.5000000000 0.0058122099 0.6582166149
-0.2304429231 0.9473683213 -0.2822596019 -0.5000000000 -0.0526315734 0.7105262936
0.3997409053 0.4067857467 0.1859939278 -0.5270466287 -0.0052041573 0.6742486132
0.4970550529 0.8904475378 -0.6578946150 -0.4540092154 0.0003973684 0.7270141340
0.1746455079 0.9473683213 0.1193492506 -0.5000000000 -0.0526315734 0.7105262936
-0.0496612579 0.9473683213 -0.6784106654 -0.5000000000 0.0526315734 0.7105262936
0.4999998947 0.3701211189 -0.6590937201 -0.4492411106 -0.0017362103 0.7212488188
-0.1592375622 0.8701659084 -0.6578946150 -0.4849514226 0.0000000000 0.7563292888
0.1986896633 1.6964527162 0.2849860226 -0.5000000000 -0.0058122099 0.7628359723
0.0820823598 0.9473683213 -0.4873322119 -0.5000000000 0.0526315734 0.7105262936
0.3291448075 0.9473683213 -0.2586978149 -0.5000000000 -0.0526315734 0.7105262936
-0.3203342294 0.1094101464 -0.7105262936 -0.5049921047 -0.0013243157 0.6760742973
-0.2368421330 1.4899817379 0.2190503980 -0.4687894770 0.0013984209 0.7108800831
0.3268238603 0.9473683213 -0.3328330702 -0.5000000000 -0.0526315734 0.7105262936
0.4186765875 0.8862624857 -0.2275175024 -0.5485744686 -0.0082309991 0.7130411881
0.4285441128 0.8514262788 -0.3755308552 -0.5471904161 -0.0202059452 0.7152221352
0.2932729165 0.8421051745 0.1581362991 -0.5000000000 -0.0379510486 0.7342798701
0.4656142141 0.1578947202 -0.3545755416 -0.4877573697 -0.0356169436 0.7155652931
0.4787890549 0.2105262936 -0.6249013026 -0.4871557382 0.0349639437 0.7372949750
-0.0884122012 0.9473683213 -0.3078323360 -0.5000000000 -0.0526315734 0.7105262936
0.4473683213 0.5383268907 -0.6874102434 -0.5357876278 -0.0002965789 0.6741091922
0.4863883699 0.2351938173 -0.6578946150 -0.4811847915 0.0327679966 0.7378519223
0.4273955866 1.0996568316 0.2021268735 -0.4837631596 -0.0035579470 0.7479490265
-0.3421052798 0.1015518314 -0.7034161891 -0.5392516801 -0.0018672103 0.6786035075
0.2615628672 0.8421051745 0.1749805079 -0.5000000000 -0.0286398391 0.7493457632
-0.0838964122 1.7641824459 0.2894737064 -0.5000000000 -0.0133253144 0.7608028147
-0.0807329915 1.2464411320 0.2368421330 -0.5000000000 0.0159368931 0.7450194479
-0.0379269434 0.9473683213 -0.1861350857 -0.5000000000 -0.0526315734 0.7105262936
-0.0460480478 1.6898344011 0.2842506543 -0.5000000000 -0.0058122099 0.7628359723
0.0731117291 1.8004008105 0.2865559698 -0.4996381053 0.0033579470 0.6594015622
-0.1409377220 0.9473683213 -0.2425586587 -0.5000000000 0.0526315734 0.7105262936
0.4473683213 0.5906946747 -0.7056546099 -0.5336898386 0.0001906842 0.6726531924
-0.1635466670 0.9352179016 -0.6578945097 -0.4924390008 0.0020149472 0.6593838780
0.4493240580 0.2105262936 0.0098938937 -0.4755056868 0.0375734171 0.7207165557
0.3947367479 0.1232214081 0.2236480291 -0.5442422059 -0.0042188417 0.6867300330
0.0891303064 0.9473683213 -0.2750723921 -0.5000000000 0.0526315734 0.7105262936
-0.1633634565 1.7859386541 0.2894737064 -0.5037458417 -0.0040154206 0.7602024463
0.4199883242 0.2105262936 -0.1175837245 -0.5293554706 0.0312975757 0.7209640294
-0.2968772319 0.9473683213 -0.5615130988 -0.5000000000 0.0526315734 0.7105262936
0.2425278692 1.8171235982 0.2769829708 -0.5049271047 0.0166177877 0.6612865093
-0.1969527687 1.7903007063 0.2894737064 -0.5097397358 -0.0041424206 0.7578413413
-0.3152487563 0.0000000000 -0.6958709268 -0.4985756317 -0.0024358418 0.6982316633
-0.3151377563 0.8976729581 -0.2533817628 -0.4477680581 0.0000543158 0.7128173987
-0.2372160277 0.9473683213 -0.0079174729 -0.5000000000 -0.0526315734 0.7105262936
0.4621318987 0.1578947202 -0.3248410711 -0.4912494746 -0.0368805224 0.7149760826
-0.3421052798 0.3851290647 -0.6583597202 -0.5520309419 -0.0017019472 0.7152486616
0.3947367479 1.7844832858 0.2416722377 -0.4899891063 0.0033120523 0.6695975611
-0.2894737064 0.4174352718 -0.6842020859 -0.4569814782 -0.0007013157 0.7155876089
0.4395150590 1.4768211603 0.1938675585 -0.4747614763 0.0049061574 0.6757202447
0.4807166862 0.0000000000 -0.6621220882 -0.4862644751 -0.0040009996 0.7190445033
0.4950957900 0.9268402182 -0.5843332016 -0.4529336892 0.0173492087 0.7155730299
0.0993076738 1.8326960176 0.2894737064 -0.5000000000 -0.0007734210 0.7630938670
-0.2585254991 0.8921680640 -0.6578946150 -0.4825560545 0.0000000000 0.7552423416
0.4458490583 1.2563846572 0.1679338244 -0.4702080558 0.0048681048 0.6717089293
-0.0741852553 0.8446710690 0.1842105596 -0.4993134211 -0.0224791555 0.7574232361
0.4080029571 0.9277140076 -0.0674141508 -0.5492475738 0.0076848939 0.7102610305
-0.1029347786 0.9473683213 -0.3763191709 -0.5000000000 -0.0526315734 0.7105262936
-0.2368421330 0.7292202917 0.1677552455 -0.4650716879 -0.0019103156 0.6979071897
-0.2894737064 1.5630725197 0.2203567136 -0.5466151530 0.0021044735 0.7022122419
-0.2135641880 0.9473683213 -0.5908314641 -0.5000000000 0.0526315734 0.7105262936
-0.1950161900 0.9473683213 0.0205434715 -0.5000000000 -0.0526315734 0.7105262936
0.0500369421 1.8100164411 0.2750184974 -0.4982070528 0.0084882623 0.6591461938
-0.3007942315 0.1847133490 0.0443929953 -0.5524398366 0.0000000000 0.7145992406
0.3947367479 0.3020722314 0.2505632368 -0.5315703651 0.0027225787 0.7491186580
0.4794720022 0.8421051745 -0.4606800041 -0.4669223193 -0.0201272084 0.7197222400
0.4129546407 1.1375589855 0.1539543522 -0.5139612617 0.0048814732 0.6686388770
0.4187414296 0.8155324405 0.1875321382 -0.5066612625 0.0035099470 0.7431968691
-0.2745316553 1.1727064029 0.2107208726 -0.5209345767 -0.0033145786 0.7476153950
0.4354012173 0.9473683213 -0.7056547152 -0.5000000000 -0.0526315734 0.7105262936
0.4628716355 0.1578947202 -0.1395340379 -0.4775047918 -0.0387113643 0.7154591352
0.2496913948 0.9473683213 -0.6012337262 -0.5000000000 -0.0526315734 0.7105262936
-0.3622583829 0.8906279062 -0.6578946150 -0.5000000000 0.0000000000 0.7631578670
-0.2483210791 1.1173814087 0.1515805630 -0.4787678443 0.0046605785 0.6692594032
0.4999998947 0.7339903438 -0.6689659822 -0.4527215313 -0.0004774210 0.7157272404
0.4288622180 0.9473683213 -0.3182893349 -0.5000000000 -0.0526315734 0.7105262936
-0.0375756803 0.9473683213 0.1776973497 -0.4896064748 0.0257894710 0.7490788685
-0.0370650487 0.9473683213 0.1540130364 -0.5000000000 -0.0526315734 0.7105262936
0.4732967923 0.2105262936 -0.2208128715 -0.4667071088 0.0344319964 0.7268964498
0.0741398343 0.9473683213 0.1028813050 -0.5000000000 0.0526315734 0.7105262936
0.4999998947 0.4506200578 -0.6744578237 -0.4536798470 -0.0012538946 0.7085511359
0.3947367479 1.7624409724 0.2686421822 -0.5358088910 -0.0005658420 0.7324792387
-0.2368421330 1.7871921277 0.2496751842 -0.4638867406 0.0031375786 0.7013888735
0.4089892727 1.4990564212 0.2491150790 -0.5150664195 -0.0035224733 0.7542702890
-0.1963136635 1.7368419224 0.2772397077 -0.5186873138 -0.0244741027 0.7248638711
0.4292028496 0.2053742942 -0.3490812264 -0.5311006809 0.0269115235 0.7253307658
0.2976280213 0.9473683213 -0.6204700400 -0.5000000000 0.0526315734 0.7105262936
0.1471155635 0.9473684266 -0.4443367427 -0.5000000000 0.0526315734 0.7105262936
-0.3319985440 0.2571749203 -0.6578946150 -0.4602080568 -0.0002195789 0.7390495012
-0.0212764714 0.9473683213 -0.1471324056 -0.5000000000 0.0526315734 0.7105262936
-0.3198595979 0.9473683213 -0.5000977895 -0.5000000000 -0.0526315734 0.7105262936
-0.2227609766 1.2631577618 0.1892900327 -0.5151969984 0.0353724173 0.6823372966
-0.2578691308 0.6387282486 0.2096327148 -0.4931422112 0.0034526312 0.7466943425
0.4100543779 0.1626959829 -0.0235572607 -0.5380918381 -0.0316524704 0.7120697145
-0.3002649684 0.9473683213 -0.4344639016 -0.5000000000 0.0526315734 0.7105262936
0.4999998947 0.1775359813 -0.6589677727 -0.4488183738 -0.0023235787 0.7197315032
-0.2934252849 0.2591487096 -0.6578946150 -0.4753501079 -0.0026394208 0.7537461838
-0.1893850327 0.9473683213 -0.5361091015 -0.5000000000 -0.0526315734 0.7105262936
0.4444749532 1.0828860439 0.1475221950 -0.4767566340 0.0051252626 0.6669248245
0.2419043956 0.9473683213 -0.3703520136 -0.5000000000 -0.0526315734 0.7105262936
0.4596943200 0.1070228835 -0.6578946150 -0.5214877346 -0.0238716291 0.7194639243
0.4059426415 1.6600021937 0.2154182931 -0.5236505765 0.0062158941 0.6718110345
0.4214650083 1.4918583693 0.1956366110 -0.5031433155 0.0057042099 0.6714865083
-0.1934956112 0.9473683213 -0.6145628827 -0.5000000000 -0.0526315734 0.7105262936
0.4473683213 1.8222252819 0.2739541817 -0.4701285821 -0.0010281578 0.7394076064
-0.2894737064 0.1391789853 -0.6680594560 -0.4640666354 -0.0028149471 0.7382834486
0.4326002176 1.3556674889 0.2322457650 -0.4834426860 -0.0033753681 0.7519557103
0.4740634764 0.1578947202 -0.5193484190 -0.4855696331 -0.0315361546 0.7168219772
-0.2368421330 1.6990938738 0.2283598181 -0.4644643195 0.0086321044 0.6857482436
-0.3387893328 1.7894734958 0.2721290240 -0.5000000000 -0.0526315734 0.7105262936
-0.0479683634 0.9139799038 0.1842105596 -0.4886794749 0.0071370519 0.7546638679
-0.0367320488 1.3580618044 0.2473870266 -0.5000000000 0.0058122099 0.6582166149
0.4333844281 0.8965668004 -0.4481351634 -0.5451693110 0.0017642630 0.7124788197
0.4554124257 0.8519574366 0.0109182620 -0.4600926358 -0.0276363129 0.7166083983
0.0665856772 0.9473683213 -0.4445727427 -0.5000000000 -0.0526315734 0.7105262936
0.3968242740 0.8706643820 0.1002655158 -0.5480784160 -0.0136546828 0.7124705040
-0.2894737064 0.1366024593 0.2656787089 -0.5371283645 0.0014747367 0.7382340276
0.4649194247 0.6828052439 -0.7105261884 -0.5046352627 0.0004981052 0.6674731929
-0.3560380152 0.9473683213 -0.6842315069 -0.5000000000 0.0526315734 0.7105262936
-0.3230851239 0.1918360851 -0.3345522806 -0.5523740998 0.0000000000 0.7152387142
-0.3262216499 0.2183157139 -0.6578947202 -0.4611612672 -0.0007463157 0.7408006062
-0.3138000196 0.8943832743 0.1315789861 -0.4972323687 -0.0002040526 0.6733560344
-0.2005093473 1.2105261884 0.2161191878 -0.5114884198 -0.0358223647 0.7172487666
-0.1021727261 1.2485213949 0.2368421330 -0.5000000000 0.0178829455 0.7461676583
0.0613815199 1.3738981185 0.2491466580 -0.5000000000 -0.0058122099 0.7628359723
0.3864305383 0.9473683213 -0.5569687835 -0.5000000000 -0.0526315734 0.7105262936
-0.0986214633 0.9473683213 -0.1253514079 -0.5000000000 0.0526315734 0.7105262936
0.4050633258 0.8830800123 -0.0233195765 -0.5485163633 -0.0093591569 0.7123856092
0.3952192216 0.8558949099 0.1243418290 -0.5475188371 -0.0187453138 0.7130542407
-0.1276772497 0.8421051745 0.1461061425 -0.5000000000 -0.0446011532 0.7235197659
0.2334425544 0.9473683213 -0.6931669270 -0.5000000000 -0.0526315734 0.7105262936
0.2229875555 1.7621813408 0.2894737064 -0.5000000000 -0.0173265771 0.7582067097
-0.2563850256 0.9151135353 -0.6578946150 -0.4861433699 0.0022413682 0.6612964567
-0.2952114426 0.1586560359 0.1393003011 -0.5524895734 0.0000000000 0.7141148196
-0.3421052798 0.0427899429 -0.7102453989 -0.5372698382 -0.0018903682 0.6735371923
0.4342465859 0.1834147702 -0.4348235858 -0.5356429436 -0.0038125785 0.7171631350
-0.0142894722 0.9473683213 -0.5801721495 -0.5000000000 -0.0526315734 0.7105262936
-0.2894737064 1.0033903681 0.1722964029 -0.5398408905 0.0001762631 0.7121595566
0.3829556439 1.7577733413 0.2427326060 -0.4907461589 -0.0058382099 0.6612016672
0.2516484998 0.9473683213 0.0606889936 -0.5000000000 -0.0526315734 0.7105262936
0.2599330779 1.2388025538 0.2368421330 -0.5000000000 0.0027725787 0.7477424476
-0.3133523881 0.2072832940 -0.1690955085 -0.4515374262 0.0000000000 0.7221884503
0.4999998947 0.0986983054 -0.6616248777 -0.4493993211 -0.0025221576 0.7167517140
-0.2368421330 0.4217051661 0.2231105555 -0.4598774779 0.0009589999 0.7296670285
0.4201533768 0.1899638221 -0.1952406637 -0.5407274168 0.0013446841 0.7127510302
-0.2901609695 0.2179580297 -0.7105261884 -0.4594176885 -0.0004747368 0.6808359283
0.4457594268 1.0723173082 0.1989104527 -0.4592174253 -0.0025566839 0.7396402906
0.3444076480 0.9473683213 -0.0720916766 -0.5000000000 -0.0526315734 0.7105262936
-0.3042732838 0.1587278780 -0.0147504721 -0.4489961633 0.0000000000 0.7149232932
0.4233511133 0.8458393846 -0.2976365476 -0.5470003108 -0.0221423661 0.7151728195
-0.0301972600 1.7544535522 0.2456480794 -0.4943384743 0.0037469996 0.6590938254
0.4981606318 0.1885930854 -0.6266259340 -0.4621936882 0.0090105780 0.7304719231
0.4080952202 0.8622730671 -0.0687974664 -0.5477031529 -0.0165182614 0.7135196617
-0.0783915707 1.2982453370 0.2407407641 -0.5000000000 0.0058122099 0.6582166149
-0.2894737064 1.1372188803 0.1854016647 -0.5421218377 0.0004053157 0.7119803461
0.3894809064 0.9473683213 -0.6717403503 -0.5000000000 -0.0526315734 0.7105262936
0.2362210278 1.2410230799 0.2368421330 -0.5000000000 0.0059131046 0.7477424476
0.1322106177 1.8141756511 0.2755090236 -0.5017189472 0.0136896828 0.6602215095
-0.0018741577 0.9473683213 -0.0111920515 -0.5000000000 0.0526315734 0.7105262936
0.4350873226 0.1011577262 0.2241973975 -0.4797031600 -0.0064705256 0.6738977185
0.2373083434 0.9473683213 -0.6531109839 -0.5000000000 0.0526315734 0.7105262936
-0.0700898347 1.7368419224 0.2639890775 -0.4968390003 -0.0093483674 0.7107219252
0.2423085534 0.9473683213 -0.3482273844 -0.5000000000 -0.0526315734 0.7105262936
-0.2649743932 0.9473683213 -0.0747112027 -0.5000000000 0.0526315734 0.7105262936
0.2109515567 0.8908141168 0.1842105069 -0.5117744198 -0.0032819470 0.7545460785
0.1822524545 0.8421051745 0.1481158791 -0.5000000000 -0.0434902059 0.7253173447
0.1672948771 0.8660267509 -0.6578945097 -0.5004968947 0.0000000000 0.7629323934
0.4808963178 0.8501371210 -0.7105261884 -0.4856310015 0.0024547366 0.6701878242
-0.2891560222 1.0547511521 0.1442121953 -0.5266403656 0.0050406310 0.6668649824
-0.2894737064 0.5792205180 0.1986361370 -0.5370285750 0.0005341052 0.7216925030
0.3990376948 0.7259366604 0.1987316633 -0.5349896805 0.0029354734 0.7417775535
-0.2368421330 1.7705425505 0.2348175016 -0.4642248985 0.0052135784 0.6834144017
-0.2894737064 0.2506639210 0.2255800289 -0.5369752593 -0.0027862629 0.7018532419
0.4473683213 1.6041185680 0.2594670253 -0.4696134243 -0.0024104734 0.7491073422
0.2023019787 1.7187666612 0.2874653382 -0.5000000000 -0.0058122099 0.7628359723
0.4999998947 0.3910713799 -0.6653156142 -0.4510151631 -0.0015763156 0.7160083457
0.0895678327 1.7748178132 0.2841634438 -0.5006536315 -0.0016129472 0.6593886674
0.4145597985 0.0227972081 0.2339924491 -0.5146802090 -0.0053786310 0.6813627704
0.4273259024 0.2080451360 -0.3171741245 -0.5311944704 0.0302463652 0.7256368710
0.2492851843 0.9473683213 -0.1601753516 -0.5000000000 -0.0526315734 0.7105262936
-0.0402710484 0.9473683213 -0.3628179618 -0.5000000000 0.0526315734 0.7105262936
-0.3052545994 0.9473684266 -0.3513376472 -0.5000000000 0.0526315734 0.7105262936
-0.2941593901 0.9473683213 0.0851607279 -0.5000000000 -0.0526315734 0.7105262936
-0.3294826495 0.8608640673 -0.4685555296 -0.4479407423 0.0000000000 0.7162640825
0.0620948882 0.9473683213 -0.6399951432 -0.5000000000 -0.0526315734 0.7105262936
0.4609955304 0.8756433815 -0.0728293608 -0.4565593730 -0.0114301567 0.7176077666
-0.2370048172 1.4805435810 0.2469370793 -0.4689933717 -0.0034313681 0.7518501840
0.4446018479 0.5651012037 0.1662045088 -0.4660748983 -0.0048643679 0.6729407713
0.4937042638 0.9169868508 -0.5634592038 -0.4526014787 0.0138335775 0.7164545562
-0.1909476115 0.9473683213 -0.2479675002 -0.5000000000 -0.0526315734 0.7105262936
0.0759705183 0.8993852737 0.1842105596 -0.4997344737 0.0020444735 0.7575324992
0.3697031190 0.9473683213 -0.1501894579 -0.5000000000 -0.0526315734 0.7105262936
0.2933926007 0.9473683213 0.0593601516 -0.5000000000 0.0526315734 0.7105262936
0.2763425499 1.2105261884 0.2041405048 -0.5000000000 -0.0372161540 0.7014953472
-0.2894737064 0.2268115024 -0.6668113509 -0.4636030038 -0.0024630524 0.7391196590
0.4925193692 0.9292380601 -0.7105261884 -0.4718016345 0.0035996838 0.6721588766
-0.1459299846 1.8241727554 0.2894737064 -0.5016912630 0.0073931571 0.7610871304
-0.3354510700 0.1584490360 -0.5447729953 -0.5521308366 0.0000000000 0.7176064508
-0.0991832527 0.9473683213 -0.4228258502 -0.5000000000 0.0526315734 0.7105262936
0.4039131154 0.3318021230 0.2479983949 -0.5175651034 0.0031527891 0.7515938156
-0.0140603669 1.2150267142 0.2368421856 -0.5000000000 -0.0308513125 0.7477424476
0.0643905195 0.9473684266 -0.4720358450 -0.5000000000 -0.0526315734 0.7105262936
-0.3074308624 0.6396904063 -0.6578946150 -0.4826521071 -0.0001608421 0.7527910260
-0.0713639925 0.9473683213 0.1276189339 -0.5000000000 0.0526315734 0.7105262936
-0.2368421330 1.8143890722 0.2657081826 -0.4633742144 0.0011085788 0.7191511875
0.1800534021 0.9473683213 -0.3375556487 -0.5000000000 -0.0526315734 0.7105262936
-0.2495659737 0.4175740087 0.1846454016 -0.4855606331 -0.0055887889 0.6719714556
0.4861000541 0.1991252948 -0.4215972188 -0.4638302143 0.0212016293 0.7284937654
0.4408702694 1.6772823498 0.2700828137 -0.4807901073 -0.0030526313 0.7562677625
0.3422697008 1.7846776016 0.2894737064 -0.4937778954 -0.0046447890 0.7610003409
0.3947367479 1.3828818018 0.2170922403 -0.5294876285 -0.0007295262 0.7270827656
0.4297970074 0.2105262936 -0.2021342945 -0.5190812085 0.0341257332 0.7241974501
-0.2368421330 1.1094688306 0.1685362454 -0.4679181613 0.0097988411 0.6978094529
0.3175387034 1.8406353852 0.2754411289 -0.5043138417 0.0192348927 0.6620432987
-0.1264381972 0.9473683213 -0.1920224535 -0.5000000000 0.0526315734 0.7105262936
-0.2969752319 0.1941259796 0.1093166201 -0.5524738892 0.0000000000 0.7142678722
-0.2542300785 1.5558556257 0.2557972889 -0.4876080539 -0.0033617891 0.7542100785
0.3307264389 0.9473683213 -0.1064449362 -0.5000000000 0.0526315734 0.7105262936
0.4326660597 1.4099147463 0.2386278170 -0.4847220016 -0.0033926312 0.7532366576
-0.0088824727 0.9473683213 -0.2292596074 -0.5000000000 -0.0526315734 0.7105262936
0.1915545062 1.5941024111 0.2736137607 -0.5000000000 -0.0058122099 0.7628359723
0.0469291003 0.9473683213 -0.4016197472 -0.5000000000 0.0526315734 0.7105262936
0.4567173203 0.8421051745 -0.0927292008 -0.4696072137 -0.0312249441 0.7167907140
0.4111042199 0.7875477066 0.1383986696 -0.5038245785 -0.0052007363 0.6663684035
-0.0985327791 0.9473683213 -0.0834498860 -0.5000000000 0.0526315734 0.7105262936
-0.2559594467 1.5438775743 0.2017565577 -0.4860371594 0.0059893152 0.6708683504
-0.3841779596 0.9473683213 -0.5630873618 -0.5000000000 -0.0526315734 0.7105262936
0.3988570106 1.2874334961 0.2242181869 -0.5232440502 -0.0041383154 0.7547839732
0.4473683213 0.9854552647 0.1789755075 -0.4570080045 -0.0010675262 0.7236836080
-0.2406525010 0.9473683213 -0.6040135154 -0.5000000000 -0.0526315734 0.7105262936
-0.3247343869 0.8429162797 -0.3973314319 -0.4478866371 0.0000000000 0.7151676089
0.4616999514 0.6403209852 -0.7105261884 -0.5095536832 0.0002301052 0.6680372455
-0.2368421330 1.5436985217 0.2500453421 -0.4677804244 -0.0024978418 0.7450163426
0.4944556322 0.1794741390 -0.5636416775 -0.4592947938 -0.0000626316 0.7258688710
-0.0543375732 1.8104049147 0.2736235501 -0.4964053162 0.0150694721 0.6614020883
-0.3421052798 0.8471995950 0.1784202444 -0.5371258382 -0.0004017368 0.7396439748
-0.2077499255 1.2631577618 0.2159175562 -0.5126951566 0.0356759436 0.7183028191
0.4773611603 0.4941102638 -0.7105261884 -0.4898071063 -0.0000620000 0.6695583506
0.4177886402 0.2105262936 -0.0192354717 -0.5265820498 0.0303804705 0.7182085560
0.4914488430 0.3060507573 -0.7105262936 -0.4730196344 -0.0005289999 0.6719216661
-0.3492450159 0.9473683213 0.0013436314 -0.5000000000 0.0526315734 0.7105262936
0.0535868891 1.7745784974 0.2767935498 -0.4984272107 -0.0005371578 0.6591855096
-0.2727322871 0.1965364530 0.2122750829 -0.5159837878 -0.0063898414 0.6723297187
0.3990574843 0.8572705940 -0.6578946150 -0.5287087865 0.0000000000 0.7501307631
-0.2181035560 1.7986695475 0.2462114478 -0.5077063150 0.0120629461 0.6625042461
-0.1537211943 0.9473683213 -0.0910727273 -0.5000000000 0.0526315734 0.7105262936
0.1850137700 1.7368419224 0.2647589195 -0.5029927365 -0.0095894727 0.7111642409
0.3909616957 0.9473683213 -0.2348796595 -0.5000000000 0.0526315734 0.7105262936
0.4251295342 0.2105262936 -0.2330120807 -0.5285184181 0.0330333649 0.7244774501
-0.3279988602 0.9473683213 0.1283170918 -0.5000000000 -0.0526315734 0.7105262936
0.4711358978 0.0703771505 -0.6578946150 -0.5060063152 -0.0136385775 0.7254742394
0.1284214602 1.7933235481 0.2650829195 -0.5030023155 0.0099225779 0.6591365622
0.4634462670 0.9473683213 -0.3308354389 -0.5000000000 -0.0526315734 0.7105262936
-0.0586078359 1.2918292324 0.2400278695 -0.5000000000 0.0058122099 0.6582166149
-0.2894737064 0.8430253323 -0.7054657678 -0.4718977398 0.0019176314 0.6669948245
-0.2097025042 1.2473641319 0.2368421330 -0.5130205776 0.0145783669 0.7461627636
0.0882722539 0.9473683213 0.0807446231 -0.5000000000 0.0526315734 0.7105262936
-0.0269235761 0.9473683213 -0.2377908697 -0.5000000000 -0.0526315734 0.7105262936
0.4532500049 0.3041143890 -0.7105261884 -0.5304230494 -0.0005965263 0.6776418760
0.2309146073 0.9473683213 -0.3098872305 -0.5000000000 -0.0526315734 0.7105262936
0.4056359573 0.9097484832 -0.0319087861 -0.5495376264 -0.0001727895 0.7111946620
0.2255862920 1.7368419224 0.2831534439 -0.5000000000 -0.0244391553 0.7444601848
-0.2894737064 0.4848411595 0.2212954504 -0.5370857329 0.0021683156 0.7369949751
0.4889967906 0.5721687292 -0.6578946150 -0.4702272663 0.0178969455 0.7327528702
0.4906145273 0.0544219943 -0.7105261884 -0.4765323183 -0.0017894735 0.6743522974
0.4016669577 1.1165097772 0.2041096101 -0.5171724192 -0.0047564732 0.7572512887
-0.2574046571 0.9473683213 -0.2852529173 -0.5000000000 0.0526315734 0.7105262936
0.4999998947 0.6229324607 -0.6994752948 -0.4601752147 0.0011375788 0.6846799806
-0.2712789188 0.3880370644 0.1883375065 -0.5164619456 -0.0060831573 0.6699900347
0.4474576897 0.2105262936 -0.4181774823 -0.5047184206 0.0394074695 0.7316425019
0.1805894020 0.9473683213 0.0821851492 -0.5000000000 0.0526315734 0.7105262936
-0.3421052798 0.2951708637 -0.6642768248 -0.5503085737 -0.0018838945 0.7109171357
-0.2894737064 1.6382129328 0.2334588702 -0.5428891007 0.0015154735 0.7097332411
0.3255009657 0.9473683213 -0.1972048213 -0.5000000000 0.0526315734 0.7105262936
-0.0763526762 1.7035827680 0.2857782857 -0.5000000000 0.0058122099 0.6582166149
0.3947367479 1.2209323978 0.2230495555 -0.4727384766 -0.0162850509 0.7263437130
0.3486253844 0.9473683213 -0.3041283364 -0.5000000000 -0.0526315734 0.7105262936
0.2438505533 0.9473683213 -0.6741225606 -0.5000000000 0.0526315734 0.7105262936
-0.2368421330 0.3136298091 0.2336254491 -0.4612494251 0.0005611578 0.7281155549
-0.0613448883 0.9473683213 0.0957609899 -0.5000000000 -0.0526315734 0.7105262936
0.4399988484 0.1585016149 -0.5326122597 -0.5373185750 -0.0365046277 0.7117325040
-0.2962862846 0.8859700646 0.0293901022 -0.4475625845 0.0000000000 0.7085984517
-0.2894737064 0.1197245663 -0.6610621936 -0.4662003720 -0.0032535260 0.7472698687
-0.2671786561 0.9473683213 -0.3819365387 -0.5000000000 -0.0526315734 0.7105262936
0.1788829812 0.9186417454 -0.6578946150 -0.5000000000 0.0000000000 0.7631578670
0.0865539383 1.2631577618 0.1870476645 -0.5000000000 0.0372161540 0.6773224024
-0.1438901954 0.9473683213 -0.5008715789 -0.5000000000 -0.0526315734 0.7105262936
0.2771210235 0.9473683213 -0.1381959855 -0.5000000000 0.0526315734 0.7105262936
-0.0474187319 1.4067674309 0.2527987629 -0.5000000000 -0.0058122099 0.7628359723
-0.1222039345 0.9004426421 0.1842105596 -0.4843893174 0.0005264210 0.7535506575
0.3513545946 1.2631577618 0.2020092945 -0.4873685803 0.0406007326 0.7077281887
0.2335990280 1.8003399684 0.2894737064 -0.5000000000 -0.0062759993 0.7607625515
0.4409307431 0.1596077727 0.2695227611 -0.4702596347 0.0027853681 0.7488900791
0.2098612411 1.5756950973 0.2715684977 -0.5000000000 0.0058122099 0.6582166149
-0.1586787728 0.9473683213 -0.5395856274 -0.5000000000 -0.0526315734 0.7105262936
-0.2549360258 0.3075738097 0.1983954002 -0.4908944220 -0.0056925783 0.6737221922
0.4189022717 0.1578947202 0.0497789421 -0.5220122608 -0.0396463116 0.7126296092
0.3995163790 0.8788192233 0.0598845726 -0.5483788896 -0.0108396831 0.7122546092
0.4535481102 0.9473683213 -0.2937700743 -0.5000000000 -0.0526315734 0.7105262936
0.4838292122 0.4073195887 -0.6578946150 -0.4794113706 0.0258153657 0.7352019226
0.0405426273 0.9473683213 -0.3157054405 -0.5000000000 -0.0526315734 0.7105262936
-0.1894289274 0.9473683213 -0.1595649832 -0.5000000000 -0.0526315734 0.7105262936
-0.2823242861 0.5595925727 0.2195246611 -0.5288759970 0.0037624733 0.7489793422
0.4437586901 0.2105262936 -0.5130410513 -0.5166445772 0.0388304170 0.7336733965
-0.2992058106 0.8557015415 -0.0144028932 -0.5525149945 0.0000000000 0.7140272933
-0.1861946646 0.9473683213 -0.0836788333 -0.5000000000 0.0526315734 0.7105262936
0.4164177983 0.9473683213 0.0324295755 -0.5000000000 -0.0526315734 0.7105262936
-0.0785092023 1.4423325850 0.2567504467 -0.5000000000 0.0058122099 0.6582166149
-0.2894737064 0.5023145787 0.2082720833 -0.5370248382 0.0003074210 0.7217380819
-0.3007932315 0.8618888040 -0.7105262936 -0.4879586328 0.0020754208 0.6664576141
0.1867109803 1.5692744138 0.2708550768 -0.5000000000 -0.0058122099 0.7628359723
0.4473683213 0.2721499187 -0.6873922434 -0.5445574164 -0.0014784735 0.7100660832
0.4127925881 1.8032041786 0.2848971279 -0.5157194720 -0.0025192629 0.7515233946
-0.2894737064 0.0028758418 -0.6890177169 -0.4594785832 -0.0024198945 0.7130045039
0.4373120592 0.6772496129 0.2048175048 -0.4744881606 0.0040813154 0.7495089737
0.3947367479 0.3012947578 0.2292858180 -0.5410579430 -0.0002563158 0.7205226084
-0.3421052798 0.8765053288 0.1736645080 -0.5372161540 0.0000000000 0.7328280808
0.1358180383 1.7812481809 0.2894737064 -0.5000000000 -0.0067649993 0.7621707092
0.4999998947 0.3525702260 -0.6756365605 -0.4538105312 -0.0015337367 0.7066965046
-0.2894737064 0.7749805500 -0.6597890358 -0.4604838463 -0.0002230526 0.7433608165
0.3947367479 1.0820429914 0.1881156118 -0.5298572074 0.0166502088 0.7325994492
-0.2698669190 1.8033869154 0.2322870808 -0.5147165248 0.0050695784 0.6810563494
-0.2894737064 0.6533882996 -0.6939351901 -0.4671018456 0.0006689473 0.6714313504
-0.2894737064 0.6956857689 0.1523302471 -0.5370817856 -0.0038938943 0.6768957709
0.4473683213 0.3955485373 -0.6893042432 -0.5388469433 -0.0006598420 0.6773025077
0.1125920408 0.9473683213 -0.3855758541 -0.5000000000 0.0526315734 0.7105262936
0.1712254557 0.9473683213 -0.3895642222 -0.5000000000 -0.0526315734 0.7105262936
0.2823199703 0.9023245892 0.1842105069 -0.5161142615 0.0013026841 0.7534199733
-0.2942201796 0.0911354641 -0.7105261884 -0.4630648986 -0.0010534736 0.6827227702
-0.1339574070 1.8083277570 0.2894737064 -0.5002803158 0.0027307892 0.7609828673
0.4359077436 0.9208451136 -0.4859865278 -0.5419592061 0.0172288929 0.7104550305
0.4568922151 0.1578947202 -0.3041839680 -0.4981381055 -0.0385180486 0.7140445564
0.0039393154 0.9473683213 -0.4897463169 -0.5000000000 -0.0526315734 0.7105262936
-0.2513036578 0.2476203950 0.2585211307 -0.4927408429 0.0033264207 0.7544349206
0.2273187655 0.9473683213 -0.0476318897 -0.5000000000 -0.0526315734 0.7105262936
0.2063555046 1.3971523792 0.2517304472 -0.5000000000 -0.0058122099 0.7628359723
-0.2368421330 1.5626825197 0.2419603430 -0.4675157403 -0.0007261578 0.7302706600
0.4999998947 0.3635535407 -0.7031229786 -0.4610408988 -0.0002710526 0.6809316125
0.4398334800 0.1933390323 -0.5298033127 -0.5295665232 0.0125757355 0.7251335026
-0.3306491757 0.1674965087 -0.4631404776 -0.5521736787 0.0000000000 0.7171898192
0.0183849981 1.2328715544 0.1842105596 -0.5000000000 -0.0090205780 0.6705182452
-0.0714383609 1.3946594848 0.2514534472 -0.5000000000 -0.0058122099 0.7628359723
0.4269787445 0.9473683213 -0.4542779522 -0.5000000000 0.0526315734 0.7105262936
0.3947367479 1.1124628829 0.1613151935 -0.5327938913 0.0075057361 0.6862300330
0.4525326366 0.8421051745 -0.6344266174 -0.5347798384 -0.0227068923 0.7172490298
0.4883533170 0.0909075167 -0.7105261884 -0.4793211601 -0.0016575788 0.6740690869
-0.1366022488 0.9473683213 0.1788266654 -0.4807735283 0.0240192080 0.7477969213
-0.1097563042 0.8421051745 0.1604047726 -0.5000000000 -0.0366970488 0.7363088699
0.4473683213 1.8374589645 0.2554026047 -0.4614576883 0.0016354209 0.7125342934
0.5000000000 0.4211459557 -0.6939543480 -0.4588112675 -0.0006129473 0.6902994010
-0.2591291306 1.0461156794 0.1431963007 -0.4908812115 0.0047100521 0.6678163508
0.3882252749 0.8421051745 0.1736752449 -0.5000000000 -0.0293613127 0.7481783423
-0.1077615150 0.9473683213 -0.3033811786 -0.5000000000 0.0526315734 0.7105262936
0.4535559523 0.7381094486 -0.6578947202 -0.5310127862 -0.0116075777 0.7208522399
0.4652261089 0.8962712741 -0.1362879330 -0.4536353733 0.0023882629 0.7183979770
0.4401607431 0.8421051745 -0.4528472155 -0.5364892067 -0.0250685763 0.7161756615
0.1790954548 1.2304000810 0.2368421330 -0.5000000000 -0.0091102622 0.7477424476
0.4220688503 0.1713382451 -0.2278039234 -0.5397188379 -0.0216886293 0.7112337672
0.4282119023 0.9473683213 -0.5491230475 -0.5000000000 0.0526315734 0.7105262936
-0.2368421330 0.3876329066 0.1972606634 -0.4606685305 -0.0035291575 0.6887488222
0.0364947330 1.6976706108 0.2851213384 -0.5000000000 -0.0058122099 0.7628359723
0.3109559673 1.2529321839 0.2368421330 -0.4976561055 0.0198476821 0.7495229737
-0.1369765645 0.8421051745 0.1753842447 -0.5000000000 -0.0284166286 0.7497068685
0.4437502691 1.8421050693 0.2893598643 -0.4806663705 -0.0027067366 0.7567006046
0.3947367479 1.2213042925 0.1738825606 -0.5332907333 0.0077536834 0.6863368751
-0.0472532056 1.3758565394 0.2493642369 -0.5000000000 0.0058122099 0.6582166149
-0.2368421330 0.2217973451 0.2234691344 -0.4539238996 -0.0024376840 0.7012405578
0.0152323142 1.2130925565 0.1842105596 -0.5000000000 -0.0339778912 0.6729895081
0.0672303613 1.6967871898 0.2850231805 -0.5000000000 0.0058122099 0.6582166149
0.4419590587 0.4753716342 0.1774207182 -0.4690824769 -0.0052992100 0.6724515608
-0.2676808139 1.7204196610 0.2751577605 -0.5003916842 -0.0029440523 0.7548508153
0.4473683213 0.4311575336 0.1882169276 -0.4629924249 -0.0044679469 0.6809452441
0.4999998947 0.4909487904 -0.6779887181 -0.4547438995 -0.0010767367 0.7058173994
0.3947367479 1.1228977765 0.1781975076 -0.5313945230 0.0122947355 0.7102374516
-0.1965641372 1.8349667542 0.2569811308 -0.5094668411 0.0188312612 0.6646123511
0.0280102602 1.4244220606 0.2547603416 -0.5000000000 0.0058122099 0.6582166149
-0.2894737064 0.1573406676 0.2509312367 -0.5370599435 -0.0006093157 0.7211246083
0.4302995863 0.9473683213 -0.1269212498 -0.5000000000 -0.0526315734 0.7105262936
-0.2832758123 0.9473683213 -0.7088227149 -0.5000000000 0.0526315734 0.7105262936
0.1520020893 0.9473683213 -0.0158386825 -0.5000000000 0.0526315734 0.7105262936
0.3675445929 0.9473683213 0.0370335750 -0.5000000000 -0.0526315734 0.7105262936
0.3287648601 0.9473683213 -0.4161777457 -0.5000000000 -0.0526315734 0.7105262936
0.4473683213 0.2317443967 -0.6591194569 -0.5463198899 -0.0043239995 0.7323678176
0.4060852730 0.4264071656 0.1835412438 -0.5163708404 -0.0055352626 0.6720719293
-0.2846094437 0.9473683213 -0.3147554932 -0.5000000000 -0.0526315734 0.7105262936
-0.1690170875 0.9212648504 0.1842105596 -0.4788174759 0.0091154727 0.7521048156
-0.3065178625 0.8982125370 -0.1240833027 -0.5525149945 0.0000000000 0.7140272933
0.4688583191 0.8904990115 -0.1907704536 -0.4532870575 0.0007726841 0.7187880822
-0.3176400192 0.1434518796 -0.7105261884 -0.5014616841 -0.0011476841 0.6759510867
0.4487954264 0.3694786453 -0.7105261884 -0.5360610488 -0.0003548947 0.6772308234
-0.2730897081 1.4207966925 0.2399080274 -0.5128193144 -0.0034875786 0.7541996575
0.4330717439 0.8617205409 0.1315789861 -0.4810152652 -0.0024550524 0.6718458766
0.2370327119 1.2535465523 0.1842105596 -0.5000000000 0.0236238396 0.6733101397
-0.3062090730 0.1913622956 -0.0476593634 -0.5523915734 0.0000000000 0.7150690826
0.4473683213 0.2505113421 -0.6928807165 -0.5445422058 -0.0011402630 0.7051659258
-0.2984931791 0.1579105097 0.0835114123 -0.5524603629 0.0000000000 0.7143995564
0.2368398172 1.8378117539 0.2873270224 -0.5033232628 0.0202505242 0.6623217198
-0.3370664908 0.2029521892 -0.5722354134 -0.5524732050 0.0000000000 0.7142741353
-0.3421052798 0.7131213986 -0.6703346663 -0.5489725212 -0.0005196842 0.7018308209
0.4473683213 0.6457526689 0.1728667713 -0.4629414776 -0.0018905787 0.6970654529
0.4999998947 0.2301559758 -0.6729793502 -0.4528244787 -0.0019469472 0.7079759781
0.4473683213 0.4200606926 -0.6997330316 -0.5377677329 -0.0003964736 0.6765925604
0.0009290525 1.7368419224 0.2546607627 -0.4956820005 -0.0046308942 0.6667474035
-0.3218922293 0.1817164546 -0.3142731248 -0.5522838892 0.0000000000 0.7161168194
-0.2368421330 0.8234203870 0.1706491926 -0.4616154777 0.0002875263 0.7161955562
-0.2894737064 1.2023087155 0.2132042407 -0.5400469958 -0.0023886313 0.7407672904
-0.2894737064 1.3308252810 0.2002747684 -0.5437472586 0.0013243157 0.7061508730
0.3516813840 0.9473683213 -0.5485409949 -0.5000000000 -0.0526315734 0.7105262936
-0.1143571985 1.2631577618 0.1861592436 -0.5000000000 0.0363817856 0.6750249289
0.3947367479 0.6884505065 0.1524575103 -0.5274856287 -0.0050916310 0.6699213505
-0.2894737064 0.2632044460 0.2503810263 -0.5371174171 0.0018739998 0.7389627117
-0.2591086569 1.2653564458 0.2216208714 -0.4985663159 -0.0041822101 0.7562743414
0.0961390425 0.9473683213 -0.5070844729 -0.5000000000 0.0526315734 0.7105262936
0.4473683213 0.7396358169 -0.6813710862 -0.5316476809 0.0001526842 0.6696574558
0.3949204321 0.9181311665 0.1288232496 -0.5499099421 0.0026891050 0.7101786095
0.3947367479 0.8318597019 0.1530606681 -0.5311372599 -0.0023494208 0.6923295587
-0.2999569158 0.1653655089 0.0586278886 -0.4485479002 0.0000000000 0.7127395039
0.4610240567 0.8554501731 -0.0732572554 -0.4584117412 -0.0230083134 0.7173635034
0.4374669540 1.3959451688 0.1843527174 -0.4800568442 0.0050895784 0.6731299818
0.0031876312 1.2474367108 0.1842105596 -0.5000000000 0.0093577359 0.6686984033
-0.3068604414 0.0273818919 -0.7105261884 -0.4817524756 -0.0014849998 0.6811397178
0.4765587919 0.0494660474 -0.6578946150 -0.4948577900 -0.0106358936 0.7241819764
-0.3421052798 0.5197899453 -0.6901990852 -0.5431522060 -0.0005968420 0.6877011908
0.0233792607 1.7759827078 0.2894737064 -0.5000000000 -0.0096536306 0.7616602882
0.0123654198 0.9287259022 0.1842105596 -0.4940610533 0.0144298932 0.7560603415
-0.0333612596 1.7368419224 0.2655556563 -0.4970333161 -0.0092029464 0.7139893985
-0.3387211749 0.0143807880 -0.6578946150 -0.5464808898 -0.0026880523 0.7212050820
-0.0788851496 0.9473683213 0.1485909317 -0.5000000000 -0.0526315734 0.7105262936
-0.3133630196 0.9473682161 -0.3865081698 -0.5000000000 0.0526315734 0.7105262936
-0.2894737064 0.2509428157 -0.6848130332 -0.4583537412 -0.0014570525 0.7162185562
0.3566098572 0.9473683213 -0.1176673034 -0.5000000000 -0.0526315734 0.7105262936
-0.0675316245 0.8421051745 0.1598850358 -0.5000000000 -0.0369843645 0.7358440278
-0.2524607629 1.2751611289 0.1701428768 -0.4825998439 0.0052238942 0.6695064558
0.1007344104 1.8042865469 0.2894737064 -0.5000000000 -0.0031086839 0.7629006039
-0.3142877564 0.8565600677 -0.2406316062 -0.5525149945 0.0000000000 0.7140272933
0.0177028402 0.9473683213 -0.2330749228 -0.5000000000 0.0526315734 0.7105262936
-0.2101117147 0.8591956990 -0.6578946150 -0.4759982657 0.0000000000 0.6655864563
0.4473683213 0.7193950295 0.1923285061 -0.4629378986 0.0027982102 0.7374651329
0.4464654267 0.8865636435 -0.6578946150 -0.5207964189 0.0000000000 0.6637797722
-0.2932290218 0.8645546458 0.0752495710 -0.5525149945 0.0000000000 0.7140272933
-0.3432365954 0.9473683213 -0.4573034782 -0.5000000000 -0.0526315734 0.7105262936
-0.2590377096 0.9473683213 -0.3594154885 -0.5000000000 0.0526315734 0.7105262936
-0.3256858078 0.9051171153 -0.4116024304 -0.4477256371 0.0010035262 0.7129071355
0.4249861132 0.8945205374 -0.3221608608 -0.5477842581 -0.0035204733 0.7127577144
-0.2368421330 0.7999243369 0.1624234040 -0.4656547931 -0.0014521577 0.7009107683
0.4422857429 0.0034903154 0.2890374433 -0.4686804243 0.0023914734 0.7486542370
0.4178495876 0.9143822195 -0.2151130300 -0.5477933108 0.0046559469 0.7112237672
-0.0440249427 0.9473683213 -0.3435208059 -0.5000000000 0.0526315734 0.7105262936
0.4352499542 0.1608627199 -0.4518814261 -0.5377594171 -0.0337787859 0.7116709251
0.2651610247 0.9473683213 -0.4509905841 -0.5000000000 0.0526315734 0.7105262936
-0.1959946109 1.2226849239 0.2368421330 -0.5107359462 -0.0187185770 0.7464399741
0.3165150719 0.9473683213 -0.3791206969 -0.5000000000 -0.0526315734 0.7105262936
-0.2820762335 0.1173995666 0.2747987605 -0.5286382601 0.0026943681 0.7490738159
0.4473683213 0.6092770411 -0.6887661380 -0.5341489964 -0.0000731053 0.6724877713
-0.3287518075 0.6072125677 -0.7105261884 -0.5212749978 0.0007059473 0.6711146136
0.4505563210 0.2099443463 0.1826456650 -0.4630856881 0.0361503120 0.7161246615
0.4831937386 0.6021025682 -0.6578946150 -0.4751832658 0.0175737350 0.7322295019
0.4208790610 1.3405948063 0.1778409286 -0.5061937362 0.0056686310 0.6686839822
-0.2368421330 1.0866947277 0.1560131415 -0.4671090035 0.0067397888 0.6826432439
-0.2434096060 0.9473683213 -0.6338449333 -0.5000000000 0.0526315734 0.7105262936
-0.0621435198 0.9473683213 -0.1019175156 -0.5000000000 0.0526315734 0.7105262936
0.4019786419 0.0394533643 0.2845420227 -0.5151557352 0.0029486839 0.7561722888
-0.2386051854 1.7258081868 0.2231601344 -0.4655030563 0.0062172099 0.6729088765
0.4655375299 0.9473683213 -0.5549357311 -0.4967561056 0.0316967335 0.7111489778
0.4885798959 0.2105262936 -0.6053173573 -0.4762832130 0.0332753649 0.7369083435
0.0974951476 0.9473683213 -0.6232307765 -0.5000000000 -0.0526315734 0.7105262936
-0.1800505600 1.8145934932 0.2652379194 -0.5009775262 0.0141812617 0.6618060882
-0.2368421330 0.0047742627 0.2870518645 -0.4755679499 0.0026823681 0.7549762889
-0.2918605482 0.9118613251 -0.7105261884 -0.4773141603 0.0023760524 0.6649697721
0.1519146156 0.9473683213 -0.0549501521 -0.5000000000 0.0526315734 0.7105262936
0.2345999753 1.3239319133 0.2435948165 -0.5000000000 -0.0058122099 0.7628359723
