0.3615948359 0.6104304855 -0.3527486613 -0.0017337382 -0.0003920070 0.0471911063
0.3486415570 1.4511060616 -0.4589910918 0.0006227453 -0.0003335868 0.0434454093
-0.0585517151 1.0798121686 -0.0205544641 -0.0000032031 0.0023472534 0.0456729632
-0.2972582677 1.8690842511 -0.4887372410 0.0003148697 0.0003348263 0.0479764608
0.2371333215 1.7083361394 -0.4820287459 -0.0002909143 0.0002655704 0.0479855687
0.1245720860 1.0563379910 0.4392256606 -0.0000625270 -0.0023367370 0.0454997918
-0.0053221536 1.0798121686 -0.2111212602 -0.0000000458 0.0023472370 0.0456621604
-0.4579736799 0.9978102935 0.2122227953 0.0018408814 -0.0008578263 0.0450329116
0.4433389597 0.3002181138 -0.3465041615 -0.0014017476 -0.0004011972 0.0474933950
0.4629598276 1.0162732835 0.1986811033 -0.0020266020 -0.0008358803 0.0449962238
0.2653096961 1.0563379910 0.1666835317 -0.0001622664 -0.0023291408 0.0456157543
-0.2909758383 1.6761555677 -0.4689656830 0.0001938486 0.0002654202 0.0479995453
-0.4583562949 1.0798121686 0.0094133353 -0.0000831608 0.0023456548 0.0456684773
0.3160394713 1.0651191738 0.4323116397 0.0014664096 0.0001021479 0.0475025570
0.4697367006 1.0798121686 0.1650984261 0.0000722218 0.0023461173 0.0456966228
-0.4129415923 0.5511783163 -0.3409107767 -0.0018542640 0.0004321831 0.0443382872
-0.3483094114 1.0563379910 0.1306047442 0.0002667922 -0.0023170422 0.0456176111
-0.3326140646 0.9488928375 -0.2951785412 0.0014107969 -0.0003671690 0.0474471580
-0.2804844537 1.0798121686 -0.1138211603 -0.0000185904 0.0023471760 0.0456665172
0.2592742010 1.7545474875 -0.5058636535 0.0003967899 -0.0002034765 0.0433824914
0.0238720919 1.0563379910 -0.1270382796 -0.0000091045 -0.0023392464 0.0457477543
-0.3397216136 0.7135308246 -0.3773178529 -0.0014358039 0.0004204108 0.0438833576
-0.3564194205 0.8070346030 0.4047481055 -0.0016600481 0.0004348169 0.0472249843
-0.3187288162 0.9254029721 -0.3161249889 0.0016189847 -0.0003735047 0.0472777026
-0.2218481882 1.7823246438 -0.5148185218 -0.0004978814 -0.0001763545 0.0433925337
0.0832660546 1.3951058781 -0.4643995799 0.0000123603 0.0001789883 0.0480170828
0.4202165944 1.0563380637 0.2751481593 -0.0008926725 -0.0020988309 0.0452343904
0.1162632905 1.0563379910 -0.1442996052 -0.0000496491 -0.0023383638 0.0457599679
-0.0323815939 1.2406390831 -0.4951423863 -0.0004363228 -0.0001738615 0.0434317684
-0.0222443642 1.0563379910 -0.2147886873 0.0000128486 -0.0023389131 0.0457821040
-0.2065386089 1.4987086092 -0.4866110392 -0.0002832500 -0.0002587887 0.0433632637
0.0644720177 1.0563380637 0.2308604754 -0.0000315317 -0.0023385140 0.0456019209
0.2562872198 1.0563379910 -0.3117941440 -0.0001269730 -0.0023344741 0.0458600500
0.0599317573 1.0798121686 0.4129339808 0.0000031115 0.0023472370 0.0456989350
-0.3238883278 1.6786418188 -0.4874735180 -0.0003728415 -0.0002319366 0.0433753177
0.2784502519 1.0798121686 0.0293724168 0.0000215857 0.0023471056 0.0456771838
-0.1705409435 1.0366883954 0.5154083504 -0.0008039636 0.0000029343 0.0478734420
0.4408566500 0.0542719324 -0.4144039807 -0.0018143626 -0.0004120469 0.0470226181
-0.1413384328 1.6704782956 -0.4881941565 0.0002141491 0.0002391948 0.0480013223
-0.3480183833 1.0563379910 0.1624363229 0.0002620575 -0.0023180586 0.0455891345
0.1343151091 1.7984238827 -0.5016629753 -0.0000715012 0.0002738216 0.0480048105
0.4099861135 0.6542512915 -0.3148113363 0.0016858603 0.0003768474 0.0447192144
-0.1962584661 1.0563379910 0.0575358243 0.0000948697 -0.0023353661 0.0456730383
0.0088750525 1.0563379910 0.2716371688 -0.0000057218 -0.0023391243 0.0455893200
0.3506886719 1.0548572445 0.4015615633 0.0016381584 0.0000503615 0.0473444091
0.0247329745 1.9404184434 -0.5209289864 -0.0001210153 0.0003119202 0.0479993481
-0.3012686431 1.4599732068 -0.4444973552 0.0004801772 0.0001931432 0.0479653129
0.3839310510 0.5799548528 -0.3643556562 0.0016556537 0.0004161784 0.0441207449
0.3480721838 1.7722604329 -0.4942290084 0.0005116631 -0.0001823920 0.0433975877
-0.3011790962 1.5812927542 -0.4814276004 -0.0005904800 -0.0002410775 0.0434208623
-0.2672155951 1.0798121686 0.0260848465 -0.0000185505 0.0023471525 0.0456765524
-0.1030088309 1.0798121686 -0.3771536604 -0.0000052570 0.0023472487 0.0456534937
-0.0321130188 1.1854173831 -0.4729402040 0.0002757500 0.0002755657 0.0479829913
-0.3650331151 0.5104805853 0.4459440054 0.0018378368 -0.0003934436 0.0443198529
-0.0913664839 1.0798121686 -0.0855222505 -0.0000049472 0.0023472511 0.0456691815
0.1767362602 1.0798121686 0.2714266078 0.0000097688 0.0023472440 0.0456902050
-0.1231632903 1.0563379910 0.2822302060 0.0000521326 -0.0023383403 0.0455752402
-0.2856933244 1.4280575530 -0.4684449506 -0.0005059988 -0.0002856408 0.0434124633
-0.2779959116 1.0798121686 -0.3267873007 -0.0000160528 0.0023472347 0.0456554467
0.0508882787 1.5028009729 -0.4770986898 0.0000177265 0.0002070540 0.0480143880
0.4866561883 0.9955908922 0.0043155327 -0.0022822851 -0.0004611737 0.0458747895
-0.2409013659 1.0563379910 0.2413270173 0.0001215317 -0.0023343849 0.0455743083
-0.0828194748 1.0563379910 -0.4119852836 0.0000422570 -0.0023379553 0.0458737120
-0.2199226624 1.0798121686 -0.0856818749 -0.0000136350 0.0023472135 0.0456680360
-0.2370681149 1.0798121686 -0.2830654267 -0.0000132242 0.0023472464 0.0456588482
0.0231271741 1.4746636241 -0.5165616414 0.0002218697 -0.0001873873 0.0433757309
-0.4544864382 0.2091170044 -0.3857441437 -0.0018483931 0.0004041807 0.0443253952
-0.4444492344 1.0763399715 0.2755954645 -0.0015767359 0.0010261525 0.0464441862
-0.3675414295 1.4264689193 -0.4518425639 -0.0006260199 -0.0003294225 0.0434502050
0.1851278609 1.0563379910 -0.0669268545 -0.0000842641 -0.0023363192 0.0457317942
-0.3319051022 1.0798121686 -0.1965502982 -0.0000223674 0.0023471689 0.0456604233
0.3826433680 0.8010627582 -0.3081042028 0.0018589870 0.0004526760 0.0443481440
0.2003311467 1.0563379910 -0.0450779350 -0.0000949237 -0.0023355469 0.0457195219
0.4057599681 0.3168285428 0.4808729479 0.0015661326 0.0004090375 0.0473350711
0.0469483728 1.4750434457 -0.5155475053 0.0004258040 -0.0001582113 0.0436695971
-0.0469483422 1.0915621517 -0.4540808784 -0.0015460974 0.0006929554 0.0465655664
0.2046086771 1.5599608254 -0.4938471798 0.0002870152 -0.0002431737 0.0433624327
0.3357252077 0.9211618173 0.3693313837 -0.0014292805 -0.0003690868 0.0439212520
-0.1175635745 1.4084357532 -0.4635656832 0.0002120223 0.0001883169 0.0480067096
-0.3193887411 1.6436099327 -0.4845825886 -0.0005888040 -0.0002263216 0.0434195266
-0.2393116946 1.0563380637 0.4544720216 0.0001122993 -0.0023353755 0.0454764045
-0.4085018577 0.9818311884 0.3321312982 -0.0018907758 -0.0003661150 0.0470085664
-0.2612942713 1.0563379910 -0.0295822595 0.0001540481 -0.0023304037 0.0457061111
0.0307234977 1.9547605579 -0.5380094083 -0.0000081608 0.0000036502 0.0448988294
0.0621154966 1.8393415057 -0.5327126761 -0.0000111866 -0.0001619930 0.0433363201
-0.2134118692 1.0563379910 0.4647192278 0.0000926890 -0.0023364624 0.0454788317
0.0845433245 1.0563379910 0.0077597486 -0.0000377641 -0.0023385023 0.0456949608
0.0427516053 1.0563379910 0.4657354413 -0.0000247312 -0.0023385140 0.0455031698
-0.2263932139 1.0563379910 0.2120919667 0.0001117171 -0.0023348356 0.0455923153
-0.2493057694 1.0563379910 0.3125170031 0.0001251725 -0.0023343591 0.0455388294
-0.1767057978 1.6286523089 -0.4805555558 0.0004068228 0.0002393216 0.0479733387
0.2501898844 1.6006231338 -0.4686639459 -0.0001737641 0.0002266667 0.0479992542
0.4203939324 0.3795106416 0.4479452002 0.0017466983 0.0004088239 0.0471379138
-0.0321023686 1.8604890401 -0.5361293896 -0.0000116232 -0.0001789554 0.0433375290
-0.1390505291 1.0798121686 -0.3023654659 -0.0000071984 0.0023472581 0.0456580806
0.4068251089 0.9944560096 -0.2430450102 0.0018896466 -0.0002952512 0.0443334398
0.0780129750 1.0563379910 -0.3458545535 -0.0000309871 -0.0023388051 0.0458400970
-0.2590788090 1.5688736772 -0.4870229899 -0.0004530293 -0.0002414061 0.0433916534
0.0448353893 1.0798121686 0.4857448350 0.0000022218 0.0023472370 0.0457031158
0.2196961625 1.0563379910 0.1548341330 -0.0001167148 -0.0023336924 0.0456203341
0.0469483728 1.5664455951 -0.5100778036 0.0004487664 0.0002153991 0.0470921674
-0.3076813096 0.8535812141 0.4172078374 0.0018581748 -0.0003793873 0.0443143388
-0.1914374592 1.0563379910 0.0301867196 0.0000922735 -0.0023354389 0.0456871627
0.0690289870 1.0798121686 0.1403017861 0.0000037782 0.0023472534 0.0456834632
0.1040926783 1.4272113699 -0.4898123396 0.0002597453 -0.0002742418 0.0433618928
-0.3078903119 0.9995432042 -0.3083207638 0.0015988438 -0.0003690962 0.0472897918
-0.1530570944 1.0563379910 -0.2384054611 0.0000760528 -0.0023359107 0.0458121557
-0.3517895616 0.7657353674 -0.3225648783 0.0015491068 -0.0003802253 0.0473446110
0.4384200421 1.0563379910 0.0333955387 -0.0008173368 -0.0021599225 0.0457403317
-0.3829955018 0.7827007753 -0.2857529805 0.0010402194 -0.0003425141 0.0475672918
0.3541680333 1.6054671172 -0.4498238551 -0.0006716655 0.0002714178 0.0479066885
0.3347384730 1.0003803591 -0.3261568547 0.0015267312 -0.0003193333 0.0439424304
0.1620367114 1.2658765470 -0.4451391932 -0.0001521937 0.0001458263 0.0480061626
-0.2999861362 1.4376809048 -0.4425071957 0.0004631772 0.0001869554 0.0479686321
0.0570976353 1.0563379910 -0.3548502903 -0.0000218861 -0.0023390398 0.0458407425
-0.3342458932 1.0563379910 0.3853263902 0.0002164307 -0.0023252182 0.0454506651
0.1054636148 1.8212523208 -0.5054568977 0.0000161138 0.0002731995 0.0480075007
0.4356794788 0.4376529658 0.4164721567 0.0019221983 0.0004293310 0.0469441768
0.1300228041 1.0563379910 -0.1644347031 -0.0000552969 -0.0023382323 0.0457675852
0.3679179554 1.0798121686 -0.0773993353 0.0000524777 0.0023463379 0.0456612707
-0.2557005649 1.0563379910 -0.3064688977 0.0001684683 -0.0023269929 0.0458954608
-0.3107388001 1.0236795978 0.4202644312 0.0006949894 -0.0015402793 0.0448210641
-0.2512859196 1.0563379910 -0.2258701869 0.0001566420 -0.0023289741 0.0458329585
-0.1211277739 1.0798121686 -0.1281151880 -0.0000064589 0.0023472440 0.0456671979
-0.4284909415 1.5311108264 -0.4488165593 -0.0007318650 -0.0003320164 0.0434748224
-0.3031592299 1.0563379910 0.3749414586 0.0001762101 -0.0023296642 0.0454788740
-0.1464167613 1.0563379910 -0.1001794448 0.0000687500 -0.0023369060 0.0457378740
-0.0261155613 1.0081308213 -0.4738619997 -0.0002140129 -0.0002063216 0.0433728506
-0.3433321440 1.0316804332 0.3323500986 0.0011224002 -0.0003557394 0.0436759773
0.3958221609 0.6107898189 -0.3436356546 0.0017782171 0.0004299530 0.0442558834
-0.1128218611 1.4702188027 -0.4932968606 -0.0000223369 -0.0002647606 0.0433461464
-0.3238273654 0.6963623957 0.4432254328 0.0017451560 -0.0003353638 0.0446401463
-0.1081486077 1.3441539879 -0.4588066975 0.0002215106 0.0001720939 0.0480073481
-0.0450288728 0.9635549567 -0.4378906231 -0.0021039518 -0.0000402113 0.0461719514
-0.2819162729 1.0798121686 -0.2876318889 -0.0000168486 0.0023472206 0.0456567683
-0.4179579724 0.0371678578 0.5143981180 0.0020268884 -0.0004075892 0.0446324069
0.3000608873 1.0563379910 0.0745971194 -0.0001998251 -0.0023249882 0.0456557472
-0.4284782983 0.3062870479 0.4309983440 0.0015629542 -0.0004048216 0.0439941135
0.1973350529 1.0563379910 -0.0028976994 -0.0000942594 -0.0023354835 0.0456991181
0.4624984473 1.0352449002 -0.1090399821 -0.0013025622 -0.0016516643 0.0461151087
-0.1175076989 1.0563379910 -0.3086557051 0.0000575317 -0.0023372675 0.0458315618
0.2930543641 0.9357711384 -0.3410731077 -0.0018703743 -0.0003758427 0.0470315101
0.0250123454 1.5426483330 -0.4810282929 0.0000000176 0.0002140211 0.0480139490
-0.1533997352 1.0798121686 -0.0444025806 -0.0000086631 0.0023472440 0.0456725970
0.3076641875 1.4692353638 -0.4683498145 0.0005148509 -0.0003003850 0.0434119421
0.2333345822 1.0798121686 0.4075220185 0.0000128768 0.0023472440 0.0456980735
0.3288957173 1.8727387674 -0.5068121699 0.0004265199 -0.0001573357 0.0433770501
0.2851482705 1.5310470682 -0.4791105559 0.0003294284 -0.0002465962 0.0433691018
-0.4079691605 1.0798121686 0.1245113665 -0.0000705810 0.0023458333 0.0456888552
-0.0715960949 1.0563379910 0.2088452133 0.0000309331 -0.0023386760 0.0456094421
-0.1785353306 0.9912636271 -0.4076847040 0.0006729589 -0.0007684624 0.0474365899
0.4055064423 0.2301592313 0.5043539682 0.0014767945 0.0004077324 0.0474333504
0.4675414049 1.0485070805 0.2215926941 0.0021867992 0.0000424225 0.0465068458
-0.2100053811 1.0278755507 -0.4079753377 -0.0009863110 -0.0000372653 0.0435577919
0.2142648223 1.0798121686 0.2289228417 0.0000125763 0.0023472323 0.0456885618
-0.0315966620 1.5733237991 -0.5071285948 0.0000477829 0.0002388967 0.0480055734
-0.2446292015 1.0798121686 0.4117206193 -0.0000275505 0.0023467675 0.0457179843
-0.2861096648 1.4001298145 -0.4413854586 0.0002736138 0.0001709061 0.0480007870
0.1919108395 1.0798121686 0.1838521954 0.0000111021 0.0023472370 0.0456855876
-0.1584719745 1.0563379910 -0.2913406329 0.0000804918 -0.0023353943 0.0458419561
0.3021388943 0.8760503893 0.4172911168 -0.0018742805 -0.0003781103 0.0443347778
0.0954200542 1.4474906580 -0.4689269624 -0.0002236960 0.0002078169 0.0480039373
0.2552724405 1.5032689095 -0.4564920543 -0.0002950692 0.0002140728 0.0479863129
0.0183160522 1.0855534853 -0.4809481310 0.0001652922 -0.0002007676 0.0433738694
0.4666661373 0.0421489328 0.4871976448 0.0017781607 0.0003999460 0.0471081486
-0.0347746478 1.0798121686 0.2872225181 -0.0000021491 0.0023472394 0.0456916510
-0.0345170328 1.9538117927 -0.5226478924 0.0003145223 0.0002619765 0.0476151040
0.4337464836 0.3665531725 -0.3668358885 0.0018384964 0.0004159037 0.0443174585
-0.3118667672 1.0798121686 -0.1226866952 -0.0000212993 0.0023471619 0.0456655383
0.2630215036 1.8319953674 -0.4894957386 -0.0001410481 0.0002928380 0.0480007143
0.4470659009 1.0693103966 0.2708028966 0.0018252687 -0.0003408615 0.0465440500
-0.1951517924 1.0563379910 -0.2113234386 0.0001039425 -0.0023340868 0.0458068528
0.2893552891 1.7815943715 -0.4813539572 -0.0001365458 0.0002722277 0.0480025992
-0.3936048371 1.6617264861 -0.4481559185 0.0006009589 0.0002913052 0.0479186274
-0.3976377430 0.2450258224 0.5090568976 -0.0014285974 0.0004085915 0.0474855241
0.0155232870 1.2600147350 -0.4776362930 0.0001204167 -0.0003002911 0.0433543365
0.3795783564 1.0563379910 0.0859408373 -0.0003983744 -0.0022904600 0.0456311815
0.3231325884 0.8549528572 -0.3577645038 0.0014451842 0.0004239084 0.0438953811
0.4122559491 0.4807193939 -0.3600051822 0.0017809495 0.0004197629 0.0442564304
-0.3775979034 0.9094547426 0.3554650133 -0.0019241795 0.0004673943 0.0469330735
-0.1568890731 1.2815685981 -0.4705449318 -0.0004086702 -0.0002830422 0.0433880689
-0.0797473012 1.0563379910 -0.0061489693 0.0000366796 -0.0023384835 0.0456970453
0.0906076177 1.0798122413 -0.2677814577 0.0000066937 0.0023471783 0.0456562425
-0.1195075580 1.0563379910 -0.1519687763 0.0000556397 -0.0023377135 0.0457612989
0.3030859436 1.0798121686 0.1352870445 0.0000218674 0.0023471337 0.0456839632
0.3806844408 0.7206837587 -0.3311420728 0.0017661279 0.0004376620 0.0442446815
0.0551729711 1.0563379910 0.3571354569 -0.0000288815 -0.0023384976 0.0455490993
0.4406049857 1.6664220376 -0.4611009955 0.0005391256 -0.0001894084 0.0434080853
0.0856879747 1.6634399109 -0.5148755805 0.0001109002 -0.0002066526 0.0433447543
0.0080372262 1.4650611902 -0.4743253143 -0.0001718181 0.0002134202 0.0480066744
0.4490535910 1.6971033769 -0.4618873593 0.0006250293 -0.0001648826 0.0434250759
-0.4272910495 0.4952038511 -0.3315923850 -0.0010308791 0.0001786995 0.0454631533
0.0901433337 1.0798121686 0.0943605108 0.0000048791 0.0023472394 0.0456800735
0.1985279238 0.9741783695 -0.4031558168 -0.0006166209 -0.0003500939 0.0467485336
-0.2589963911 1.4522214559 -0.4746870842 -0.0002940716 -0.0002792676 0.0433668529
-0.0114542238 1.3289022208 -0.4855863374 0.0001948087 0.0002424929 0.0479925617
0.0940216716 1.0798121686 0.4498290874 0.0000048275 0.0023472464 0.0457003716
0.2706445222 1.0798121686 0.2878707293 0.0000169190 0.0023472041 0.0456939186
0.2959181457 1.0798121686 -0.2990837172 0.0000470833 0.0023461079 0.0456239327
-0.3014506737 0.9822399537 -0.3476146521 -0.0013993884 0.0004275962 0.0438473036
-0.4422801593 0.1287043077 -0.3929179580 0.0017038814 -0.0004117746 0.0471852401
0.3165167576 1.5574241423 -0.4762791569 0.0006434166 -0.0002856526 0.0434419022
0.1014563028 1.7432173001 -0.4979385764 0.0000168063 0.0002558498 0.0480093246
-0.3820003868 1.5650025294 -0.4631181644 -0.0009061842 -0.0002481455 0.0435309867
0.3285268206 1.6943673981 -0.4655173052 -0.0004149706 0.0002789366 0.0479611556
0.0342929601 1.5830180734 -0.5079829774 0.0003884589 0.0003013451 0.0479664396
0.4022429588 0.1968920471 0.4889381142 -0.0019452758 -0.0004032441 0.0445019609
0.1050871876 1.4079057791 -0.4648463827 0.0000080810 0.0001793005 0.0480169021
0.4591032221 1.0563379910 0.1562599076 -0.0016072194 -0.0015746314 0.0453311721
-0.3510528057 1.0563379910 -0.1894818807 0.0003511796 -0.0022972558 0.0458948223
0.1512234419 1.8488751696 -0.5045309822 -0.0001750129 0.0002910915 0.0479995007
0.0138301697 1.2058623707 -0.4747421734 0.0002813110 0.0002336221 0.0479856110
0.4182111015 0.5363911196 0.3919936223 0.0000239636 -0.0000809577 0.0448782731
-0.3882524053 1.0798121686 0.1449592977 -0.0000597124 0.0023461173 0.0456944092
-0.3845210956 0.7591374099 -0.2893746142 0.0011807476 -0.0003715587 0.0476473246
-0.2251857280 1.0563379910 0.2602090519 0.0001089941 -0.0023350938 0.0455704796
-0.4624075741 0.1832036227 0.4361040574 0.0002818439 -0.0001339366 0.0448942918
0.3455187355 0.6230484288 0.4653370306 0.0013870199 0.0004175681 0.0475177331
0.3282659521 1.0798121686 0.1405396406 0.0000261021 0.0023470844 0.0456862355
0.1091679997 1.0798121686 0.3292485870 0.0000056585 0.0023472605 0.0456931017
-0.2134319279 1.0798121686 0.0698384905 -0.0000145505 0.0023471736 0.0456790031
0.3299653745 1.7072363601 -0.4891755555 0.0002871678 -0.0001766009 0.0433570525
0.4615103159 0.0654487277 -0.4164213633 0.0017602617 0.0004007159 0.0442275642
-0.0549582621 1.0563379910 0.3594574427 0.0000215974 -0.0023390023 0.0455481040
0.4257292068 1.6161194713 -0.4579072890 0.0008962594 -0.0002890399 0.0435424116
0.0456420935 1.7593211235 -0.5251041271 0.0000000176 -0.0001854601 0.0433382637
-0.0833714161 1.0798121686 -0.1371327722 -0.0000043674 0.0023472581 0.0456670148
0.4188956695 0.2094478260 0.4951241187 0.0015633697 0.0004063404 0.0473394913
-0.3122743141 1.0563379910 0.0876147645 0.0002117899 -0.0023240164 0.0456461862
-0.2766888295 1.0563379910 -0.1978789414 0.0001860974 -0.0023253896 0.0458389491
0.0717977968 1.0563379182 0.5165316978 -0.0000376584 -0.0023380774 0.0454768881
-0.3552368290 1.0563379910 0.3110416839 0.0002563110 -0.0023201502 0.0454751909
-0.2535725908 1.4758784527 -0.4552007516 0.0003592101 0.0002060516 0.0479829443
0.2908816693 1.5519187998 -0.4807818587 0.0004205505 -0.0002512911 0.0433846393
-0.0674839260 1.0798121686 -0.1950090190 -0.0000033204 0.0023472605 0.0456647543
0.3786555231 0.2615510025 -0.4287654380 -0.0018991349 -0.0003578075 0.0465346580
-0.0366248849 1.7559571706 -0.5254650378 -0.0000317500 -0.0002009976 0.0433398083
0.4164263973 1.0532244113 0.2975238651 -0.0008903556 -0.0020550398 0.0451811228
0.4587694639 1.0157444548 0.2431237590 0.0021395739 -0.0001375258 0.0466041721
-0.1360422804 1.2546678549 -0.4511676672 0.0000603838 0.0000790962 0.0472428692
0.3301580060 1.5161436015 -0.4685629366 0.0004046772 -0.0002621760 0.0433836957
-0.4095653529 0.0173779196 -0.4600515049 0.0019616208 -0.0003668897 0.0464385430
0.3884139828 1.0798121686 -0.1778236111 0.0000985176 0.0023440398 0.0456262871
-0.3085751664 1.0798122413 0.0822596544 -0.0000268955 0.0023469952 0.0456817707
0.1449497871 1.3883339840 -0.4824977577 0.0003983298 -0.0002993967 0.0433866557
-0.1915166916 1.0741611148 0.5068626770 -0.0004675739 0.0008956948 0.0466824514
0.1787306850 1.0798121686 0.4827528961 0.0000093157 0.0023472558 0.0457018411
-0.0469483375 1.2333018275 -0.4691155844 -0.0011682711 0.0005818192 0.0469378387
0.1679412887 1.0798121686 -0.0483788293 0.0000112359 0.0023471807 0.0456708763
0.0429839574 1.0798121686 0.4290071797 0.0000021162 0.0023472370 0.0456999796
-0.1310433534 1.7596098230 -0.5210401319 -0.0000542829 -0.0002088826 0.0433422450
0.3312443181 1.4013175657 -0.4560389816 0.0007317922 -0.0003519742 0.0434825665
0.2057989869 1.7801772378 -0.5152050429 0.0002310059 -0.0001808638 0.0433506417
-0.0757059070 1.0798121686 0.4720717792 -0.0000062289 0.0023471572 0.0457070946
0.2356345750 1.0563379910 0.2266148958 -0.0001321397 -0.0023322464 0.0455778012
-0.2334081197 1.7275318382 -0.4831677459 0.0002684847 0.0002783028 0.0479896838
-0.0213786694 1.2370891583 -0.4536179934 0.0000025270 0.0001239789 0.0476927565
0.0908404651 1.8256873982 -0.5298412278 0.0001475927 -0.0001756784 0.0433434656
0.4289574438 0.4737569434 -0.3440047649 0.0019045786 0.0004306033 0.0443920290
0.1409532920 1.0563380637 0.3616637713 -0.0000699143 -0.0023363333 0.0455319960
0.0172905686 1.3205488573 -0.4599106317 0.0000000176 0.0001656432 0.0480185030
0.0026674048 1.5069694164 -0.5195183714 -0.0001375716 -0.0001613545 0.0434363741
-0.3193852317 1.8259385601 -0.4804992131 0.0002318556 0.0003267230 0.0479870758
0.0244451294 1.3280435730 -0.4855106519 0.0003311256 0.0002571925 0.0479777612
-0.3121089385 1.8928338042 -0.5048982686 -0.0001445974 0.0000088028 0.0448136862
-0.4824423645 0.0429902497 -0.3863620521 -0.0003204660 0.0000141455 0.0458426205
0.1105921898 1.3275008476 -0.4802699385 0.0000637148 -0.0002786385 0.0433496839
0.3645132771 1.5053976888 -0.4604055026 0.0007259589 -0.0003288216 0.0434725947
-0.2099088858 1.5779766557 -0.4706013097 0.0003425458 0.0002295188 0.0479842354
0.0292767701 1.0798121686 0.3212602000 0.0000014894 0.0023472394 0.0456935571
-0.0324866503 1.0563379910 0.4086478002 0.0000115458 -0.0023392816 0.0455320618
-0.0045809940 1.0798121686 -0.0819442248 -0.0000000528 0.0023472511 0.0456708223
0.0446815348 1.0563379910 -0.3128036228 -0.0000168110 -0.0023391455 0.0458227237
-0.4429688447 0.3903602492 0.4179659782 -0.0016202194 0.0003361901 0.0465552331
-0.1838428445 1.7973622161 -0.5193264911 -0.0002441655 -0.0001848850 0.0433513623
-0.1989815881 1.2981793299 -0.4448002402 0.0002388838 0.0001580422 0.0480071063
-0.0756892497 1.9054402850 -0.5153049044 -0.0000226115 0.0003060939 0.0480043269
0.2555732997 1.3797959397 -0.4677639648 0.0002952523 -0.0002940610 0.0433683647
-0.2968639766 1.5396799622 -0.4777159527 -0.0004130857 -0.0002640657 0.0433847215
-0.1640499766 1.4596704674 -0.4888361354 -0.0004189472 -0.0002382981 0.0433858764
0.2108604280 1.0563379910 0.2090485560 -0.0001121397 -0.0023338286 0.0455937472
-0.0220488596 1.5523822928 -0.4827566919 0.0000089636 0.0002259084 0.0480127143
0.4035585832 0.2643637935 0.4973468534 0.0014956208 0.0004084108 0.0474124326
-0.2623564943 1.4306714614 -0.4722279129 -0.0002954049 -0.0002857746 0.0433676229
-0.0767302074 1.8387602404 -0.5316350329 -0.0000050716 -0.0001830822 0.0433378858
-0.2921742632 1.5662099073 -0.4576958501 0.0002104589 0.0002313404 0.0480017589
-0.4604505460 1.6719841172 -0.4567431060 -0.0007692171 -0.0001867746 0.0434772003
-0.3625770940 0.8650020963 0.3830724607 -0.0017640481 0.0004490587 0.0471097120
-0.3029297745 0.9425006945 -0.3285113640 0.0017693063 -0.0003762817 0.0471533059
-0.3997820693 1.8090848330 -0.4862957974 -0.0007205199 -0.0001343028 0.0434492449
0.2805738387 1.8123919057 -0.5098868881 0.0003743955 -0.0001695352 0.0433738553
-0.0136920711 1.0798121686 -0.2891558325 -0.0000004754 0.0023472394 0.0456577590
-0.0158617072 1.6200376120 -0.5112457449 0.0001302617 0.0002599084 0.0479952683
0.3789351968 0.5405248542 0.4505894114 0.0015762218 0.0004146174 0.0473211533
-0.3294991210 1.0798121686 0.0774185630 -0.0000313415 0.0023469365 0.0456801158
-0.3411825173 1.5170591297 -0.4665672230 -0.0007471490 -0.0002620634 0.0434708388
-0.4674621749 0.1952085119 -0.3722089892 -0.0015960950 0.0003130070 0.0448315454
0.4235850614 0.1345302652 -0.4119234597 -0.0018510809 -0.0004079859 0.0469790171
-0.0107929186 1.0563379910 0.3388770256 0.0000026538 -0.0023393051 0.0455621111
-0.4763327966 1.0197972763 0.1972997888 -0.0022148767 -0.0001852277 0.0463877308
-0.1961705318 1.0798121686 0.4308702923 -0.0000198439 0.0023469248 0.0457136486
-0.1665625892 1.3311030682 -0.4514895710 0.0001482453 0.0001713803 0.0480111838
-0.3134309714 1.0563379910 0.0409480173 0.0002181960 -0.0023229999 0.0456726181
-0.1638339719 1.0563379910 -0.0595443946 0.0000776678 -0.0023362722 0.0457251651
0.1593166176 1.0563379910 0.4388879986 -0.0000823650 -0.0023350774 0.0454835899
-0.0962202560 1.4845606332 -0.4963271257 -0.0002486819 -0.0002354366 0.0433562426
0.1120755676 1.0798121686 -0.0270953089 0.0000064237 0.0023472440 0.0456730289
0.3300430999 0.7494361145 -0.3783858599 0.0013943462 0.0004217371 0.0438387121
-0.2168575992 1.5068271441 -0.4627944696 0.0000983462 0.0002124014 0.0480087964
-0.2909932468 1.0563379910 0.0829890417 0.0001818768 -0.0023275844 0.0456516698
0.1355799424 1.0563379910 0.0185338961 -0.0000601796 -0.0023377793 0.0456906557
0.1884370110 1.0563379910 -0.1915498031 -0.0000830622 -0.0023367534 0.0457936369
0.0824163692 1.0563379910 0.3001211373 -0.0000399002 -0.0023382276 0.0455703576
0.0436011945 1.3609370788 -0.4635656480 0.0000139167 0.0001767418 0.0480173809
0.2200820732 1.0798121686 -0.1975347231 0.0000193439 0.0023470304 0.0456572848
0.3696184882 1.0798121686 -0.1476102413 0.0000675293 0.0023457323 0.0456478599
0.1280611915 1.7793471017 -0.5240103290 0.0002325763 -0.0001892911 0.0433523271
0.0407178002 1.3361712769 -0.4612031152 0.0000071702 0.0001701103 0.0480180077
0.1627732349 1.0798121686 0.1770797825 0.0000092124 0.0023472440 0.0456846111
0.0554150180 1.0798121686 0.1903360238 0.0000028791 0.0023472628 0.0456854209
0.1753253072 1.4653186550 -0.4635143546 -0.0002657289 0.0002046361 0.0479929490
0.3458249866 0.7736899235 0.3970775212 -0.0016028603 -0.0003811221 0.0440548811
-0.2188893456 1.0798121686 -0.3041826583 -0.0000119519 0.0023472440 0.0456574139
0.3760309762 1.6837730722 -0.4543830098 -0.0001411890 0.0002596150 0.0479972471
-0.2798157002 1.0798120958 -0.1415161640 -0.0000182077 0.0023471807 0.0456648763
-0.1741024199 1.7115794562 -0.5118505430 -0.0004424800 -0.0001842441 0.0433816980
0.1315751374 1.0563379910 -0.1255467491 -0.0000563697 -0.0023381619 0.0457503129
0.3597707303 1.0798121686 -0.2164400229 0.0000763861 0.0023450234 0.0456224233
0.4345496831 0.1546953185 -0.3944655448 -0.0017334518 -0.0004100305 0.0471462378
-0.4398258566 0.1763224304 0.4808962671 -0.0016979119 0.0004041549 0.0471935993
-0.3859381214 0.7467706991 0.3613214145 0.0011886608 -0.0003724037 0.0437133013
0.0437195278 1.0798121686 -0.1012138885 0.0000026796 0.0023472394 0.0456684913
0.1182440604 1.0563379910 0.2464333927 -0.0000550270 -0.0023377417 0.0455918904
0.0323531972 1.0798120958 0.2192033514 0.0000015082 0.0023472558 0.0456863247
-0.3134917930 1.0563379910 -0.1531073632 0.0002415387 -0.0023181478 0.0458226651
-0.0301142090 1.0798121686 -0.2443910055 -0.0000015153 0.0023472370 0.0456603294
0.1215701706 1.0563379910 0.0845038515 -0.0000543228 -0.0023380140 0.0456595500
-0.1256329944 1.0307881891 -0.4376525010 -0.0005898791 -0.0000505986 0.0434155501
0.3878984453 0.6259701658 -0.3205551249 -0.0014043720 -0.0003840634 0.0474717378
-0.3152465887 1.8465247425 -0.4823957084 0.0003934073 0.0003289554 0.0479656579
-0.3918198817 1.0798121686 0.2321234261 -0.0000837641 0.0023449178 0.0457199303
0.1668124789 1.6989745505 -0.5124471416 0.0002274378 -0.0002004131 0.0433510173
0.4241971693 1.5040466067 -0.4219570086 0.0000825411 0.0001043920 0.0480087894
-0.1952954614 1.0563379182 0.0856700744 0.0000930857 -0.0023355281 0.0456603482
-0.0417210748 1.0798121686 -0.4287069098 -0.0000020200 0.0023472394 0.0456498857
-0.4276916457 1.0798121686 -0.0176384243 -0.0000564800 0.0023464929 0.0456663646
-0.0671308392 1.0563379910 0.0132375183 0.0000311420 -0.0023385844 0.0456902284
0.0175750076 1.0798121686 -0.0124780348 0.0000011232 0.0023472534 0.0456749327
0.3041890163 1.0360061208 -0.3305580470 0.0014734190 0.0004359882 0.0439292684
-0.2155013574 1.8081134293 -0.5180919254 -0.0003522993 -0.0001808005 0.0433679727
0.3407312004 0.6986361702 0.4223204992 -0.0017896913 -0.0003871667 0.0442335900
0.4325883193 0.0186714242 0.5310857184 0.0014810692 0.0004023216 0.0474314936
-0.3882753302 1.8255326611 -0.4662377981 0.0001247570 0.0003634225 0.0479923152
0.3316701303 0.9957871058 0.4205801026 0.0015248204 -0.0001552465 0.0474476439
-0.4162845194 0.1301193288 -0.4211344664 0.0019174800 -0.0004065563 0.0468853669
-0.2007433509 1.0595810918 -0.4117487719 -0.0009444331 0.0000729061 0.0435369609
0.4589194733 0.2216557340 -0.3626553393 0.0001363251 -0.0000382394 0.0461370923
0.0548041683 1.6948052478 -0.4954148957 -0.0000086960 0.0002448099 0.0480108129
0.4584883583 0.2643929320 0.4372975738 0.0019330058 0.0004164178 0.0469355782
0.1888286894 1.0798121686 0.0416793812 0.0000122688 0.0023471971 0.0456778129
-0.1690110163 1.0798121686 0.5000098697 -0.0000172735 0.0023469248 0.0457205759
0.4378148496 0.4102090677 -0.3511187294 0.0019123790 0.0004262206 0.0443993952
0.1238484053 1.6052685374 -0.4834530065 -0.0000964542 0.0002316150 0.0480085171
0.3551216718 1.0798121686 0.1402300843 0.0000303861 0.0023470093 0.0456849068
-0.0293394368 1.0563379182 0.1551418537 0.0000119401 -0.0023391431 0.0456309327
-0.1332417664 1.0563379910 -0.2934143958 0.0000661326 -0.0023365891 0.0458311322
0.2752275689 1.0563379910 0.0996833017 -0.0001693650 -0.0023286337 0.0456537402
-0.1946307361 1.0563379910 0.1678831021 0.0000894847 -0.0023359131 0.0456226017
-0.2275433523 1.4066717533 -0.4520235569 0.0004461514 0.0001861549 0.0479731861
0.1821861192 1.0563379910 -0.3407642791 -0.0000777805 -0.0023372840 0.0458526040
-0.2622619333 1.5917142914 -0.4879939664 -0.0004950505 -0.0002326643 0.0434021065
0.2408017180 1.0563379910 0.4517856508 -0.0001541045 -0.0023284976 0.0454359209
0.1917270883 1.5461548446 -0.4707253144 -0.0001736796 0.0002139765 0.0480064819
0.1419842168 1.4654878639 -0.4915887714 0.0002408181 -0.0002575704 0.0433581628
0.1915146494 1.0798121686 -0.1621956727 0.0000138603 0.0023471408 0.0456617965
0.3922485601 1.0143941591 -0.2422052567 -0.0011284612 -0.0013134788 0.0465378364
0.2456674268 1.0798121686 0.2984821233 0.0000145763 0.0023472276 0.0456929867
-0.1659835258 1.0563379910 0.4965699074 0.0000688955 -0.0023379013 0.0454811674
-0.4219216037 1.0563379910 -0.1451811029 0.0008493533 -0.0021262793 0.0460182331
0.0862998385 1.0798121686 0.1581501259 0.0000047101 0.0023472511 0.0456845547
0.1506247118 1.4310303675 -0.4862169618 0.0004057476 -0.0002901831 0.0433866792
-0.2953242349 1.5145500969 -0.4754446499 -0.0003302922 -0.0002747535 0.0433719820
-0.4398354575 0.0509108621 -0.4442302191 -0.0015716607 0.0004022324 0.0440223435
0.0710544282 1.4626844015 -0.4726353496 -0.0001970974 0.0002020188 0.0480065946
-0.3543587680 0.7327392747 -0.3560808443 -0.0015722664 0.0004207582 0.0440321135
0.0697497006 1.9387352486 -0.5421632016 -0.0000076514 -0.0001440258 0.0433345595
-0.3751597931 1.6139628962 -0.4454783599 0.0005751936 0.0002457347 0.0479351439
0.3047166642 1.5632343722 -0.4547036600 -0.0003099401 0.0002248920 0.0479844490
0.4271834861 1.0798121686 0.1850637282 0.0000459683 0.0023467816 0.0456927120
-0.0385679036 1.6362380058 -0.5126735524 0.0000133556 0.0002410704 0.0480083340
-0.2997291902 0.9590763958 0.3978239109 0.0017738626 -0.0003755164 0.0442062942
0.0411509199 1.5244833548 -0.4792838470 -0.0000148721 0.0002116854 0.0480141227
0.0776095736 1.3741218202 -0.4623778992 -0.0000975387 0.0001821103 0.0480120805
-0.0507583562 1.0563379910 0.3204619441 0.0000200505 -0.0023390234 0.0455638200
-0.4866164324 0.9741784422 0.0947982784 0.0018994776 -0.0003398944 0.0455500853
-0.0010208298 1.0798121686 -0.0241234193 0.0000001185 0.0023472581 0.0456742144
0.4270581904 0.1908475074 0.4910964451 0.0016101302 0.0004054014 0.0472888927
0.3512829747 0.5135952049 0.4602355800 -0.0019476443 -0.0003906667 0.0444738271
-0.3328495364 0.9008871842 -0.3352013755 -0.0015666678 0.0004337418 0.0440291369
-0.0030601044 1.0798121686 -0.0025892393 -0.0000000481 0.0023472605 0.0456751486
-0.4755786675 0.9741783695 0.1549008373 0.0019844189 -0.0003590986 0.0452779843
-0.3706331970 0.4205580368 0.4901456353 -0.0011778626 0.0003635211 0.0473506087
0.1560540121 1.0563379910 0.0503865710 -0.0000707195 -0.0023371149 0.0456842636
-0.1346893345 1.7856437517 -0.5239606506 -0.0002048814 -0.0001841080 0.0433496558
0.1310252383 1.8084461124 -0.5266518547 0.0001986890 -0.0001781948 0.0433473623
0.1417473295 1.0563379910 -0.4084836781 -0.0000577570 -0.0023383356 0.0458702918
0.4004548509 0.1883132046 -0.4229728302 -0.0019714753 -0.0004029507 0.0468152589
-0.0461606873 1.0798121686 0.0880864077 -0.0000025059 0.0023472440 0.0456797918
-0.0400486336 1.0563379910 0.3411856523 0.0000152805 -0.0023391525 0.0455572308
-0.2494873891 1.0798121686 0.1193335780 -0.0000186444 0.0023471220 0.0456826181
-0.1842635017 1.0798121686 0.4055120491 -0.0000170223 0.0023469999 0.0457091111
0.2841048527 1.0798121686 -0.2462677472 0.0000348415 0.0023466713 0.0456454914
0.1961836234 1.0563380637 -0.3751305455 -0.0000841561 -0.0023369624 0.0458711815
-0.0853569465 1.0563379910 0.2543968878 0.0000364096 -0.0023385962 0.0455899632
0.1699596032 1.0563379910 -0.3838357916 -0.0000711326 -0.0023377370 0.0458662519
0.2222003408 1.0563379910 0.0976320693 -0.0001165317 -0.0023339013 0.0456511627
0.3204562105 1.8731585632 -0.4858925510 -0.0001793509 0.0003142183 0.0479954725
-0.2686391936 1.6775063658 -0.4728164129 0.0001762946 0.0002644037 0.0480010781
-0.2510866778 1.0563379910 -0.0020544905 0.0001412922 -0.0023318168 0.0457009280
0.1964509731 1.3646782759 -0.4755295044 0.0005287828 -0.0003153873 0.0434136205
0.3982565106 0.7111142050 -0.3148925006 0.0018940340 0.0004486878 0.0443849257
-0.3658461291 0.6953932103 0.4237888536 -0.0016258791 0.0004227042 0.0472646016
-0.3387493860 1.5834039114 -0.4738350631 -0.0007787617 -0.0002312911 0.0434783623
0.3570656975 1.0563379182 0.1229729417 -0.0003239190 -0.0023059131 0.0456334796
-0.3211575063 0.8917460249 0.4203224570 -0.0014663626 0.0004246291 0.0474359373
0.3289404192 0.9589494545 -0.2964703440 -0.0014337053 -0.0003671995 0.0474277237
0.3969421421 0.9953363640 0.3477709291 0.0018556983 -0.0002307840 0.0470780946
-0.0083724023 1.7932217115 -0.5298675189 -0.0000842265 -0.0001757582 0.0433408694
-0.4254397209 1.0563379910 -0.0046112698 0.0007131772 -0.0021970281 0.0457529561
-0.2878944934 1.0558242774 0.4379168789 0.0001634800 -0.0023194506 0.0454501439
0.0469483681 0.9796789843 -0.4668362934 0.0004128744 -0.0000861526 0.0446111604
-0.4007771842 1.5534130134 -0.4337657007 0.0000424448 0.0002032347 0.0480105734
0.1998705904 1.3355610703 -0.4481633692 -0.0001084894 0.0001539953 0.0480099960
-0.2385718566 1.0798121686 -0.2046212839 -0.0000139401 0.0023472323 0.0456623646
0.4801825594 1.0680750798 -0.0886326072 0.0019171678 -0.0010403568 0.0450883740
-0.4121213411 1.6990812899 -0.4712458684 -0.0003806561 -0.0002173779 0.0433764703
0.4151304044 1.0110580020 -0.2318083440 0.0019249354 -0.0002531831 0.0443772567
0.1662511103 1.0175707811 -0.4258011845 0.0007834072 -0.0000676854 0.0434748107
0.1207633796 1.4952690060 -0.4950552384 0.0001108674 -0.0002378545 0.0433482027
-0.1287285483 1.0563379910 0.3823325171 0.0000534730 -0.0023383614 0.0455337965
0.2613535507 1.0798121686 -0.3597874404 0.0000387101 0.0023463192 0.0456214256
0.3686869131 0.7796773153 0.3711275855 -0.0013246467 -0.0003739953 0.0438269046
-0.4176629325 0.2085444598 0.4688575844 0.0018020410 -0.0004062465 0.0442995712
-0.2894754980 1.0563379182 0.2380446771 0.0001692383 -0.0023298591 0.0455553928
0.2747482591 1.0798121686 0.3600299709 0.0000164613 0.0023472206 0.0456969702
-0.1837762764 1.0798121686 0.4614908852 -0.0000186538 0.0023469271 0.0457166252
-0.4155582588 0.3795690265 -0.3830372846 -0.0017079213 0.0004092136 0.0441748318
-0.4006013861 0.4667417324 0.4464335406 -0.0016757147 0.0004117488 0.0472139068
0.3154122154 1.0798122413 -0.2573851013 0.0000508603 0.0023460398 0.0456278646
-0.3380519940 0.7950560964 0.3997879249 0.0016512687 -0.0003811760 0.0440958599
-0.0342069718 1.2584718078 -0.4538474112 0.0000096678 0.0001621737 0.0480190805
-0.3841837529 0.7362828966 -0.3233439722 -0.0018084565 0.0004428216 0.0442914867
0.3346644002 1.0499601039 -0.3262309627 0.0015446326 -0.0000297512 0.0439206346
0.2293896292 1.0798121686 -0.3861987916 0.0000271984 0.0023467206 0.0456288435
0.3696521924 0.4486458856 -0.4152005182 0.0014091819 0.0004139530 0.0438508811
0.1849050510 1.0563379910 -0.2789597390 -0.0000800317 -0.0023370610 0.0458282214
0.3989356702 1.7102224985 -0.4527205897 -0.0004190340 0.0003203920 0.0479496485
-0.3344917899 1.4337717899 -0.4587890378 -0.0004728298 -0.0003194249 0.0434039421
0.1195734101 1.7810175453 -0.4999781326 -0.0002059096 0.0002715329 0.0479991931
0.1484927260 1.8192238327 -0.5255424768 0.0002603885 -0.0001841432 0.0433532473
-0.4412330701 0.9966538475 -0.1627238393 0.0018406396 -0.0008098497 0.0465614843
-0.4907589416 1.0351941091 -0.0518364864 -0.0022877241 -0.0001315563 0.0452245806
0.3815804830 0.5648418815 0.4411608061 0.0016219424 0.0004147770 0.0472711204
0.3757585748 1.0798122413 -0.1949031551 0.0000840458 0.0023447065 0.0456209021
-0.4076504821 0.5319546785 -0.3515647083 -0.0017944166 0.0004251221 0.0442722214
0.0852351367 1.0798121686 -0.4136857436 0.0000070317 0.0023471431 0.0456445007
0.0603948934 1.5788348716 -0.4844401003 -0.0000525622 0.0002270376 0.0480100969
-0.0476202976 1.0798121686 -0.1135170406 -0.0000023627 0.0023472628 0.0456689749
-0.0992210071 1.0798121686 0.0340404237 -0.0000055904 0.0023472417 0.0456771345
-0.3968940741 0.1534555768 -0.4468979279 0.0007867312 -0.0000940023 0.0455279820
0.2641111656 1.7279012021 -0.5033576325 0.0001982171 -0.0001737394 0.0433473553
0.0464708634 1.1116116979 -0.4833331215 0.0004047101 -0.0001980211 0.0433744093
0.2663186749 1.6441965008 -0.4933590413 0.0004619706 -0.0002379789 0.0433960689
0.0206525192 1.0798121686 -0.2691478708 0.0000014049 0.0023472417 0.0456590899
-0.1384645432 1.5670166890 -0.4779111311 0.0002283533 0.0002226244 0.0480016438
0.1337941068 1.4608037725 -0.4681018779 -0.0003319190 0.0002101127 0.0479886415
-0.1356246161 1.0798121686 0.4407860338 -0.0000108979 0.0023471196 0.0457063505
0.3815027906 0.6058720467 0.4028547980 -0.0015185880 -0.0003879178 0.0439756675
0.0118930501 1.8309712360 -0.5101988694 0.0000000176 0.0002798474 0.0480074584
-0.3354275903 1.0798121686 0.2299974755 -0.0000451021 0.0023465070 0.0456973669
-0.1058967275 1.0798121686 -0.0652248897 -0.0000056326 0.0023472417 0.0456710806
-0.1443125102 1.0563379910 0.3531504054 0.0000603979 -0.0023381783 0.0455465430
-0.2664094214 1.0798120958 0.2623445142 -0.0000268627 0.0023469084 0.0456971392
0.1392577756 1.0122680301 0.5253391716 0.0006520340 -0.0001786314 0.0479115124
-0.3052723918 1.6379009987 -0.4627510213 0.0004635551 0.0002501995 0.0479626673
0.0414479246 1.2571531036 -0.4770973635 0.0001954847 -0.0003081455 0.0433593083
0.4251086834 0.1296310659 0.4817866849 -0.0018449495 -0.0004083286 0.0443677285
-0.1578988571 0.9843193034 -0.4156218187 0.0006228462 -0.0005983779 0.0476441180
-0.3429352379 1.0798121686 0.2518920287 -0.0000513580 0.0023462159 0.0457086510
0.2665974683 1.7564152198 -0.4822540464 -0.0003787289 0.0002853967 0.0479654232
-0.1191812388 1.4956978276 -0.4718252369 0.0001623627 0.0002132300 0.0480059208
0.4080942755 0.3383820468 -0.4022992112 0.0016065762 0.0004091807 0.0440640571
0.4530646120 1.0550012352 0.2571266529 0.0021202781 0.0000142441 0.0466728411
0.2564870532 1.0798121686 -0.0557714440 0.0000209777 0.0023470868 0.0456715618
0.0019284800 1.9327774437 -0.5436394010 -0.0001218768 -0.0001459038 0.0433395102
-0.4103671909 0.2083450560 -0.4067081430 0.0018627781 -0.0004047864 0.0469699678
0.0980025423 1.0798120958 -0.1556740814 0.0000065552 0.0023472182 0.0456664749
-0.4453722484 0.3719994141 -0.3530156167 -0.0019344518 0.0004251925 0.0444229468
0.3627631363 0.9637910740 0.3571277198 0.0018608720 0.0004659155 0.0470015899
-0.2018435410 1.0563379910 -0.2574377538 0.0001104894 -0.0023334694 0.0458352589
-0.3820246708 0.6712859012 0.3852122001 0.0013833462 -0.0003811549 0.0438685618
-0.0529561730 1.0798121686 -0.0430670525 -0.0000028298 0.0023472581 0.0456720712
0.3266262408 1.0200879805 0.4244866376 0.0015052734 -0.0000620845 0.0474666603
-0.0535062012 1.0798121686 0.4566876248 -0.0000044308 0.0023471783 0.0457048998
-0.3062366336 1.0754382696 0.4406332310 -0.0005594120 0.0011667676 0.0463543528
-0.3865966495 0.7058052920 -0.3010909284 0.0012618955 -0.0003763591 0.0475839185
-0.2939584110 1.0798121686 0.2490698856 -0.0000311631 0.0023468239 0.0456992566
0.3176641402 0.8227813865 0.4144696028 -0.0018162429 -0.0003816174 0.0442585501
-0.0352128544 1.0798121686 0.2639866409 -0.0000021749 0.0023472394 0.0456903693
0.4694466748 1.0278835014 -0.0832322858 -0.0016633673 -0.0013262676 0.0461470899
0.4465010747 0.3476671990 -0.3581530296 0.0019198157 0.0004218873 0.0444063787
-0.1883512621 1.0535030075 0.5081522591 -0.0008875692 0.0000435540 0.0478411462
-0.0434973306 1.4376727381 -0.5131760171 -0.0008359777 -0.0001239976 0.0435341651
-0.0644268956 1.3150480992 -0.4568815825 0.0001867406 0.0001590446 0.0480099467
-0.1286279333 1.3636829449 -0.4584491552 -0.0000133087 0.0001843638 0.0480166673
0.4079389657 0.0422902708 -0.4538200826 -0.0021031067 -0.0004055422 0.0466158693
-0.4960791011 0.9774383060 -0.0132654103 -0.0023010222 -0.0003084014 0.0453899608
-0.4274413453 1.0433452403 0.2778784785 0.0007789753 -0.0019595633 0.0452197519
-0.0936688406 1.0563379910 0.2922486587 0.0000395434 -0.0023385586 0.0455737449
0.2200706484 1.0563379910 0.3711382968 -0.0001246373 -0.0023323966 0.0454997402
0.1622851856 1.0798121686 0.2259551493 0.0000090200 0.0023472440 0.0456875406
0.4133046509 1.0798121686 -0.1314989132 0.0001198768 0.0023431337 0.0456398552
-0.1566280802 1.5179511602 -0.4712709059 0.0002280293 0.0002175422 0.0480022025
-0.3243732081 1.5328268310 -0.4480582424 0.0003877617 0.0002267934 0.0479774701
0.1644104555 1.0798121686 -0.0935475742 0.0000114073 0.0023471736 0.0456678904
0.4052282381 0.3889500309 0.4621528147 0.0016345152 0.0004101854 0.0472597659
0.4519171214 1.0798121686 0.1821440875 0.0000583838 0.0023465117 0.0456965078
0.0689849776 1.3482927741 -0.4607838922 -0.0002116091 0.0001815141 0.0480075312
-0.4775124515 1.7186840334 -0.4389542968 -0.0004344871 0.0004716338 0.0470026603
0.4536921566 1.0798121686 -0.1540707810 0.0011672852 0.0018731971 0.0452012425
-0.4391678683 1.0798121686 0.1652405388 -0.0001371725 0.0023422628 0.0457045125
-0.4130873740 1.6520637329 -0.4428452872 0.0006171396 0.0002824789 0.0479146439
-0.2453021287 1.8651191151 -0.5191473620 -0.0003610199 -0.0001618005 0.0433679234
-0.2982221879 1.0798122413 0.1011415363 -0.0000258815 0.0023470070 0.0456827989
0.4079520032 0.5888324229 0.4066478613 0.0018516936 0.0004349671 0.0470187331
-0.4374294764 0.2027476431 0.4764665607 -0.0017053016 0.0004047512 0.0471852143
-0.0145146532 1.4250115273 -0.5120171721 -0.0003366749 -0.0001581901 0.0434520478
-0.1635526691 1.0798121686 -0.0694337722 -0.0000092195 0.0023472440 0.0456711510
-0.3810766920 1.0063420326 -0.2778809480 -0.0017830880 -0.0002697136 0.0441978834
0.3920149146 1.7656447101 -0.4827049337 0.0005203462 -0.0001599249 0.0434028201
0.0863859019 1.8747457650 -0.5113705008 -0.0001668157 0.0002913380 0.0480002072
-0.2592272972 1.7018781607 -0.4768938776 0.0004716232 0.0002647465 0.0479597730
-0.4997467254 1.0636472372 0.0780296874 -0.0023397077 0.0000240939 0.0458554632
-0.0153553293 1.0249470813 0.5339403286 0.0000078415 -0.0015762417 0.0446726839
-0.4264958735 1.4631350001 -0.4177560792 0.0002887218 0.0001106526 0.0480035570
0.3213790086 1.0563379182 0.2841871097 -0.0002609753 -0.0023148333 0.0454868599
0.2286426668 1.0563379910 0.2689155539 -0.0001273204 -0.0023325563 0.0455531651
-0.3683008943 1.7436459785 -0.4866670955 -0.0003394002 -0.0002047300 0.0433678365
0.4184493691 1.0798121686 0.0651867371 0.0000579096 0.0023464084 0.0456830899
-0.0997694648 1.0341379589 -0.4446157379 -0.0004650152 -0.0000036643 0.0433828623
-0.2634413910 1.6859939758 -0.4981917078 -0.0002099847 -0.0002268239 0.0433530689
-0.3080340185 1.0338377242 0.3694379799 0.0015294377 -0.0003655868 0.0440101675
-0.0065167380 1.0798121686 0.3681313838 -0.0000005951 0.0023472394 0.0456962942
-0.3029794177 0.8808046849 -0.3448660278 0.0018610434 -0.0003782418 0.0470392073
-0.3950709356 0.3466591146 0.4846820933 -0.0015103767 0.0004103521 0.0473952636
0.0979725963 1.0798120958 0.0726459106 0.0000054800 0.0023472417 0.0456786838
-0.3639624203 0.8213910462 0.3652715435 0.0012973462 -0.0003711244 0.0438069679
-0.4127854209 0.0087768659 0.5331345493 0.0014409706 -0.0002480775 0.0453178881
-0.2109871909 1.0563379910 0.3810983082 0.0000937547 -0.0023361877 0.0455190853
-0.3743379317 1.4880965157 -0.4317931961 0.0004844659 0.0001813662 0.0479592612
0.3912485015 1.0563379910 0.2477347072 -0.0005394425 -0.0022495703 0.0454195665
-0.3490469185 1.7988435353 -0.4959959473 -0.0005230505 -0.0001690329 0.0434105360
-0.2407298119 1.5912049510 -0.4913368231 -0.0005255927 -0.0002249554 0.0434046299
0.4228378478 1.0798121686 0.1090563271 0.0000541491 0.0023465445 0.0456877331
-0.3681270680 1.0552324816 -0.2927682620 -0.0017383955 0.0000141925 0.0441086698
0.3987583674 0.2172841637 0.4873136612 -0.0019471138 -0.0004023944 0.0445025172
0.3627206199 0.5068388930 0.4774990020 0.0014121819 0.0004154014 0.0474999608
0.0147158199 1.0798121686 0.2380243156 0.0000006678 0.0023472464 0.0456882284
-0.3874996753 0.4590886998 -0.3927111763 -0.0015628767 0.0004126831 0.0440181722
-0.2806191157 1.0798121686 0.2250296118 -0.0000281162 0.0023469107 0.0456935547
0.0902125356 1.4546273314 -0.4946827244 0.0003362453 -0.0002767676 0.0433756229
-0.1186117576 1.6785402390 -0.5139769256 -0.0004244636 -0.0001898873 0.0433782849
-0.4285774086 1.0798122413 -0.1298059227 -0.0000429237 0.0023468755 0.0456587167
-0.0501954337 1.5458228775 -0.5040042311 -0.0000716890 -0.0002375798 0.0433454257
-0.0254295402 1.0798121686 0.4075384223 -0.0000019566 0.0023472323 0.0456978810
-0.1431074234 1.0798121686 -0.3569585813 -0.0000073063 0.0023472605 0.0456554820
-0.0349112582 1.0335687969 -0.4761902180 -0.0002874401 -0.0002060540 0.0433728365
-0.4822039560 0.0055368050 0.4553819253 0.0011439730 -0.0003261103 0.0443037543
0.3062172909 1.4351926490 -0.4650895916 0.0004815857 -0.0003030000 0.0434042849
-0.0014237875 1.0563379910 0.1577008067 -0.0000001420 -0.0023393262 0.0456337402
-0.0436403471 1.4537934699 -0.4730594082 0.0000794120 0.0001956244 0.0480113856
0.4724028695 1.0330494988 0.1636070248 -0.0021177781 -0.0007019202 0.0451563130
-0.0365917370 1.5044850292 -0.4780454503 0.0000000176 0.0002097371 0.0480143058
0.4797159491 0.0662923451 -0.3961065799 0.0019071959 0.0003992699 0.0443873388
-0.4555378607 1.0699809952 -0.1597009686 -0.0017377523 -0.0001465422 0.0449046627
-0.0576490602 1.0798121686 0.1917294909 -0.0000034073 0.0023472394 0.0456862402
0.2341061173 1.8672112183 -0.4980686350 -0.0003722171 0.0003096080 0.0479720523
-0.0322536362 1.0798121686 -0.0594249040 -0.0000015998 0.0023472628 0.0456718294
-0.3677077723 1.0798121686 0.1969646879 -0.0000559143 0.0023461431 0.0457030031
-0.0913512327 1.0798121686 0.1747205971 -0.0000052500 0.0023472417 0.0456850782
-0.4420119481 0.0736066265 -0.4357529236 -0.0016119870 0.0004024061 0.0440664891
-0.3404298225 0.9596242080 0.3542668396 0.0012985340 -0.0003638544 0.0438162191
0.3369286466 0.8485872917 0.4147088704 0.0015480668 0.0004278239 0.0473471791
-0.4355649295 0.2477264490 -0.3685070481 0.0015960387 -0.0004087230 0.0473371087
0.3746100467 0.8294340037 -0.2815851802 -0.0011573579 -0.0003672746 0.0476622824
-0.4056583860 0.4028881806 -0.3598795296 0.0016380621 -0.0004015587 0.0472933317
0.2094585548 1.0798121686 -0.0108886358 0.0000145951 0.0023471689 0.0456738388
0.1237859100 1.0563379910 0.2746225373 -0.0000581702 -0.0023375163 0.0455821627
0.0597967925 1.4028463098 -0.4904278137 0.0002085599 -0.0002776596 0.0433568130
