0.0418528796 0.0829244376 0.0553918676 0.0393133964 -0.0000851729 0.0075959652
-0.0048161828 0.1069442522 0.0297076200 0.0375166289 -0.0000598476 0.0067871139
0.4806935197 1.5894220850 -0.1515348416 0.0408526510 -0.0001062714 0.0054205675
-0.3184779380 1.5483271617 -0.1531026389 0.0390334838 -0.0018587360 0.0057698779
0.4924674056 0.0000000000 0.0490946896 0.0390754057 -0.0018582490 0.0057718426
-0.0087296919 1.4562083269 0.0184472880 0.0374498389 -0.0008764628 0.0061242701
-0.0434755412 1.5464683124 0.1772417008 0.0390323481 0.0018587155 0.0057743631
0.0190449924 0.7652090544 0.0509343307 0.0383082943 -0.0004633345 0.0073402514
-0.1214943285 0.0109175235 0.4366290743 0.0384183054 0.0001136394 0.0074760618
-0.1327241308 1.5483270483 -0.1396513089 0.0390334838 -0.0018587360 0.0057698779
0.2403947770 1.5483270483 -0.3572752945 0.0390447552 -0.0018579962 0.0057351251
0.1723440430 0.0204460955 0.3501843246 0.0390362106 0.0018586913 0.0057776753
-0.2299621327 0.0000000000 0.3502242019 0.0390150860 -0.0018555092 0.0058134225
-0.1434335447 0.6385665580 -0.0049934728 0.0389415005 -0.0000970651 0.0076150023
0.0546187859 1.6980244951 0.2515606779 0.0391625061 0.0017961393 0.0062231920
0.4687953810 0.0000000000 -0.0300594862 0.0390666753 -0.0018583586 0.0057706270
-0.2229098784 1.7050503460 -0.2205174678 0.0387155675 0.0018292248 0.0056983203
0.1908730754 1.6904875624 0.2110111858 0.0392983165 0.0018234943 0.0059993835
0.1172241299 1.5483270483 -0.3498341388 0.0390334838 -0.0018587360 0.0057698779
0.4024270261 0.0204460955 -0.2730719406 0.0393586399 0.0016774088 0.0055950303
0.4379979850 1.6664537794 0.0494291840 0.0397222960 0.0017177545 0.0059265340
-0.2118659478 0.0204460955 0.0787731395 0.0390302961 0.0018587267 0.0057700359
-0.0551561149 0.0204460955 -0.0540072748 0.0390319894 0.0018587267 0.0057686400
-0.0463062306 1.7390687083 0.0188515556 0.0389707515 0.0018214125 0.0061132404
0.3257688316 1.5483270483 0.3251121792 0.0390334838 -0.0018587360 0.0057698779
0.0468419778 1.0587377680 0.0543940480 0.0393288816 -0.0006468699 0.0074319689
-0.1332490973 0.0204460955 0.3037856117 0.0390321418 0.0018587267 0.0057736753
-0.2374655709 1.6973554914 -0.2553856721 0.0386344151 0.0017657229 0.0053530285
0.2186451482 0.0000000000 0.1112614889 0.0390363909 -0.0018587248 0.0057720433
0.1699256231 0.0204460955 -0.2951701531 0.0390342496 0.0018587267 0.0057658854
0.0614618208 1.7226511591 0.0532576410 0.0391045544 0.0015460594 0.0047449412
0.4252590526 0.6285631459 0.2250019489 0.0371899616 -0.0001178067 0.0058453798
-0.4492806386 1.6739055132 0.0138899722 0.0381226288 0.0016153605 0.0056767868
0.1876222578 1.5353158967 0.1988565545 0.0394305749 -0.0015413624 0.0062468314
0.1120570447 1.5616987390 0.4440235460 0.0390639243 -0.0010603271 0.0072680842
0.0490593308 1.3456079782 0.0539749848 0.0393457236 -0.0008111765 0.0073811139
0.0572825664 1.5483270483 -0.3881452685 0.0390359559 -0.0018576579 0.0057196028
0.0638354099 1.2981663062 0.0489714033 0.0398853351 -0.0007987843 0.0071445916
-0.0634510605 1.6831827432 -0.4185418802 0.0388170563 0.0016657322 0.0049763705
-0.1323426736 1.7348023722 0.0246979326 0.0388616307 0.0018166077 0.0061177943
-0.2197830756 0.6185595071 -0.0192099887 0.0389398518 -0.0002989108 0.0039694356
0.1205223750 1.7208874919 0.0555848397 0.0391725600 0.0016064925 0.0048472795
0.0049440248 0.4263770554 -0.0289138970 0.0377814188 -0.0004004609 0.0044989765
-0.2946154338 1.6878993544 -0.2336348648 0.0384548760 0.0016614572 0.0051846066
-0.0111523869 1.1577222641 0.0003741106 0.0374298984 -0.0007507583 0.0055241586
-0.1623092611 1.5483270483 -0.3637266696 0.0390290470 -0.0018585371 0.0057655322
0.0713910377 0.6566304101 0.3286251307 0.0390538853 -0.0000934164 0.0076135525
-0.0039442795 1.2113246291 0.0308701516 0.0376647088 -0.0007483104 0.0066633221
0.4633638200 0.0000000000 -0.1211272114 0.0391985377 -0.0018447248 0.0057182534
-0.2612870361 0.0000000000 -0.2690617996 0.0390282403 -0.0018587192 0.0057647924
-0.0059724820 0.9962737344 -0.0146148309 0.0375076921 -0.0006048327 0.0050434058
0.3732427508 1.5483270483 -0.1656602535 0.0390334838 -0.0018587360 0.0057698779
0.0239624103 0.7367940709 0.0529012971 0.0384164411 -0.0004536784 0.0073901678
0.4053750928 1.5483270483 -0.1744790243 0.0390605377 -0.0018581226 0.0057617627
0.3065762546 0.0204460955 -0.0284032985 0.0390370321 0.0018587267 0.0057703593
0.3666460765 0.0000000000 0.0546346576 0.0390396158 -0.0018587044 0.0057716846
0.2928291922 1.6669355935 0.2459004347 0.0393428258 0.0017836858 0.0061894820
0.2274069953 0.0000000000 0.1858479419 0.0390368017 -0.0018587229 0.0057731828
-0.0163160892 0.6171003938 0.0044719077 0.0389293314 -0.0002078662 0.0072032812
-0.1016152181 0.0204460955 0.0681167907 0.0390317701 0.0018587285 0.0057702850
-0.1341651921 1.5483270483 -0.3466777821 0.0390334838 -0.0018587360 0.0057698779
-0.3471531148 1.6730053014 -0.2125146876 0.0381199839 0.0013891375 0.0049589374
0.0225695071 1.7265184953 -0.2715646674 0.0390132775 0.0018151300 0.0053762831
-0.1311196458 0.0000000000 0.2774644849 0.0390321715 -0.0018587267 0.0057733575
0.4565422906 1.6191618602 -0.2321731121 0.0407124596 0.0005050464 0.0051604300
0.4653338198 1.6515193398 -0.0893305330 0.0402022421 0.0014347155 0.0056206623
-0.1112158756 1.5353158967 -0.3032818162 0.0389830526 -0.0018430705 0.0056638277
0.1713049985 0.0204460955 0.2450026615 0.0390361121 0.0018587229 0.0057739262
-0.0276028079 1.5483270483 0.1353803500 0.0390334838 -0.0018587360 0.0057698779
-0.1079456155 1.5483270483 -0.3203318672 0.0390334838 -0.0018587360 0.0057698779
-0.2894194768 0.0000000000 0.3230120808 0.0389095507 -0.0017657285 0.0059420062
0.0304114508 0.3948342468 -0.0426915840 0.0387213072 -0.0002341524 0.0040000100
0.5000000000 1.5915762391 0.0340326309 0.0408883276 0.0000483234 0.0057401028
0.0830989032 1.7390784648 -0.1032023463 0.0391375340 0.0018340687 0.0059823705
-0.1770395930 1.5483270483 -0.1118888792 0.0390334838 -0.0018587360 0.0057698779
0.3453865572 1.5353160100 -0.1139552973 0.0392158779 -0.0017981523 0.0057160378
0.2356344743 1.6979884189 -0.3402542007 0.0394543593 0.0017487936 0.0053084114
-0.1363618908 1.6714090858 0.3625059949 0.0389466065 0.0017475408 0.0063955489
-0.2453852507 1.7105497490 -0.1658527033 0.0387236307 0.0017916783 0.0053927831
0.3770141669 0.6415003868 0.0633920475 0.0372999356 -0.0000731970 0.0064087013
0.3709115316 0.0000000000 -0.2438997750 0.0390371307 -0.0018587285 0.0057672627
-0.0878028249 1.5483270483 0.0544063156 0.0390334838 -0.0018587360 0.0057698779
0.0525738622 0.0809235362 -0.0419738201 0.0395900433 -0.0000443476 0.0040183873
0.1413455169 0.0000000000 0.0970468429 0.0390352608 -0.0018587267 0.0057715749
0.0838997638 0.0958687547 -0.0168123754 0.0406046993 -0.0000544498 0.0048283538
-0.1618403373 1.5464684258 -0.2294602386 0.0390273351 0.0018587006 0.0057613556
0.2119694980 1.7146673529 -0.2519224381 0.0393205526 0.0018256077 0.0055776326
0.0622950419 1.7246017872 -0.2774048400 0.0390803927 0.0018090241 0.0053629114
0.2753239869 1.7074611209 -0.1735036526 0.0394059782 0.0017996709 0.0054987330
-0.3417466820 0.0000000000 0.0467025057 0.0390144057 -0.0018585389 0.0057692961
-0.1318749562 1.5353158967 0.2591921142 0.0388275693 -0.0017212508 0.0060028630
-0.0594462466 1.7342865246 0.0368816921 0.0389930433 0.0017028177 0.0064924522
0.3582038818 0.0204460936 0.2595229581 0.0390422440 0.0018586709 0.0057749690
-0.0935342149 1.5487936617 -0.4103199178 0.0390275433 -0.0018488605 0.0056191623
0.4469527670 1.5493512583 0.1846569624 0.0391917608 -0.0018502006 0.0057892608
-0.3261272424 1.6721213126 -0.2360791639 0.0381651084 0.0014152248 0.0049527646
0.2659801919 0.0000000000 0.3621543611 0.0390377310 -0.0018586728 0.0057793203
-0.0528812302 0.0204460936 -0.2693094018 0.0390312849 0.0018587229 0.0057654448
0.3217316627 0.0204460955 -0.2982645674 0.0390363184 0.0018587285 0.0057664002
-0.2918383336 1.6682100712 0.3147234679 0.0387549745 0.0017721393 0.0062512199
0.0128562455 0.0000000000 -0.3831769157 0.0390330191 -0.0018585018 0.0057476251
0.1473850612 1.5483271617 0.0071989392 0.0390334838 -0.0018587360 0.0057698779
0.2564999044 1.5880593453 -0.3941155396 0.0396619949 -0.0002280093 0.0040397052
0.2234775457 0.6757066191 0.3137104884 0.0388918426 0.0000900539 0.0039266104
-0.0538041168 0.0000000000 0.1571840105 0.0390327812 -0.0018587285 0.0057718240
0.1928270660 0.0204460955 0.0612909639 0.0390357793 0.0018587267 0.0057712720
0.0839939571 0.0204460955 0.3427893715 0.0390349950 0.0018586951 0.0057770824
-0.3061548495 0.0000000000 0.0606076090 0.0390249150 -0.0018586709 0.0057695694
0.4832885642 1.6055452346 -0.1320183837 0.0408447532 0.0002748996 0.0054615991
-0.1868462299 1.7262107109 -0.1155247675 0.0387674541 0.0018376077 0.0057363073
0.0384956827 1.0871470229 0.0559557486 0.0391545674 -0.0007548847 0.0073903369
0.0720391436 1.5464683124 -0.1435823756 0.0390335210 0.0018587155 0.0057656790
0.1398186527 1.5585036964 -0.4159902595 0.0393473388 -0.0013594349 0.0045588111
0.0633039675 0.6618862983 0.0493699869 0.0399832458 -0.0004100000 0.0072200656
0.0886821910 1.0403523471 0.0145477324 0.0406439856 -0.0006546152 0.0062143723
0.2044315152 0.0000000000 0.0178080761 0.0390358314 -0.0018587267 0.0057706065
0.2922634822 0.0000000000 -0.0711512199 0.0390367069 -0.0018587267 0.0057695731
0.0316093430 0.0204460955 -0.4369800278 0.0390359504 0.0018582731 0.0057309058
0.2125126894 1.5483270483 -0.0802827249 0.0390334838 -0.0018587360 0.0057698779
-0.3102784942 1.5838641429 0.4226240026 0.0386656381 0.0001365409 0.0075827886
-0.2278876179 0.0000000000 -0.0200650239 0.0390296715 -0.0018587248 0.0057686084
0.0033676439 1.7417826171 -0.0917413079 0.0390171530 0.0017683698 0.0062793073
-0.0984324005 1.5464683124 -0.0403053796 0.0390298723 0.0018587136 0.0057674690
-0.2103670687 1.6838950851 0.2925685584 0.0388562459 0.0017965798 0.0062064244
-0.3263832107 0.0204460955 -0.1695635674 0.0390130489 0.0018585166 0.0057653482
0.0654484879 1.7409842807 -0.0300065996 0.0391466548 0.0018499534 0.0056971567
0.4227980193 1.6482110760 0.2063654816 0.0395272533 0.0017565724 0.0061201307
-0.0381765155 1.7073725169 -0.3509007781 0.0388525507 0.0018299423 0.0055058482
0.3674170708 0.0000000000 -0.3011586602 0.0390369987 -0.0018587062 0.0057647664
0.4025980781 1.5483270483 0.1520434011 0.0390334838 -0.0018587360 0.0057698779
0.0061997831 1.7438044906 -0.1270540159 0.0390340303 0.0018550129 0.0056886400
0.1272419936 1.7117187192 -0.3469852263 0.0391237143 0.0018457954 0.0055800638
0.0093263238 1.3779373221 0.0448359500 0.0379552162 -0.0008674368 0.0069967886
-0.3059730484 0.0202675081 -0.2982445451 0.0377864857 0.0005249219 0.0046087609
-0.1433075745 0.6552847448 0.3214217631 0.0388925637 -0.0000079368 0.0076129838
0.1857068415 0.0000000000 -0.1753371321 0.0390348202 -0.0018587285 0.0057676697
-0.0444248552 1.5483271617 0.0261535329 0.0390334838 -0.0018587360 0.0057698779
-0.0853866893 0.0000000000 -0.4316544556 0.0389472124 -0.0018353847 0.0055088054
-0.0417566528 0.0000000000 -0.0439882791 0.0390321678 -0.0018587267 0.0057688686
-0.3400215036 1.6797262025 0.2207831499 0.0386994411 0.0018065910 0.0060464708
0.4507153616 0.0000000000 -0.1834622524 0.0393216975 -0.0017916003 0.0056517590
0.0157065502 0.7750306096 -0.0385378965 0.0381677627 -0.0004772082 0.0042905732
-0.2660534503 1.6813403436 0.2754445668 0.0387915879 0.0017903939 0.0062028890
0.4722318139 0.0204460955 -0.0720146306 0.0391506028 0.0018498400 0.0057419894
0.1302215622 1.5483270483 0.2661218443 0.0390334838 -0.0018587360 0.0057698779
0.4019623997 1.5483270483 0.2395440280 0.0390444987 -0.0018585148 0.0057723017
0.2815097802 1.5483270483 0.2825772858 0.0390334838 -0.0018587360 0.0057698779
0.1274948542 1.6432984258 0.4010967752 0.0392194801 0.0016688029 0.0065651846
0.4784547893 1.6275321850 -0.1309487369 0.0406903443 0.0007674237 0.0054713445
-0.0113830133 0.0000000000 -0.2775291504 0.0390316827 -0.0018587229 0.0057654950
-0.2945737702 1.5483270483 0.1698092384 0.0390334838 -0.0018587360 0.0057698779
0.0772781545 1.3274640871 -0.0247586817 0.0402510432 -0.0008059312 0.0046713445
0.1233443154 1.5483270483 0.0258676184 0.0390334838 -0.0018587360 0.0057698779
-0.1031394671 1.6897471982 0.2993132829 0.0389808463 0.0017970891 0.0062342162
-0.3774719866 1.6436439908 -0.2040666936 0.0376329690 0.0006250334 0.0047225917
0.3714452769 1.6409365486 0.2915732778 0.0393930488 0.0017714051 0.0062029337
0.0567435255 0.0270747122 -0.0403059503 0.0397478685 -0.0000113234 0.0040569561
-0.3691550670 0.0000000000 -0.0634238616 0.0390038388 -0.0018584051 0.0057676177
0.0004918410 0.0204460955 -0.1912290475 0.0390322831 0.0018587248 0.0057668036
0.0727594057 1.5353158967 -0.3050456246 0.0390913797 -0.0017515612 0.0055048463
0.2410756934 0.0144538839 -0.4076787023 0.0392533667 0.0005178197 0.0052797924
-0.3934055359 1.6447897045 0.3274352293 0.0386071232 0.0017341151 0.0062798667
-0.3310100543 1.5893267876 0.4174411200 0.0386156846 0.0002679647 0.0075587180
0.2157757729 1.5353158967 0.2334886864 0.0392875284 -0.0016755724 0.0060750303
0.1350994392 0.0000000000 -0.1299299284 0.0390342924 -0.0018587285 0.0057681772
0.1173307934 0.0000000000 -0.0131200615 0.0390344987 -0.0018587285 0.0057698556
0.3030494612 0.0204460955 -0.3080810464 0.0390363109 0.0018586969 0.0057639560
0.0395332979 0.0000000000 -0.0226821130 0.0390333797 -0.0018587285 0.0057694560
0.1537614623 0.0000000000 -0.0523109050 0.0390348537 -0.0018587285 0.0057693946
-0.0117574910 1.7204434566 -0.2860930755 0.0389545972 0.0017640780 0.0052015564
-0.1226870664 0.6205577839 0.3146129977 0.0391398760 -0.0001809015 0.0039252516
0.1762108123 0.0204460955 0.1308264952 0.0390357905 0.0018587248 0.0057722459
-0.0557912338 0.0109590458 -0.4446589419 0.0386442812 -0.0000626375 0.0039888855
0.0663355715 0.0204460955 -0.4330980838 0.0390363983 0.0018582787 0.0057314262
-0.0761430263 0.0000000000 0.1026350898 0.0390322589 -0.0018587285 0.0057709374
-0.0481628903 1.5483270483 -0.3578661030 0.0390334838 -0.0018587360 0.0057698779
0.1976327888 0.0204460955 0.0233729680 0.0390357162 0.0018587267 0.0057707255
0.0736372922 0.4464659873 0.0399392960 0.0402865599 -0.0004280483 0.0070338909
-0.0019008949 0.0000000000 0.2445570370 0.0390338407 -0.0018587248 0.0057732961
0.3835255290 0.6714797643 0.0826175315 0.0372820583 0.0000659851 0.0063627924
-0.0098786676 0.2848799594 -0.0048493724 0.0372890973 -0.0001727398 0.0053208687
-0.0013750919 0.2064575866 0.0341345306 0.0376860954 -0.0001143624 0.0070053277
-0.4917841919 1.5661479506 0.2944343855 0.0374635675 -0.0009527602 0.0060190359
0.4165463115 0.6887937243 0.2599904209 0.0374048259 0.0001206190 0.0048898241
-0.2394695782 1.6887455644 -0.2826592802 0.0385194448 0.0016975464 0.0052191214
0.2708157381 0.0000000000 0.0092534800 0.0390367199 -0.0018587248 0.0057706995
0.4048120482 1.5483270483 -0.0386801344 0.0390334838 -0.0018587360 0.0057698779
0.2410690149 0.0204460955 -0.3787066297 0.0390751808 0.0018513419 0.0056786809
-0.1873333340 1.5483270483 -0.3586762368 0.0389622440 -0.0018555334 0.0057000917
-0.0270313674 0.0000000000 -0.3674752827 0.0390320879 -0.0018585687 0.0057528017
-0.1136497658 1.5353157833 -0.1617759990 0.0385787664 -0.0014910631 0.0052326456
-0.2491309996 0.0000000000 -0.0755713051 0.0390291604 -0.0018587229 0.0057677106
0.0033109914 1.3252080556 -0.0272808562 0.0378560489 -0.0008160446 0.0046085564
0.2363723275 1.7191821389 -0.0283919045 0.0393589094 0.0018274404 0.0057504430
0.0954778765 0.0000000000 -0.0522449998 0.0390340433 -0.0018587285 0.0057692013
-0.2439974664 0.0000000000 -0.2274374005 0.0390286437 -0.0018587192 0.0057654690
0.3837530494 1.5369325341 0.0550082543 0.0393612830 -0.0014777378 0.0057840768
0.1441722844 1.7332355395 -0.1542452764 0.0392493574 0.0018281058 0.0055312906
-0.4198195195 1.5483270483 -0.0500652620 0.0389601957 -0.0018567880 0.0057504114
-0.3284809523 1.6138876505 0.4085137934 0.0386248890 0.0009048531 0.0073307273
0.2093785112 0.0000000000 -0.3130263677 0.0390347478 -0.0018587062 0.0057641642
0.4226764022 0.6454302342 0.2120886895 0.0372330304 -0.0000536524 0.0061808259
0.3832815011 1.5483270483 -0.0401401008 0.0390334838 -0.0018587360 0.0057698779
-0.2933218409 0.6304522871 0.0423257364 0.0373512887 -0.0001027286 0.0050058742
0.0893334344 1.7384609649 -0.1230870422 0.0391634206 0.0018492620 0.0057316028
-0.0506116560 0.0204460955 -0.0813833494 0.0390319578 0.0018587267 0.0057682497
0.4239760100 0.6442082826 0.2420305446 0.0372492962 -0.0000466598 0.0053044374
-0.3007491267 1.5483270483 0.0967843243 0.0390334838 -0.0018587360 0.0057698779
0.2335814726 1.5483270483 0.3396613754 0.0390334838 -0.0018587360 0.0057698779
0.2312796363 1.7044321657 0.1174905425 0.0393371994 0.0018106690 0.0060512069
0.0344217908 1.4942437764 -0.0434936508 0.0388230321 -0.0009631208 0.0042058092
-0.2984639391 1.5483270483 0.0010174656 0.0390334838 -0.0018587360 0.0057698779
0.0269915273 1.2377143915 0.0541129458 0.0384999244 -0.0007717397 0.0073234187
-0.3039844723 0.0000000000 -0.0406092086 0.0390230154 -0.0018586486 0.0057680787
-0.0462647157 0.0000000000 0.1362661399 0.0390328035 -0.0018587285 0.0057715378
-0.0973250883 0.6717411490 -0.0094989465 0.0392138611 0.0001112472 0.0039313873
-0.1692853499 0.6787016523 -0.0160407881 0.0391808537 0.0000709164 0.0039218260
0.0248082151 0.2642642859 0.0532396168 0.0384283742 -0.0001620855 0.0074753183
0.0351919524 1.7427266189 -0.1248914082 0.0390794095 0.0018542397 0.0057093445
-0.0111523869 1.0552619411 0.0003976496 0.0374087330 -0.0006854851 0.0055362515
-0.0665743763 0.0000000000 0.3688372009 0.0390323797 -0.0018585612 0.0057870712
0.4136885236 0.0000000000 0.0810544554 0.0390537050 -0.0018585259 0.0057721642
-0.0865273974 0.0000000000 -0.1009936643 0.0390313240 -0.0018587248 0.0057678723
-0.2792305202 0.0000000000 0.1881874436 0.0390297663 -0.0018587285 0.0057715378
0.3500767614 0.0000000000 0.2875622576 0.0390406827 -0.0018586951 0.0057750935
-0.2732818049 1.5716382793 -0.3276527386 0.0377938984 -0.0007556319 0.0046305694
-0.2728551265 0.0204460955 -0.0739847866 0.0390289392 0.0018587229 0.0057675378
-0.1293751385 1.7304273557 -0.1597120493 0.0388367459 0.0018132248 0.0054182627
0.2567550345 1.7043883758 0.0834475891 0.0393626752 0.0018232564 0.0058904281
0.1561968265 0.6711760636 0.3172515774 0.0389520284 0.0000700985 0.0039239747
-0.1397349892 1.7227942167 -0.1784865985 0.0388406827 0.0017452564 0.0051745564
0.4234571531 1.5957443281 0.3904963688 0.0397968815 0.0013580167 0.0067738834
0.0761498794 0.0389917282 -0.0258869604 0.0403535804 -0.0002361375 0.0045059746
-0.4940611546 1.6062210469 0.0810275762 0.0371922125 0.0001736691 0.0056174430
-0.3801492801 1.5533938733 0.3875581161 0.0388642794 -0.0017822899 0.0062585266
0.4673405205 1.6046537588 -0.2072240429 0.0408016027 0.0002319163 0.0052526177
-0.1166317674 1.6048410618 -0.4623763795 0.0385509894 0.0000725427 0.0039784226
0.1322374877 0.0204460955 0.2227855829 0.0390355005 0.0018587229 0.0057734523
-0.1316554190 1.6975353074 0.2647525823 0.0389437478 0.0018003716 0.0062152403
0.1493435537 0.0000000000 -0.0155725298 0.0390349355 -0.0018587285 0.0057699262
0.2972223332 0.0204460955 0.3671862735 0.0390377217 0.0018586597 0.0057804411
0.1721844780 1.6967767926 -0.3838217279 0.0393854541 0.0016305501 0.0049611772
0.4261139132 1.5547906483 0.3809051426 0.0394792979 -0.0017461077 0.0061659076
0.1658346661 0.0204460955 -0.2300334933 0.0390344150 0.0018587267 0.0057668389
-0.2824601073 1.7106458401 0.0961836645 0.0387281809 0.0018269274 0.0059109244
0.4288826454 0.0204460955 -0.0640563783 0.0390549541 0.0018584999 0.0057709095
-0.0254668470 1.7125923846 0.1934962537 0.0390733128 0.0018432750 0.0056225954
-0.3099254440 1.7042631286 -0.0914648135 0.0387037998 0.0018247452 0.0058539485
0.0873984996 0.8052949127 0.0177569609 0.0406546622 -0.0005062323 0.0063294652
0.0211876075 0.0000000000 0.0845551429 0.0390335414 -0.0018587285 0.0057709913
0.0027620956 0.4832618179 -0.0267319641 0.0377635359 -0.0004732955 0.0045377999
0.0189758660 1.6842182989 0.3146442523 0.0391238072 0.0017858363 0.0062728853
0.1283102147 1.5483270483 -0.0207066893 0.0390334838 -0.0018587360 0.0057698779
0.3984818348 1.6732850653 0.0982211588 0.0394573369 0.0017976189 0.0059741865
0.0652754563 1.5528958362 -0.4215568242 0.0391099113 -0.0017189274 0.0050975099
0.2215238971 0.0204460973 0.3461889048 0.0390371455 0.0018587192 0.0057756196
0.0842005184 0.0204460955 -0.0882742245 0.0390337812 0.0018587285 0.0057686456
0.0081674131 0.1113108393 -0.0321372816 0.0377690824 -0.0001501301 0.0044371364
0.4457246890 1.6658231215 0.0241960795 0.0397977366 0.0016902174 0.0058724690
0.1489714923 1.5483270483 -0.0252320943 0.0390334838 -0.0018587360 0.0057698779
0.1045782607 0.0000000000 0.0692652683 0.0390346418 -0.0018587267 0.0057710396
0.2393908459 0.0204460955 0.3646374316 0.0390368518 0.0018586542 0.0057807255
-0.0318336887 0.0000000000 0.1629882629 0.0390331083 -0.0018587267 0.0057719820
-0.4035452286 0.0000000000 -0.1100132957 0.0378547794 -0.0012351003 0.0054426660
0.3165648898 1.6936649061 -0.2371224910 0.0394684392 0.0017961653 0.0055833426
-0.1754377176 1.7238171795 -0.0799649982 0.0388469727 0.0016996876 0.0064734355
0.1067099818 0.0204460955 -0.2513684418 0.0390335321 0.0018587248 0.0057663017
0.0867571372 1.4079359858 -0.0071446845 0.0406241659 -0.0008466617 0.0054107069
0.2633047125 0.0204460955 0.1651349598 0.0390371009 0.0018587229 0.0057730787
0.3584230639 1.6327927795 0.3331185895 0.0393704299 0.0017563196 0.0062752385
0.0641262798 0.3152210376 0.0487532490 0.0400842495 -0.0001900502 0.0072212106
-0.1940351031 1.6667068817 0.3611703686 0.0388774671 0.0017547025 0.0063581902
-0.0260395831 1.5353158967 0.1888179027 0.0387123426 -0.0013837211 0.0065815712
-0.1121644592 0.0000000000 -0.3713625297 0.0390308277 -0.0018585780 0.0057531902
0.1870914771 0.0204460955 -0.2085055967 0.0390347812 0.0018587285 0.0057672367
0.2227387576 0.0204460955 -0.3477218173 0.0390362515 0.0018585668 0.0057537348
-0.3296164002 1.5483270483 0.2220717223 0.0390334838 -0.0018587360 0.0057698779
0.3647777829 1.6113267845 -0.3451961483 0.0399943109 0.0002441301 0.0042048390
0.0637326181 0.9897851772 0.0490485018 0.0399489670 -0.0006133252 0.0071733574
0.0645093857 0.0542671567 0.0484659238 0.0401468034 -0.0000247602 0.0072313462
0.0261424530 0.6260949658 0.3196179658 0.0390419596 -0.0001663494 0.0039237107
-0.0842177043 1.5540186335 0.4335884927 0.0390013109 -0.0016791393 0.0065627701
0.4149860309 0.0000000000 0.1763277900 0.0390564485 -0.0018584925 0.0057735749
0.1564430663 1.5353158967 -0.1503479458 0.0396444633 -0.0013702546 0.0051459096
-0.3786873583 1.5483270483 0.0255534604 0.0390334838 -0.0018587360 0.0057698779
0.2479360220 0.0204460955 0.0084490711 0.0390363537 0.0018587267 0.0057706902
0.0508629701 0.0204460955 0.1008672553 0.0390339708 0.0018587267 0.0057713370
-0.3746059998 1.6970988725 0.0012551254 0.0386283593 0.0018116913 0.0058191642
0.0531098640 1.6502863845 0.4033926264 0.0391610674 0.0016618791 0.0065888500
-0.1422501656 0.0000000000 -0.0960561701 0.0390305675 -0.0018587248 0.0057677608
0.0355551848 1.0785510494 -0.0437203348 0.0388050712 -0.0007082639 0.0041273353
0.1468408363 0.0204460955 0.3995543887 0.0390342217 0.0018584925 0.0057926530
-0.2270645808 1.5483270483 -0.2324545768 0.0390334838 -0.0018587360 0.0057698779
0.3500126350 0.0000000000 0.0264301425 0.0390378890 -0.0018587229 0.0057712162
0.4446762281 1.5816061821 0.3817122150 0.0404081882 0.0005477881 0.0068504392
0.3588494877 1.6665446512 -0.3044914871 0.0397754076 0.0016102397 0.0052183910
0.0362109412 1.3838980058 0.0559557486 0.0389563797 -0.0009231988 0.0073283202
-0.1563333042 1.5483270483 -0.3050585001 0.0390334838 -0.0018587360 0.0057698779
0.0891129214 0.0204460955 -0.2261700548 0.0390333779 0.0018587267 0.0057666121
0.3946793053 0.0000000000 -0.0377950619 0.0390453184 -0.0018586300 0.0057703723
0.0794388718 1.6200573063 0.4370592713 0.0391111102 0.0010221728 0.0073160210
0.4641014036 1.5625564081 -0.1853858676 0.0403466492 -0.0012347955 0.0054236995
0.0862888194 1.4536574423 -0.0099545933 0.0406066101 -0.0008720446 0.0053647999
0.1325782795 0.0204460955 -0.1871728340 0.0390341065 0.0018587267 0.0057673538
0.4378497359 0.0002028215 -0.2234513821 0.0403469986 -0.0010021505 0.0049863780
-0.0086657495 1.1857512402 0.0188309664 0.0374070118 -0.0007103810 0.0061353314
0.0046802293 0.3237166951 0.0401898573 0.0377723798 -0.0004885371 0.0070172217
0.0450660504 1.6703959930 -0.4354703996 0.0392075749 0.0009182973 0.0041651271
-0.0024464655 1.5483270483 -0.0213380852 0.0390334838 -0.0018587360 0.0057698779
0.0482550837 1.2097297742 -0.0437013330 0.0395145395 -0.0007632527 0.0041996568
-0.3159414623 0.0204460955 -0.1983386642 0.0390154057 0.0018585482 0.0057650471
0.3163539046 0.0204460955 0.2098596022 0.0390379801 0.0018587211 0.0057739393
0.2521601686 1.5639150642 -0.3864918448 0.0395595749 -0.0009999405 0.0043130750
0.3278783445 0.0000000000 0.3562088800 0.0390388184 -0.0018587118 0.0057765378
0.0878818137 1.2067808004 -0.0009178131 0.0406684280 -0.0007492119 0.0054918705
-0.0834619404 1.5354220844 0.3321315896 0.0390023295 -0.0018208605 0.0058612199
0.2496657951 1.5353158967 -0.1699931826 0.0393888983 -0.0016346412 0.0054701214
0.2662037421 0.0204460955 0.0449739240 0.0390367292 0.0018587248 0.0057713017
0.1613493764 1.6950884562 0.2135354384 0.0392761399 0.0018245557 0.0060179058
-0.2751734405 0.0000000000 0.1148665965 0.0390295377 -0.0018587267 0.0057704597
-0.1281635679 0.0000000000 0.2242592612 0.0390320061 -0.0018587285 0.0057725749
-0.3876398410 1.6858299438 -0.1197855015 0.0383946121 0.0017102081 0.0054350787
0.1971688427 1.5464683124 0.2351576231 0.0390385526 0.0018587025 0.0057779039
0.0850418752 0.8723676096 0.0236485219 0.0406125618 -0.0005305855 0.0064357422
-0.0500180445 1.6553291593 -0.4520803002 0.0391344002 0.0008539460 0.0041372944
-0.0532095499 1.7115183698 0.1935367407 0.0390380470 0.0018428809 0.0056267776
0.1438293235 1.7192962671 -0.2782806039 0.0392201622 0.0018102285 0.0054074616
-0.4367557248 1.6787598512 -0.0324381924 0.0381520210 0.0016203828 0.0056268166
0.3286690229 1.6982926884 -0.0015712109 0.0394311678 0.0018081746 0.0059224690
0.4023312770 0.0000000000 -0.0146949146 0.0390480786 -0.0018585947 0.0057707292
-0.4261254838 1.6849777208 0.0233630516 0.0384486437 0.0017627415 0.0057495285
0.1836609587 1.6764709183 0.2766329943 0.0392760303 0.0017816300 0.0062393444
0.3737708233 1.5353158967 -0.0127887232 0.0391938202 -0.0018208270 0.0057556103
0.2462856763 0.0000000000 -0.2753130817 0.0390352756 -0.0018587267 0.0057663816
0.1056349168 0.0000000000 0.2549688059 0.0390353779 -0.0018587229 0.0057738073
0.2206945756 0.0204460955 -0.0202269849 0.0390358834 0.0018587267 0.0057701623
0.0282121424 0.0000000000 -0.0597698934 0.0390330786 -0.0018587285 0.0057688668
-0.3816804901 1.5483270483 0.2750902397 0.0390334838 -0.0018587360 0.0057698779
0.2850051778 0.6171003362 0.3112142878 0.0389838593 -0.0001904684 0.0054262590
0.2821935906 1.6311649097 0.3799031686 0.0393202700 0.0017252638 0.0063981214
-0.2317296846 0.0204460955 -0.1929399043 0.0390290972 0.0018587211 0.0057659207
-0.1216824251 0.6427849611 0.3229131552 0.0389095972 -0.0000650223 0.0076135748
-0.4058457601 1.5568135441 0.3874608057 0.0386745786 -0.0015792192 0.0066512868
-0.0495453903 0.6902592483 0.3274835861 0.0389459095 0.0001648662 0.0076153667
0.2175945609 1.5483271617 -0.3692611562 0.0390597701 -0.0018560334 0.0056873742
0.2211839770 0.0204460955 -0.0432077624 0.0390358109 0.0018587267 0.0057698222
0.0464518198 0.1181110043 0.0544720796 0.0393426399 -0.0000733327 0.0075860618
0.0959380047 1.5483270483 -0.3444396744 0.0390334838 -0.0018587360 0.0057698779
-0.2305815880 1.5464683124 -0.1648996829 0.0390004652 0.0018581913 0.0057585025
-0.1718716565 1.5464683124 0.1355270098 0.0390289801 0.0018587211 0.0057721512
-0.0795853867 0.0204460955 0.0630229508 0.0390320544 0.0018587285 0.0057702906
-0.0932167446 1.5537943454 -0.4394546169 0.0389842180 -0.0017600055 0.0051773055
0.3751571038 0.0204460955 0.1862161668 0.0390454002 0.0018586281 0.0057740619
-0.2596144674 1.5664456402 0.4290553554 0.0387659299 -0.0007785910 0.0074084522
-0.1461488141 0.0204460936 0.1833520090 0.0390315526 0.0018587285 0.0057718352
0.0053351270 1.2426556291 -0.0293049918 0.0378663872 -0.0007281264 0.0045757479
0.3996189556 0.0204460955 0.2388976284 0.0390691976 0.0018568586 0.0057839932
-0.2325694857 0.0204460955 -0.0900218731 0.0390294355 0.0018587229 0.0057674486
-0.2046619278 0.0204460955 0.3010128237 0.0390311530 0.0018587285 0.0057733686
0.2988670785 0.0000000000 -0.3705921878 0.0395731957 -0.0014415724 0.0050171809
0.1109632269 1.7212119547 0.1255668376 0.0392151362 0.0018015984 0.0061678965
0.2876427353 0.0204460955 0.1813142098 0.0390374894 0.0018587211 0.0057734095
0.0464990745 0.7968751251 -0.0444037326 0.0393958369 -0.0004979777 0.0040933966
-0.1104095410 0.0000000000 -0.2999908535 0.0390302199 -0.0018587211 0.0057648315
-0.1724475337 0.0204460955 -0.1402940486 0.0390300879 0.0018587229 0.0057669225
-0.3750866801 1.6657618594 0.2575982519 0.0386601976 0.0017780296 0.0061613723
-0.0193579143 1.7105311431 -0.3229650585 0.0389141307 0.0018360296 0.0060173203
0.2200652224 0.0204460955 0.2211981573 0.0390366994 0.0018587229 0.0057737534
0.2938866141 1.5483270483 0.3181368990 0.0390334838 -0.0018587360 0.0057698779
-0.3126879941 0.0000000000 0.2947130713 0.0390288779 -0.0018587174 0.0057730155
-0.1029119039 1.5353158967 0.2520812634 0.0387893630 -0.0016589200 0.0061082050
0.0620201553 0.6821591001 -0.0381952998 0.0398556975 -0.0004096858 0.0042337479
0.1371065228 0.0079551538 -0.4430276129 0.0394096492 -0.0004142937 0.0041028148
0.3923607069 0.6643367796 0.1104031172 0.0372674226 0.0000408625 0.0063222032
0.1440722807 1.5977981960 0.4448347857 0.0391104132 0.0005557955 0.0075400711
-0.1850221371 1.7305950323 -0.0413180264 0.0388143872 0.0018246672 0.0055219151
0.0420203610 0.0204460936 -0.2671106603 0.0390325935 0.0018587248 0.0057658296
0.2726594573 0.0000000000 -0.3625213964 0.0390717106 -0.0018513698 0.0056821512
0.0639382538 1.7058440300 0.2136094626 0.0391816269 0.0018339999 0.0059961958
-0.0348969617 0.0000000000 -0.2104463420 0.0390316158 -0.0018587248 0.0057664151
0.2800052878 0.0204460955 -0.3630000339 0.0390894243 0.0018487304 0.0056580173
-0.2810040851 0.0204460955 0.2886260326 0.0390300656 0.0018587285 0.0057729021
0.1299457685 0.0204460955 0.1736208868 0.0390353017 0.0018587248 0.0057727106
0.3734297136 0.0000000000 0.2033061788 0.0390452533 -0.0018586356 0.0057738946
0.1122032380 1.5353158967 0.0725821975 0.0400022403 -0.0010614014 0.0067363704
0.0895602950 0.0000000000 -0.0021729729 0.0390341548 -0.0018587285 0.0057699281
0.1626437927 0.0000000000 0.1784869516 0.0390358723 -0.0018587248 0.0057728575
0.0705406734 1.1835396809 0.0430359185 0.0401715339 -0.0007075353 0.0069915730
-0.1589275104 0.0153427575 0.4209928726 0.0387627887 0.0005171598 0.0063974931
0.0832004608 0.3148897700 0.0282520532 0.0406440432 -0.0001849777 0.0065853760
-0.2593894432 0.6920677835 -0.0020202945 0.0380042125 0.0001403123 0.0042634096
-0.1621653373 1.7269483522 0.1036563593 0.0388636232 0.0018387434 0.0059666381
0.0829777731 1.5464683124 -0.1931467203 0.0390335321 0.0018587118 0.0057642850
-0.0866543175 1.5483270483 0.4046541709 0.0390196121 -0.0018575259 0.0058308556
-0.1201277022 0.0204460955 -0.1611438653 0.0390307329 0.0018587229 0.0057668054
0.0003161031 1.6969861048 0.2718094016 0.0391057161 0.0017966542 0.0062373333
-0.4543505826 1.6404381694 0.2749181394 0.0383252887 0.0016637415 0.0061858073
-0.3521604936 1.6521216371 0.3336122587 0.0386919671 0.0017601151 0.0062571028
0.2895180344 1.6236440867 0.3989095486 0.0393178537 0.0016856021 0.0064985693
0.4327116080 0.6685206381 0.2288290398 0.0408758220 0.0000335353 0.0057976790
0.2137699217 0.0000000000 0.2943866513 0.0390370340 -0.0018587211 0.0057747534
-0.3268979821 1.6479462879 0.3621779596 0.0387062998 0.0017151096 0.0064025582
0.0842666727 0.0000000000 0.1507389737 0.0390346753 -0.0018587267 0.0057721846
0.0748654576 0.0000000000 -0.3122214532 0.0390327478 -0.0018587229 0.0057652645
0.0027046420 1.5353158967 0.2238929081 0.0388390749 -0.0014766616 0.0064775173
-0.1354273035 1.6076141899 0.4413021781 0.0389029020 0.0005740650 0.0075303592
0.2446087136 0.6206489977 0.3200789342 0.0391792366 -0.0001741673 0.0076129317
-0.1476114032 1.7135890277 -0.2533794529 0.0387794652 0.0018054163 0.0054104077
0.4730191726 1.5539830108 0.1815442693 0.0396286529 -0.0017525817 0.0058396865
-0.3469175683 1.5483270483 0.0237881036 0.0390334838 -0.0018587360 0.0057698779
-0.1397240840 0.0204460973 0.4290663033 0.0385618556 0.0008068085 0.0069598295
-0.2108681133 1.5483270483 0.2809487636 0.0390334838 -0.0018587360 0.0057698779
-0.3063018216 1.6294533169 -0.2947899895 0.0376885582 0.0004089870 0.0045559412
0.3147455776 1.5968089266 0.4291886565 0.0393304392 0.0010789609 0.0072401938
-0.2565025828 0.0093955106 -0.3466096836 0.0389137310 0.0000288290 0.0056066047
-0.1838784941 1.5483270483 -0.3173125551 0.0390334838 -0.0018587360 0.0057698779
0.1356566678 0.0204460955 0.2003257663 0.0390354708 0.0018587248 0.0057731307
0.0090837625 1.6116381990 0.4439755571 0.0390476065 0.0007110594 0.0074830395
0.4981334927 1.5798354815 0.1198985238 0.0408673406 -0.0002345669 0.0058697887
0.3836493004 1.5483270483 -0.2185566017 0.0390365173 -0.0018586597 0.0057685433
-0.1334867720 0.0204460955 -0.1940561496 0.0390304392 0.0018587229 0.0057662664
-0.0146010707 1.6492935983 0.4138022968 0.0390920730 0.0015701059 0.0067414095
-0.0111523906 0.3705212407 0.0017070845 0.0372672107 -0.0002585111 0.0057010508
0.0125375169 0.2826546157 0.0480471413 0.0380784337 -0.0001906320 0.0073038016
0.0921899975 1.7363907624 -0.1593287352 0.0391672459 0.0018251672 0.0054723110
-0.2846874362 0.0000000000 0.1600438839 0.0390295805 -0.0018587267 0.0057710991
0.1105902306 1.7301591642 0.0320018969 0.0391900266 0.0017076746 0.0064481381
0.3821210402 0.0204460955 -0.1594901572 0.0390387478 0.0018587118 0.0057687311
-0.1491785072 1.5495301672 0.4060732378 0.0390060860 -0.0018539441 0.0058868222
-0.2108777564 1.5353158967 -0.1017695229 0.0386411344 -0.0016196449 0.0054939560
0.0707805192 0.1499624635 -0.0312563170 0.0402321455 -0.0004287992 0.0044460602
0.4625129297 1.5544234160 -0.1256858450 0.0396592514 -0.0017417434 0.0056517850
-0.1402792289 1.5552138100 -0.4267559020 0.0386840842 -0.0017121412 0.0051365545
0.3660993981 0.0000000000 -0.0767605039 0.0390377124 -0.0018587248 0.0057697348
0.2904908820 0.0000000000 0.3309495729 0.0390382422 -0.0018587192 0.0057755508
0.2186137653 1.7216226369 -0.1453571598 0.0393443146 0.0018208456 0.0055955080
0.3830025885 1.6761099257 -0.2153791000 0.0396835265 0.0017206449 0.0055032367
-0.4756132226 1.6533776222 0.1259863264 0.0376888203 0.0012729720 0.0058443984
-0.0111198590 1.0941277195 -0.0017463800 0.0374189690 -0.0006881226 0.0053752980
0.1361665396 0.0000000000 0.2941323297 0.0390359541 -0.0018587229 0.0057744913
0.0000845269 0.2953414755 -0.0240543917 0.0376416196 -0.0003121301 0.0046439449
0.4733709476 1.6109858719 -0.1802837879 0.0408013889 0.0003887267 0.0053659337
-0.4004139425 1.5483270483 -0.1063819465 0.0389520414 -0.0018563456 0.0057281307
-0.2982684391 0.0000000000 0.2727861636 0.0390298295 -0.0018587285 0.0057727329
-0.1700846770 0.0000000000 -0.1762696488 0.0390298686 -0.0018587229 0.0057664746
0.0616436814 1.4484320169 0.0506152006 0.0396921752 -0.0008771486 0.0072267440
-0.4453841444 1.5483270483 0.2441646188 0.0389722756 -0.0018573103 0.0057800917
-0.2860940811 1.5483270483 0.1933802091 0.0390334838 -0.0018587360 0.0057698779
0.0850878102 0.0000000000 -0.2070664927 0.0390332979 -0.0018587267 0.0057668631
-0.3563217741 1.5483270483 0.1614197277 0.0390334838 -0.0018587360 0.0057698779
0.4234459505 1.5483270483 -0.1627556514 0.0391038184 -0.0018571635 0.0057534207
-0.1853097858 0.0000000000 0.0223561242 0.0390304280 -0.0018587267 0.0057693798
0.1779411524 0.0204460955 0.2933538762 0.0390363686 0.0018587211 0.0057746697
-0.3546473913 1.6316936922 -0.2395738236 0.0376255136 0.0003810223 0.0046183074
-0.4246104114 1.6537520014 -0.1267456349 0.0376212980 0.0008761115 0.0049485954
-0.1050624577 0.0204460955 -0.0222795759 0.0390314150 0.0018587267 0.0057689281
0.1853346594 1.5353158967 0.2585155381 0.0391647998 -0.0016807954 0.0061248463
-0.3120851298 1.6818711689 0.2430603419 0.0387417756 0.0017970371 0.0061413147
0.0118317809 1.7195866946 0.1553019455 0.0390747385 0.0017059609 0.0064912217
-0.3283547980 1.6739659816 0.2626771308 0.0387170303 0.0017841783 0.0061797422
-0.0470670577 0.0204460955 -0.0307353412 0.0390321790 0.0018587267 0.0057690155
-0.2919600362 0.6806254515 0.0390914169 0.0374057813 0.0001199015 0.0049051196
0.0851911373 1.4981770271 0.0232753620 0.0405135265 -0.0009150223 0.0063965322
-0.3268290899 0.6675612050 0.1467288902 0.0372582962 0.0000424517 0.0052436326
0.1094115820 1.6753383644 0.3196035866 0.0392228555 0.0017783716 0.0062756195
0.4749009382 1.5534476484 0.1539037393 0.0396110228 -0.0017566765 0.0058163500
0.4120151612 1.6779319052 0.0007121738 0.0395198035 0.0017925352 0.0058345675
0.0577444511 1.2323949160 -0.0399055878 0.0396997198 -0.0007511672 0.0042583092
0.3868615883 0.6970259821 0.2980961529 0.0397549986 0.0001869294 0.0068506808
0.2827364121 1.5483270483 -0.1377334651 0.0390334838 -0.0018587360 0.0057698779
-0.1789725947 0.0204460955 0.1540576036 0.0390310043 0.0018587285 0.0057712775
0.0122802196 1.2135095286 0.0477898439 0.0380292831 -0.0007747806 0.0070851028
-0.1746026823 0.0204460955 -0.0552306725 0.0390303500 0.0018587248 0.0057681809
0.0098647476 1.5464683124 0.3089112880 0.0390267217 0.0018581040 0.0058081865
0.3956826417 0.0204460955 -0.1855199624 0.0390420953 0.0018586672 0.0057685192
-0.2077197826 1.6034963593 0.4350211729 0.0388065916 0.0005061468 0.0075404113
-0.1433280800 1.7327112942 -0.1234603302 0.0388097645 0.0018414348 0.0057119523
0.1129838959 0.0000000000 0.3017267233 0.0390356604 -0.0018587229 0.0057745285
0.0288440346 0.6732748553 -0.0424079595 0.0387068816 -0.0003990502 0.0040493408
0.4777149660 1.6465985222 0.0229263212 0.0402291120 0.0014113605 0.0058213222
0.4532965361 0.0000000000 0.1847095869 0.0392505581 -0.0018387044 0.0058696586
-0.0884157579 1.5483269349 -0.3709939944 0.0390334838 -0.0018587360 0.0057698779
-0.2281773093 1.6954934655 0.2356721249 0.0388284764 0.0018110612 0.0061240712
-0.1607642668 1.5924099714 0.4427831594 0.0388637608 0.0001974126 0.0076096975
0.0788129462 0.0204460955 0.2707128125 0.0390349336 0.0018587229 0.0057739671
0.2980706994 0.0000000000 0.1500475350 0.0390376455 -0.0018587229 0.0057728835
-0.1513432543 0.0000000000 0.2703467419 0.0390318630 -0.0018587267 0.0057731846
0.4808248654 0.0204460955 0.0444923534 0.0390730210 0.0018582638 0.0057733686
0.0423821007 0.0000000000 -0.1509095145 0.0390329225 -0.0018587267 0.0057675582
0.2186012579 0.0204460955 0.1987633426 0.0390366028 0.0018587229 0.0057734132
-0.0086061900 1.5196218083 0.0191883140 0.0374628631 -0.0009146263 0.0061354876
0.0892193508 0.4833392472 0.0109051862 0.0407764242 -0.0003222137 0.0059281753
-0.2754784181 0.6426640243 0.0256404716 0.0405780265 -0.0000634387 0.0067686994
0.2618983520 1.5464681990 -0.1525202524 0.0390381325 0.0018587229 0.0057668445
0.2202604102 1.7180474289 -0.1679228370 0.0393486492 0.0018003456 0.0054504969
-0.0084541473 0.5888647151 0.0201005574 0.0373237887 -0.0003449684 0.0061914448
0.0987990157 1.5464683124 -0.2296973167 0.0390337310 0.0018587118 0.0057633147
-0.1125373904 0.0204460955 0.2075770800 0.0390320972 0.0018587285 0.0057723203
0.1199026297 1.5464683124 -0.2518828154 0.0390369076 0.0018584925 0.0057520731
0.3917038427 1.6549457039 -0.2920738112 0.0399035395 0.0015232676 0.0051581363
0.4665059109 0.0000000000 0.1585493598 0.0394680210 -0.0017058029 0.0059219337
0.0390056790 1.7322156400 -0.2313288445 0.0390333537 0.0018563605 0.0057497404
0.4927123127 1.5616327111 0.0280089398 0.0404795637 -0.0011628810 0.0057242274
-0.2716154202 1.7102222230 -0.1282351831 0.0386979690 0.0018230705 0.0056407255
-0.0340668670 0.0204460955 0.2754592025 0.0390334039 0.0018587248 0.0057736196
0.1631927109 0.0000000000 0.0984057332 0.0390355693 -0.0018587248 0.0057716679
-0.3548138206 0.0000000000 -0.1466322044 0.0390058611 -0.0018584330 0.0057664151
0.3130392301 0.0204460955 -0.1898726740 0.0390365693 0.0018587285 0.0057679802
-0.1714701360 0.0204460955 0.1009944654 0.0390309262 0.0018587285 0.0057705155
0.3142942523 0.0204460955 0.0310457482 0.0390373407 0.0018587248 0.0057712720
-0.1148560464 1.7384301080 0.0016207332 0.0388888110 0.0018391783 0.0059654021
0.0361684431 1.2025641556 0.0559557449 0.0389715210 -0.0008067676 0.0073657273
0.2934702034 1.5464683124 0.1190007357 0.0390525619 0.0018584609 0.0057772144
0.3392073996 0.6898482818 0.0033955305 0.0380190657 0.0001445074 0.0072745507
0.0957116423 1.6515039104 0.3920129746 0.0391988258 0.0016903289 0.0065233816
-0.3309011733 1.5608334695 -0.2545177075 0.0379924262 -0.0012534293 0.0048955267
-0.4831511199 1.6070831397 -0.0011072313 0.0372071177 0.0000659405 0.0054392701
0.2762684441 0.6178003677 -0.0181626003 0.0389771102 -0.0002967082 0.0039386494
0.2538508023 0.0000000000 -0.2191276705 0.0390355991 -0.0018587285 0.0057672441
-0.0084852328 0.2768667406 0.0199140555 0.0372963389 -0.0001577342 0.0062548463
0.4447754400 1.5515115407 -0.1703379372 0.0394750005 -0.0017984869 0.0056636103
-0.1472094701 1.7355799465 -0.0470136097 0.0388711437 0.0018188140 0.0054361084
0.2378182549 0.0000000000 -0.0040716717 0.0390362106 -0.0018587267 0.0057703909
0.2497975386 1.5464684258 0.0521089143 0.0390388964 0.0018587118 0.0057728482
0.0729330190 1.7402227027 -0.0064797849 0.0391616808 0.0018463400 0.0058949281
-0.0104952940 0.7873761033 0.0090553443 0.0373324820 -0.0005218308 0.0060224597
-0.0432796527 0.0204460955 0.1589183635 0.0390328797 0.0018587285 0.0057718519
0.0385511270 1.5483270483 0.2972304875 0.0390334838 -0.0018587360 0.0057698779
0.0773166731 1.0053701279 0.0362599189 0.0402863350 -0.0006941487 0.0069051176
0.2574408151 1.7003211418 0.1138542341 0.0393590935 0.0018110761 0.0060305879
0.1002541662 0.0000000000 -0.4031700706 0.0390347775 -0.0018584051 0.0057403909
-0.0159040948 0.0000000000 -0.3353498050 0.0390316418 -0.0018586839 0.0057617608
-0.0088350432 1.5813687342 0.4500077705 0.0390124225 -0.0000130929 0.0076270730
-0.1525700702 0.0000000000 0.0435580189 0.0390309652 -0.0018587267 0.0057698054
-0.2996715673 0.0204460955 0.1714311230 0.0390294095 0.0018587267 0.0057710898
-0.0105505505 0.5177290389 -0.0031696569 0.0373170397 -0.0003204814 0.0053710471
-0.0165557416 1.5524776652 0.4314851898 0.0390246158 -0.0017439125 0.0063842775
-0.2240942780 0.6852839754 0.3056277844 0.0392457961 0.0001419963 0.0039345379
0.3271652088 1.6977792200 -0.0559099735 0.0394194057 0.0017986505 0.0055263352
-0.1007464171 1.6853244196 -0.3987170281 0.0387138426 0.0017079850 0.0051112237
0.0499836579 0.3310534196 -0.0430099018 0.0395016697 -0.0002025037 0.0040389877
0.2666540748 0.0204460955 -0.3418983771 0.0390367868 0.0018585761 0.0057546604
0.0858268900 1.5494492787 -0.4051845984 0.0390565972 -0.0018368679 0.0055213147
-0.2350073461 1.7230509509 -0.0032279617 0.0387597552 0.0018332676 0.0058618928
-0.1591034695 0.0204460955 0.3920457032 0.0389924057 0.0018514516 0.0058604690
0.2256726850 0.0000000000 0.2764351969 0.0390371288 -0.0018587211 0.0057745248
-0.2003547812 0.0204460955 -0.2729561097 0.0390292533 0.0018587192 0.0057648463
0.4451695589 1.6232627875 -0.2556098171 0.0405840376 0.0006611951 0.0050332163
0.2450863734 1.5994798391 0.4381195017 0.0392165712 0.0008252583 0.0074112087
0.4124854047 1.6648665249 0.1342047014 0.0394787849 0.0017812676 0.0060535638
-0.2586561998 0.0000000000 0.0733198313 0.0390296065 -0.0018587267 0.0057698965
-0.4280916826 1.5483270483 0.3022236843 0.0389778240 -0.0018573809 0.0058031047
0.1290865827 1.6989914151 -0.3917861345 0.0392339559 0.0016768847 0.0050068984
0.0751129669 1.6515745888 -0.4389339756 0.0393176436 0.0004745186 0.0040003483
0.0150502491 0.0000000000 -0.2042070003 0.0390323351 -0.0018587248 0.0057666735
-0.4618003312 1.6209454940 -0.0752585338 0.0373325768 0.0002997899 0.0050871196
-0.0887720832 1.7316702943 0.0946935289 0.0389615712 0.0018479386 0.0059126604
0.0251142523 0.5598406276 0.0533620313 0.0384252664 -0.0003488606 0.0074220823
-0.0094890264 0.3012008786 0.0140866600 0.0372480360 -0.0001789963 0.0060816957
0.3616680805 0.0204460955 0.0089525543 0.0390379150 0.0018587248 0.0057711177
-0.2577258095 0.0204460955 0.2966456604 0.0390304113 0.0018587285 0.0057731084
-0.1862074159 0.6866133619 0.3099053214 0.0392184801 0.0001393717 0.0039303427
0.1239877521 0.0000000000 -0.0644419972 0.0390343927 -0.0018587304 0.0057691140
-0.2250894749 1.6283319954 -0.3821651852 0.0377834727 0.0004358717 0.0044672423
0.3397190520 1.6089860058 0.4089832989 0.0393668909 0.0016002192 0.0066538556
0.4655666451 1.6508417134 0.0884355962 0.0399571473 0.0015936003 0.0059465173
0.4581136344 1.5504054200 0.1669066809 0.0392879373 -0.0018396746 0.0057967404
-0.2604314934 0.6537876817 0.3105515797 0.0388139745 0.0000552955 0.0076032310
0.0123709463 0.5114832586 0.0478805744 0.0380614541 -0.0003405111 0.0072453258
0.3423148883 0.0000000000 -0.1178518473 0.0390372217 -0.0018587267 0.0057690433
0.2521837652 0.0000000000 0.1869331723 0.0390371511 -0.0018587229 0.0057732813
0.1844523732 1.6052824893 -0.4178757984 0.0395559726 -0.0000170000 0.0039869803
-0.2185430013 0.0204460955 -0.0538771930 0.0390297515 0.0018587248 0.0057680378
-0.2736431376 0.0000000000 -0.0536235945 0.0390289057 -0.0018587229 0.0057679560
0.2113928698 0.0204460955 -0.0676165695 0.0390355935 0.0018587285 0.0057694244
-0.0856630071 0.0204460955 0.4020110819 0.0390303258 0.0018584162 0.0057975378
-0.4799220997 1.6292956236 -0.0063390638 0.0372830155 0.0005099256 0.0054184857
-0.0129430820 0.0000000000 -0.2461101150 0.0390317831 -0.0018587229 0.0057659578
-0.4159661368 1.5844144793 -0.1590161572 0.0375098817 -0.0003373234 0.0047703947
-0.3541601887 0.0204460955 -0.2011080637 0.0388703091 0.0018438586 0.0056877255
0.1483063883 1.7107427248 -0.3437580499 0.0391781678 0.0018418493 0.0055839411
0.0670939971 0.8433786354 -0.0349428372 0.0400849484 -0.0006281951 0.0044320118
-0.2128071708 1.6927608374 -0.2930650658 0.0386008630 0.0017394720 0.0052838612
-0.2671110432 1.5483270483 0.2985857402 0.0390334838 -0.0018587360 0.0057698779
-0.0719168871 1.7413828253 -0.0342606588 0.0389567701 0.0018448605 0.0056046790
0.0699478389 0.0204460955 0.3912793613 0.0390332217 0.0018585018 0.0057915954
-0.0621944026 1.7371902308 -0.0589381834 0.0389614522 0.0017151598 0.0050809653
-0.2387787920 1.5808522044 0.4346969090 0.0387863556 -0.0000240595 0.0076095395
-0.4274992848 1.6506250276 0.2694929873 0.0385534671 0.0017495111 0.0061671456
0.2144047209 1.6571673599 0.3334282178 0.0392923054 0.0017686839 0.0062789467
0.2484836651 0.0204460955 0.2115182713 0.0390370544 0.0018587211 0.0057737144
0.0409941807 0.0000000000 0.1422350634 0.0390340414 -0.0018587267 0.0057719151
0.1506292971 0.0000000000 -0.3331171434 0.0390342143 -0.0018586486 0.0057594709
0.0715728778 1.5483270483 0.0631364118 0.0390334838 -0.0018587360 0.0057698779
0.0979157221 0.0204460973 -0.1984901735 0.0390335935 0.0018587267 0.0057670564
0.4546809450 0.0204460955 0.0913749696 0.0390664838 0.0018583512 0.0057737255
-0.1512274234 1.6532775609 0.4042474869 0.0389176678 0.0016010743 0.0067028667
0.2056635058 1.7220881145 -0.0942097855 0.0393033035 0.0017984460 0.0061104058
-0.2426715408 1.5483270483 0.1145151914 0.0390334838 -0.0018587360 0.0057698779
0.2971768407 1.5353158967 -0.0473582826 0.0395336585 -0.0016282601 0.0057194281
0.1731834166 1.7132765909 -0.2926308986 0.0392616083 0.0017893270 0.0053326121
-0.0620243208 1.5353158967 -0.2497270144 0.0389318630 -0.0016295650 0.0053163947
0.1348606158 0.6850504996 0.0026276922 0.0391023593 0.0001233810 0.0076178908
0.0796331525 0.1207376436 -0.0224036855 0.0403910562 -0.0000616766 0.0045244059
