-0.1301379072 1.0125039050 0.0986992019 0.0043566959 -0.0022415939 0.0134873973
-0.4094827682 0.1310105936 -0.3746455999 0.0042697967 0.0004170807 0.0112801517
-0.4902094537 1.5973471040 -0.3331384014 0.0029934320 0.0002386683 0.0151160379
0.0038086664 1.0132969373 -0.0933235482 0.0044245491 0.0022420896 0.0135084038
0.3862497176 0.4429608627 0.2443116250 0.0065927225 0.0001656560 0.0130115344
0.2865387830 1.0286062660 -0.2977981010 0.0045259970 -0.0022376326 0.0133253033
0.1133712914 1.0111862452 0.0437213753 0.0044889570 -0.0022418159 0.0134795667
0.3579482415 1.7949500319 -0.4260499293 0.0039003882 -0.0016512351 0.0120854560
0.2339342438 1.0277158929 0.3072426162 0.0043406691 0.0022389941 0.0133426827
-0.4099528372 0.1753314412 -0.3628967721 0.0034217730 0.0004981659 0.0115292616
-0.3670217398 0.4239962585 -0.2830530328 0.0041477372 -0.0001713400 0.0156125013
-0.0598041474 1.8332855789 -0.4165385680 0.0044497120 -0.0020231290 0.0143679771
0.3723797247 1.0285573220 -0.1004151746 0.0043056771 0.0022393777 0.0134836693
-0.3643300829 0.6826143014 -0.3062159872 0.0026149435 0.0001305451 0.0122095769
0.3724027589 0.9761257826 0.2515756770 0.0063296382 0.0000000000 0.0146284594
0.3719285491 1.0294635088 0.2337765104 0.0045604081 -0.0022376819 0.0135210076
-0.2363582137 1.0238597764 0.2195447578 0.0045416559 0.0022380139 0.0133493940
-0.3959640081 1.8284516719 -0.4025309823 0.0033917853 0.0018701486 0.0139440079
-0.2652375725 1.8188304110 -0.4115120006 0.0048671808 -0.0020492272 0.0142201670
-0.1874590896 1.0171291650 0.0999877106 0.0045327643 0.0022399004 0.0133998095
0.0600911586 1.5524576914 -0.4252773628 0.0044966036 -0.0006074690 0.0112877334
-0.3492803976 0.8491947635 0.2083289421 0.0035492742 0.0000263921 0.0113942371
-0.4542172355 1.7725622101 -0.3912033827 0.0026467010 0.0012774324 0.0135632718
-0.2142908384 1.0314698102 -0.3535052049 0.0044803458 0.0022407550 0.0135294708
0.2787079022 0.9876371803 -0.3288832004 0.0057909242 -0.0000129448 0.0116674690
-0.3166546179 1.0251521074 -0.0846847792 0.0045720497 0.0022377896 0.0134901855
-0.3500006644 0.4871760432 -0.2794156594 0.0049820692 -0.0002050311 0.0155856763
-0.0022074430 1.0317681287 0.4463592314 0.0044210499 0.0022193448 0.0133904850
0.1655061541 1.0228418057 0.2688221865 0.0043483898 0.0022382270 0.0133193300
-0.2537974173 1.0249568786 0.2938359832 0.0043204567 -0.0022374801 0.0135631080
0.3871894116 1.2366547714 -0.3230653816 0.0053192222 -0.0003533167 0.0114780543
0.1798910889 1.0159401975 0.0698239321 0.0043287898 0.0022406069 0.0134155627
-0.1208614011 1.8483351947 -0.4512952344 0.0044119049 -0.0005842306 0.0113002856
-0.1520438681 1.0177653701 0.2372818202 0.0043534076 -0.0022394203 0.0135466663
-0.0702598525 1.0235690552 0.3174634617 0.0044615959 0.0022380498 0.0132995460
-0.3951005722 1.0297851711 0.0517851103 0.0045410548 0.0022398959 0.0134286107
-0.2046830965 1.8271244992 -0.4351914019 0.0045801943 -0.0019863178 0.0124369714
-0.0327625494 1.0097318157 0.1087395803 0.0043081063 -0.0022142978 0.0132527867
0.3456380265 0.9126644149 -0.3102354000 0.0049762529 0.0000217646 0.0113017459
-0.0197212268 0.9997548021 0.4530884745 0.0042510917 0.0000000000 0.0156791791
0.4131365364 0.2283755705 0.2870297307 0.0064713696 0.0004363757 0.0142401955
-0.1459044027 1.6179733468 -0.4309182652 0.0046148050 0.0007086790 0.0155624335
-0.3763958850 0.5538685490 -0.3010278013 0.0021966493 0.0001695680 0.0133945293
-0.3664862625 1.0285365129 -0.0849753300 0.0045478401 0.0022393822 0.0134715208
0.0349895901 1.8676356330 -0.4514847815 0.0044379134 0.0006835924 0.0113490009
-0.1867113563 1.8324571552 -0.4091615164 0.0046119586 -0.0016815818 0.0148974519
-0.2190114361 1.0239478084 -0.2128446568 0.0045307186 0.0022380027 0.0135517715
0.0765193002 1.0184541485 -0.2654698346 0.0044607996 -0.0022388865 0.0133157949
0.2392301245 1.0187874479 -0.1654982136 0.0045363622 -0.0022386622 0.0133635501
0.1176796288 1.0159377323 0.1592391427 0.0043745957 0.0022406294 0.0133584448
0.3731624882 0.9873507030 -0.2185185370 0.0025273826 -0.0000186086 0.0146356888
0.2349786044 1.0277297215 -0.2789646184 0.0043456017 0.0022389919 0.0135504369
0.4275548078 1.0317410211 -0.0691344786 0.0043297453 0.0022409456 0.0134645785
0.4393132876 0.0831848645 -0.3686275526 0.0064022311 0.0005571724 0.0125916117
0.0565287669 1.0290056241 -0.4070166666 0.0044405916 -0.0022377358 0.0132908406
0.0955994097 1.0231057625 -0.3365041871 0.0044639332 -0.0022373993 0.0132901071
-0.0170860463 1.0130179227 -0.0733801375 0.0044416504 0.0022422219 0.0134995481
-0.3987555718 1.8151002480 -0.3865210676 0.0039745018 0.0012659591 0.0152263437
-0.0795733650 1.0263991236 0.4429479941 0.0040875778 0.0013986889 0.0151589032
0.3690370764 1.0238096009 0.0649214789 0.0045850169 -0.0022372916 0.0134635668
-0.3208862688 0.8073918461 -0.3055262509 0.0060841083 0.0000217018 0.0119361969
0.1004600541 1.0191939233 0.2439561976 0.0043733127 0.0022389784 0.0133199558
-0.3243596282 1.8078003762 -0.4320649619 0.0047554350 -0.0016354326 0.0120164386
0.3091109165 1.0308624915 0.2994630077 0.0043444016 0.0022404409 0.0133746960
-0.4224992845 0.9777201983 -0.0778079167 0.0066281609 -0.0000002826 0.0138535354
-0.4071495669 0.2709917663 0.2704485548 0.0022263634 0.0003275526 0.0135016185
-0.1738004128 1.8487815117 -0.4015254023 0.0045060380 -0.0003226201 0.0156247261
0.1655074192 1.8623821061 -0.4023758665 0.0043923564 0.0005152716 0.0156027753
-0.4644279849 1.4572487304 -0.3373910004 0.0024785440 -0.0007265227 0.0126553645
-0.3556077502 0.7324937619 0.2111592147 0.0031964443 -0.0000153629 0.0116406508
-0.2129809150 1.5162020323 -0.3940494353 0.0046967807 0.0005614611 0.0155988028
-0.4662021947 1.7514762344 -0.3961926095 0.0025435552 0.0008198775 0.0126816467
0.3785393665 0.9937734807 0.2408366236 0.0063453802 0.0000000000 0.0146001517
-0.2975335274 1.6287416139 -0.4121712399 0.0048910584 0.0008149764 0.0154796077
-0.0788403732 1.0299192714 -0.3828914283 0.0044520830 0.0022400237 0.0135555623
0.4031172182 0.0962581958 0.3193943283 0.0034048064 0.0001569282 0.0154108797
0.3311806335 0.9601927070 -0.2636522436 0.0034538536 0.0000507991 0.0154345173
-0.4270764215 0.9753070805 0.0720468456 0.0066441025 0.0000096251 0.0131399059
-0.3636613622 1.2909358544 -0.3118916641 0.0064953526 0.0004732632 0.0127930875
0.1435844917 1.0165273217 0.2168785151 0.0044853546 -0.0022403871 0.0135350448
0.3178073731 0.7988259974 -0.2787130187 0.0024184631 -0.0000614156 0.0144372950
0.1203515532 1.0136552919 -0.0382447471 0.0043596613 0.0022419191 0.0134712000
0.3427566521 0.4607161344 0.2294791596 0.0029212968 -0.0002897971 0.0118223986
0.4265015153 0.9956295944 -0.0972015864 0.0022552408 -0.0000136379 0.0139949886
-0.3868314338 1.2382619210 -0.3233152698 0.0035006330 -0.0003658151 0.0114808761
-0.1472012871 0.9591385239 0.4224922009 0.0038903235 -0.0016054157 0.0148956709
-0.4348825723 1.4802982229 -0.3538289555 0.0055060058 -0.0000030012 0.0114854834
0.0587022406 1.0104236066 0.0536754960 0.0044712792 -0.0022422780 0.0134794120
0.3800325407 1.5477820495 -0.3660155430 0.0037473360 0.0005498151 0.0155092814
0.3238136443 0.7254172561 0.2152533625 0.0027526777 -0.0000861724 0.0120033233
0.3533004609 0.9086344260 0.2120610028 0.0056465505 0.0000511467 0.0116003964
-0.3370703654 0.4349495888 0.2521520389 0.0066290402 -0.0002177179 0.0134809821
0.0500731280 1.0119128105 -0.1252938526 0.0044237708 -0.0022413696 0.0133578056
-0.2620215977 1.0203597535 -0.0013129067 0.0045650333 0.0022386711 0.0134563060
0.3806918159 1.0243083522 -0.2101806392 0.0061909755 0.0007940148 0.0123825722
0.2391583504 1.0206639602 -0.1208552573 0.0043039454 0.0022386554 0.0135145498
0.3713469003 1.0245022801 -0.2265342253 0.0061274178 0.0007948604 0.0123088220
-0.1141136256 1.0282493514 0.4262575825 0.0047877129 -0.0013880410 0.0123268496
0.3655613550 0.7604617681 -0.2838992531 0.0065902349 0.0000330518 0.0139567979
0.1554828814 1.0146677178 -0.0281105653 0.0043424703 0.0022413471 0.0134622457
0.1827797197 1.0182105230 -0.1371123505 0.0043238572 0.0022392633 0.0135263978
0.3490519353 1.6329629983 -0.4021114656 0.0039363650 0.0011614337 0.0149853986
0.4705729099 1.5478906169 -0.3678314068 0.0046362040 -0.0004544751 0.0112971139
0.4383320429 1.4279703902 -0.2984781853 0.0050797127 0.0000902077 0.0155528398
0.0113540097 1.0114801157 -0.1189012219 0.0044310272 -0.0022418586 0.0133712416
-0.3627006191 0.5535872397 0.2632884831 0.0034402246 0.0002201674 0.0154048503
0.2886407137 1.0228626170 -0.2047618511 0.0045527412 -0.0022373365 0.0133475636
-0.1906915107 1.0165193139 -0.0185247741 0.0045336840 0.0022402077 0.0134643968
-0.4561522428 1.5305020844 -0.3643773155 0.0049043935 -0.0002626379 0.0113080445
-0.3612827429 1.8421130561 -0.4267556138 0.0035819402 0.0016379561 0.0122746935
-0.4261514444 1.0077314024 -0.0743989898 0.0022311411 0.0000000090 0.0129808423
-0.3791047912 1.5643959654 -0.3709624653 0.0051020134 0.0005763933 0.0155019869
0.4358192560 0.1055925466 0.2866506881 0.0065506513 0.0002979799 0.0128178219
0.4210689861 0.9798081658 -0.1189317772 0.0023069438 0.0000204233 0.0141701441
0.3708170015 0.1929828179 0.2873098601 0.0022940124 -0.0002655427 0.0140296016
0.2518380771 1.8207707905 -0.4293109115 0.0041263853 -0.0021181302 0.0129228206
-0.4307324148 1.0186217223 0.0186881781 0.0066646671 0.0000000000 0.0134583584
-0.3622009773 0.8628937955 -0.2763656837 0.0023618320 -0.0000338055 0.0142288119
0.0892927810 1.0111637246 -0.0598647061 0.0044792063 -0.0022419887 0.0134017587
-0.1101214483 1.0126944794 0.1293020477 0.0043665386 -0.0022415625 0.0135010779
-0.3349733291 0.5573875663 0.2205848207 0.0058872937 -0.0002181284 0.0118050484
-0.2029725655 1.0259379529 -0.3181280081 0.0043401689 -0.0022375855 0.0133130067
-0.3441555317 1.0144323064 0.2751200874 0.0062525951 -0.0000191200 0.0121524770
-0.3864469652 0.1204697703 -0.3626763176 0.0063453151 -0.0001510827 0.0123273005
-0.3896448361 0.0787464307 0.2922208595 0.0064880110 -0.0004966832 0.0129350095
-0.1652112742 1.4686459485 -0.3906753322 0.0044754850 -0.0021844065 0.0138785009
-0.4223898625 1.6236842760 -0.3734437302 0.0051629512 0.0007711197 0.0154149957
0.4936578970 1.5774262071 -0.3368478563 0.0064087338 -0.0000963291 0.0143812337
-0.1416161567 1.0152397147 -0.1498209456 0.0043595536 -0.0022409030 0.0133722129
-0.2536872417 1.0189062841 0.1614362563 0.0043035596 -0.0022385366 0.0135128496
-0.2230120407 1.5536735602 -0.4028897810 0.0047304560 0.0006017581 0.0155828545
0.2578361004 1.0279724565 0.2919742058 0.0043360035 0.0022391198 0.0133498538
-0.2774775027 1.0285523939 0.2752741601 0.0045154522 0.0022393665 0.0133569532
0.3964843581 0.9624314050 0.2021185573 0.0024629052 0.0003971756 0.0124682961
0.4184128574 0.9571731587 0.1311915071 0.0027926897 -0.0000725525 0.0129243548
0.3670258805 0.3686402529 -0.2885267719 0.0041464946 -0.0002631785 0.0156176805
-0.0360119775 1.8840137920 -0.4169945012 0.0044312358 0.0019461689 0.0145527397
-0.0841324384 1.8502629793 -0.4029397861 0.0044674279 -0.0005949571 0.0155595533
0.3639064591 1.0283996737 0.1446339598 0.0043054169 0.0022393216 0.0134038381
0.3258711485 1.0577305200 -0.2771691217 0.0024825927 0.0002253197 0.0144698377
-0.3268235069 1.0722244326 -0.3022919636 0.0063225254 0.0001443041 0.0123171618
-0.0805593763 1.0175032616 -0.1886479203 0.0044718490 0.0022396289 0.0135579669
0.1793993203 1.5680293350 -0.4119655045 0.0041892253 0.0006315574 0.0155823498
-0.3267981780 0.6776359603 0.2156419381 0.0060247250 -0.0001336854 0.0118919700
-0.3592337266 0.7605488423 -0.2741427613 0.0025825960 -0.0000142054 0.0147132815
-0.1193101019 1.0115205719 0.0627198993 0.0043567610 -0.0022418832 0.0134691207
-0.3641653152 0.7674249175 0.2386638094 0.0023181973 0.0000590110 0.0140633218
0.4207812078 1.4717791985 -0.3178979353 0.0025118515 0.0007392500 0.0143305670
0.3874873555 1.3761993575 -0.3129347910 0.0023095884 0.0006724533 0.0134874960
-0.4304368328 1.6046988627 -0.3619718287 0.0051123204 0.0006940676 0.0154623763
-0.3514710422 0.3661971496 0.2762165413 0.0059559275 -0.0000052937 0.0150347015
0.2024311329 1.0264199349 0.3071308322 0.0043461288 0.0022383997 0.0133254200
-0.4409626722 0.0766959182 -0.3691307878 0.0024806323 0.0004804029 0.0126120663
-0.0914229655 1.6181906183 -0.4451955927 0.0042914851 -0.0006583488 0.0113054784
0.4166859138 1.3780366472 -0.2909875350 0.0047110467 0.0001980932 0.0156401809
0.3571036968 0.7153380388 0.2522562591 0.0056394758 0.0000973587 0.0152896793
-0.2521047031 0.9784744186 -0.3417941617 0.0031074949 -0.0000048966 0.0116314833
-0.0722418434 1.0278704614 -0.3543336958 0.0044530407 0.0022390614 0.0135728004
0.0355545280 1.0128621901 0.0553546081 0.0044308118 0.0022423857 0.0134208406
0.1737120220 1.4917753934 -0.3916756073 0.0042157407 0.0005202333 0.0156156236
-0.3484877758 0.3368149301 0.2557035382 0.0065420984 -0.0003245155 0.0129467946
-0.4554711649 1.5782438146 -0.3679356608 0.0057215188 -0.0001616768 0.0116601297
-0.4561947873 1.6191106315 -0.3398185973 0.0060764168 0.0003822883 0.0148438602
0.0860469866 1.6326853519 -0.4494393271 0.0044457350 0.0018232817 0.0127011884
0.3655613550 0.7688177385 0.2230453101 0.0065915449 0.0000347543 0.0128999793
-0.4122091973 1.0286786906 -0.0327272253 0.0042700233 -0.0022376528 0.0134330071
0.1474822106 1.0117305176 0.0245806398 0.0045265084 -0.0022406854 0.0134622232
0.3432602642 0.5968930506 -0.2728658829 0.0038426692 -0.0001508853 0.0155802974
-0.3589628566 0.9479624108 -0.2681206091 0.0028605205 -0.0000475668 0.0150159045
0.0687348939 1.0303482696 0.4193619633 0.0044046934 0.0022402144 0.0133356888
0.3209822076 1.0294678895 -0.2762785759 0.0045353035 -0.0022377963 0.0133372163
0.4398553372 1.0114530081 0.0688050642 0.0066399506 0.0000285769 0.0137778337
-0.1887827048 0.9772385617 -0.3821136960 0.0034008361 0.0000114868 0.0114508412
0.1283168596 1.8331646903 -0.4155127263 0.0043340812 -0.0019449509 0.0145014943
-0.4278646289 1.3403561988 -0.3195927064 0.0024376392 -0.0006883545 0.0127708787
0.1816907106 1.0170887761 0.1257669857 0.0043283546 0.0022399116 0.0133806289
-0.2354361615 1.0212224716 0.1549152227 0.0045471559 0.0022385366 0.0133717216
0.3853469538 0.9817557321 0.2289233533 0.0063854506 0.0000000000 0.0145297997
-0.3634399835 0.8236686964 0.2238570991 0.0022750674 0.0000157352 0.0128544761
0.2498318272 1.0264436196 0.2688908113 0.0043253444 0.0022383997 0.0133425504
0.3499172195 0.6356549265 0.2602631164 0.0047128927 0.0001361797 0.0156118777
-0.3225800125 0.6766279847 -0.2796038718 0.0063446332 -0.0001319134 0.0145320585
0.1076643639 1.5727159275 -0.4303117698 0.0045597755 -0.0006451146 0.0113007029
-0.3382193882 0.4700515349 -0.2893258628 0.0061378369 -0.0002675390 0.0147979241
0.2910441975 1.0244290345 0.1664717736 0.0042914896 0.0022378793 0.0133718943
0.3475767978 0.8184422795 0.2548622460 0.0051130875 -0.0000068257 0.0155604551
0.3931705625 0.1518083715 0.2621175029 0.0038226901 -0.0004398974 0.0113385100
-0.1316147899 0.9957260446 0.4291723631 0.0051613586 0.0000000000 0.0113278217
-0.3158131866 1.0200590393 0.0545490190 0.0042716719 -0.0022376528 0.0134606890
-0.3351159510 0.6503053928 0.2577282195 0.0053627200 0.0000514832 0.0154538437
-0.3595236268 0.9062199377 -0.2693241207 0.0027009814 -0.0000450702 0.0148731952
-0.2178960731 0.9573338867 0.3816251081 0.0053713222 -0.0000641050 0.0119116733
-0.2120339647 1.5779364587 -0.4116244687 0.0047154633 0.0006374702 0.0155751472
0.3006153704 1.0199415714 0.1362678664 0.0045647462 -0.0022377694 0.0135063087
0.3151573030 1.0213838860 -0.1318765036 0.0045712489 -0.0022372490 0.0133753397
-0.1194407457 1.0223374422 -0.3172214804 0.0043679607 -0.0022373141 0.0132947077
-0.4408692681 0.0656281840 0.3169109751 0.0027633435 0.0002662694 0.0146985624
0.4037120789 0.2966229262 -0.3319475519 0.0064969968 0.0003822591 0.0127649076
0.0448096643 1.0187318644 0.3045975436 0.0044418052 -0.0022387407 0.0135798549
-0.3477021007 1.0304588894 -0.1995274263 0.0045219617 0.0022402346 0.0134984871
-0.3230551801 0.6198899025 0.2290201288 0.0065175793 -0.0001692248 0.0127354896
-0.4294583268 1.5145996762 -0.3468187440 0.0034496074 -0.0005293447 0.0115059717
0.3265493845 1.0814616018 -0.3011817865 0.0024570441 0.0001633367 0.0125022541
0.2807898785 0.9702158585 0.3542581915 0.0058428605 -0.0000240526 0.0151782318
0.3350853867 1.1528984752 -0.2879930756 0.0023258148 0.0003564301 0.0140053135
0.0620920363 1.0103251017 -0.0087872117 0.0044782934 -0.0022422915 0.0134221999
-0.4233872283 1.0280935515 -0.0186052985 0.0055065800 -0.0017068030 0.0135170621
0.1447912132 1.8343107365 -0.4121083663 0.0042998069 -0.0017463014 0.0147903246
0.4967423712 1.6046538194 -0.3648758963 0.0064632518 -0.0002986505 0.0125893193
0.4219345103 1.4420921892 -0.3459368947 0.0032354694 0.0000764083 0.0115730488
0.1520041835 1.0199280187 0.4272545042 0.0051190474 0.0000076870 0.0155745102
0.4644417799 1.4496749112 -0.3313200387 0.0065225253 -0.0006664844 0.0132124965
0.0450449860 1.0101141287 -0.0832694623 0.0043401622 -0.0022389112 0.0133559595
-0.1352807672 1.8794519215 -0.4121934531 0.0043884512 0.0016967315 0.0148480862
-0.3411421093 0.7782999710 -0.3148552160 0.0041861365 0.0000837679 0.0112462857
0.3364932678 0.4493493437 0.2437310550 0.0023105754 -0.0002478268 0.0129476918
0.0765576166 1.0128438439 -0.1366760107 0.0044657186 -0.0022406608 0.0133502307
0.3652666635 0.3928693324 0.2309923062 0.0044313883 -0.0002242902 0.0112378450
0.3083997880 1.0257333457 0.1740328813 0.0042933536 0.0022380476 0.0133749584
-0.3757810027 0.9569337771 0.2216367113 0.0036425483 -0.0019745439 0.0138966587
-0.0248703562 1.0262095765 -0.4169526094 0.0045352115 -0.0016393558 0.0149522549
-0.3220147225 0.9068746257 -0.2690249633 0.0061219469 0.0000099705 0.0148867546
-0.1912759499 1.8533377701 -0.4509245585 0.0043489752 0.0000049146 0.0112067828
0.0371565298 1.0176752857 -0.2067748100 0.0044055211 0.0022395482 0.0135669863
-0.0274863966 1.0224026082 -0.2803058620 0.0044398828 0.0022383616 0.0135886679
0.4973003353 1.5859742569 -0.3546385866 0.0065904547 -0.0003273687 0.0130528564
-0.4115809328 0.9987386796 -0.1214814268 0.0065444536 -0.0000153023 0.0141698659
-0.4816062644 1.6331847874 -0.3358728405 0.0038193973 0.0005169427 0.0154947619
0.3957642618 0.1096563926 0.2715045503 0.0034081687 -0.0005140491 0.0115589533
-0.3369151465 1.0256909739 0.1985461120 0.0042892039 -0.0022375990 0.0135219206
-0.3944962638 0.3115888594 -0.3032942238 0.0028141022 0.0000262059 0.0149801767
0.4331234921 0.9995769594 -0.0816001839 0.0066155032 0.0000156859 0.0129717915
0.3413614355 0.8656972364 -0.2608946670 0.0044283848 -0.0000523356 0.0156831000
-0.2594575744 1.0213484947 -0.0811932890 0.0045584543 0.0022385545 0.0134934738
-0.3485033495 1.0632009729 -0.3133353110 0.0044336134 -0.0000909883 0.0112277691
0.4383124316 1.0221335865 -0.0446354846 0.0065524771 0.0005155071 0.0131530033
0.2922646018 1.0273784191 0.3005436300 0.0045387399 -0.0022376326 0.0135515270
-0.3802104844 1.2824091609 -0.2805397660 0.0049427614 0.0003311842 0.0155724645
0.3279707509 0.7722765515 0.2523371873 0.0032363913 -0.0000084923 0.0153099321
-0.3215345573 1.0281887008 0.2064700381 0.0045340563 0.0022391915 0.0133752141
0.3202708055 0.6473951634 0.2322830109 0.0021989350 -0.0001130580 0.0133056450
-0.4355784366 1.3677279739 -0.3069106178 0.0023974947 -0.0005141590 0.0142239107
0.3468592698 0.4245822881 -0.2889097690 0.0030379235 -0.0003017191 0.0151758048
0.2409914994 1.0192320535 -0.0664582496 0.0042966801 0.0022390256 0.0134842503
0.0599116359 1.8862849385 -0.4256144956 0.0044421461 0.0022256433 0.0135685812
-0.3509774948 0.4670408177 -0.3285771118 0.0050286310 0.0001412894 0.0113243651
0.3904037444 1.0290747626 -0.0519111400 0.0043061862 0.0022396379 0.0134659781
-0.4389461043 0.0790632166 0.2914260304 0.0023494928 0.0002689409 0.0126687692
-0.3631001455 1.2240248456 -0.3222101240 0.0050712675 -0.0000037168 0.0113179409
-0.0530472561 1.0154758102 -0.1520430808 0.0044642001 0.0022408985 0.0135307247
-0.3913671231 0.9773940879 0.1943575844 0.0064463390 0.0000132499 0.0124765506
0.3436383310 0.6546029656 -0.2691936654 0.0041650179 -0.0001140181 0.0156381890
-0.3209672485 0.9502333531 0.2509516563 0.0061388418 0.0000247434 0.0148750458
0.4339009529 0.0691927830 0.2814184010 0.0058390383 -0.0000362056 0.0117612949
-0.0860655885 1.4811760706 -0.3960699062 0.0045347068 0.0004838101 0.0156313387
0.1061500038 1.0113176067 0.0803856721 0.0044834053 -0.0022419438 0.0134846338
-0.3465145374 1.0636200455 -0.2641943783 0.0045744767 0.0000995973 0.0156564993
0.1373694794 1.0272543117 0.3542381361 0.0043719108 0.0022387070 0.0133178675
-0.4130897838 1.2850536525 -0.3062280011 0.0022722456 -0.0005963141 0.0132888824
-0.1063842510 1.4836739343 -0.4063015679 0.0043017001 -0.0005504498 0.0112738106
0.3018295278 1.0189841841 -0.0206221738 0.0045648000 -0.0022385096 0.0134320448
-0.4898917616 1.5416981857 -0.3417564780 0.0022638340 -0.0004775677 0.0135028813
-0.2315976555 1.8654176049 -0.4435297103 0.0041678980 0.0012192985 0.0116417633
-0.3565763664 0.8305612695 0.2503522624 0.0030234646 -0.0000190348 0.0151881507
0.1434584597 1.0300662403 0.3956286899 0.0043806206 0.0022399990 0.0133385824
0.0822433313 1.0196166925 -0.2903286703 0.0044641171 -0.0022379937 0.0133011005
-0.0180818083 1.5169591260 -0.4075777442 0.0044516209 0.0005426237 0.0156201861
0.4773179668 1.7267464858 -0.3711892857 0.0062185407 0.0009228125 0.0143265452
0.1375996195 1.0294467372 -0.3615545034 0.0043874710 0.0022397882 0.0135567601
0.1495141056 1.8543916795 -0.4520190273 0.0044728135 -0.0000875632 0.0112149364
0.0774231161 1.0106835931 0.0540987407 0.0044779165 -0.0022421771 0.0134765677
0.3741340832 0.5617010560 -0.3073809605 0.0064991232 0.0001933424 0.0126539985
-0.3478960981 1.0223796771 -0.0127815917 0.0042633636 -0.0022371930 0.0134332314
0.2110178243 1.0146657999 0.0074674972 0.0045295410 -0.0022406428 0.0134396623
0.3390999388 1.0896764218 -0.3117680703 0.0034361826 0.0000286509 0.0114608745
-0.2777505306 1.0150359958 -0.3192682357 0.0058054257 0.0000000000 0.0152112343
-0.3634103434 1.1785208580 -0.2701114377 0.0045070362 0.0001625852 0.0156640607
0.2297192949 1.0179540289 -0.0247920973 0.0042995983 0.0022393800 0.0134651235
-0.3383372307 1.1824615835 -0.2994186665 0.0065536121 0.0003552996 0.0130773038
-0.2413681284 1.0207952544 -0.2169532657 0.0043083127 -0.0022372647 0.0133338023
-0.3202029680 0.6438873390 0.2373613285 0.0065921438 -0.0001103775 0.0135659321
0.2490641731 1.0184738629 -0.1390323314 0.0045397627 -0.0022388865 0.0133752881
0.4098226735 1.0039998711 0.1734013979 0.0023652370 -0.0000261700 0.0125635036
-0.3295020889 0.5153599864 0.2443514643 0.0066320280 -0.0001870438 0.0134000293
-0.4219801683 1.5589502222 -0.3524681365 0.0051096108 0.0005403335 0.0155107349
-0.0289255865 1.0260930686 -0.3343001244 0.0044389632 0.0022382607 0.0135894261
-0.3734705978 1.0247615825 0.0307516452 0.0042665622 -0.0022374352 0.0134525847
0.2168047738 1.0278349332 -0.2951908468 0.0043519787 0.0022390682 0.0135533731
0.3725837845 1.5206308298 -0.3708586219 0.0050774270 -0.0005304281 0.0113668289
0.3332540546 0.9601122723 0.2960278615 0.0034145660 0.0018089574 0.0125919526
0.0407074751 1.5573986584 -0.4174521121 0.0043780994 0.0005964083 0.0156053638
0.3767682028 0.5017163675 -0.3157201593 0.0063398443 0.0002498164 0.0123678217
-0.3912960690 1.0272842950 -0.1699044906 0.0027893431 0.0012988336 0.0127005537
0.1592091078 1.0124081389 -0.0093835505 0.0045065337 -0.0022411071 0.0134038067
0.0424983712 1.5850583509 -0.4250927101 0.0043800913 0.0006600872 0.0155867260
-0.3928602277 1.2050020559 -0.3063048042 0.0024036610 -0.0004628329 0.0127398569
-0.3284660120 0.5301262046 -0.2992589659 0.0066422206 -0.0001918283 0.0137025626
0.0386824709 1.0121111886 0.0208568023 0.0043855711 0.0022426145 0.0134314953
0.1202779488 1.5790961966 -0.4207953773 0.0042801373 0.0006598135 0.0155826571
0.2611237305 1.8280795605 -0.4416574397 0.0043264951 -0.0012896482 0.0116564196
-0.3846221358 1.3343487275 -0.3289017170 0.0056262731 0.0001428147 0.0116130317
-0.3649400036 0.9490320643 -0.2854164888 0.0022182928 -0.0000952524 0.0132927069
-0.3893151638 1.0315159481 -0.1522753428 0.0045199810 0.0022407617 0.0134799346
-0.3415705602 0.3928007076 0.2507800965 0.0065861390 -0.0002755019 0.0130798205
-0.4237225129 0.0780851189 0.3256980634 0.0039841247 0.0004971834 0.0155696674
0.3163102287 1.0208355043 0.1421394316 0.0045730164 -0.0022372535 0.0135091395
0.4110745146 1.4445577435 -0.3193103002 0.0023666815 0.0007099262 0.0137628028
-0.3606864445 0.8391421087 0.2180056341 0.0025142516 0.0000091069 0.0123722653
0.4377070981 0.0388074913 0.3300580679 0.0055753462 0.0005654179 0.0152603734
-0.1910978672 1.0144754992 0.0634237198 0.0043356042 -0.0022411475 0.0134645942
-0.3519836916 0.7879672354 -0.2660945596 0.0034085658 -0.0000485964 0.0154362736
-0.4301913253 1.0074733337 -0.0181618773 0.0066605690 0.0000000000 0.0136218925
0.4105776452 0.2521567112 0.2794533431 0.0065299970 0.0003904195 0.0140004303
-0.2104961577 1.0175985499 0.0626919057 0.0045452583 0.0022395975 0.0134175410
0.3533000504 0.5624288169 0.2161587956 0.0047634428 -0.0001365610 0.0112366292
0.0328949495 1.0192627882 0.3174427895 0.0044362446 -0.0022383706 0.0135868892
-0.2710798835 1.5985076629 -0.4167349274 0.0040293340 -0.0006868269 0.0113479175
-0.0808774542 1.0135090072 -0.0681045118 0.0044693053 0.0022419864 0.0134947479
-0.0198334572 1.0143685065 -0.1366808378 0.0044392346 0.0022415109 0.0135251596
-0.3188993409 0.8814031148 -0.3002715622 0.0062135566 0.0000381481 0.0121560592
-0.4341554955 0.0477370219 -0.3878881851 0.0035225120 0.0005606783 0.0115015775
0.3959498049 1.2432386203 -0.2821347648 0.0058820000 -0.0001788655 0.0151215469
-0.2725225210 1.8673479915 -0.4328500201 0.0039963943 0.0019289936 0.0124494340
0.3647447053 0.8464424582 0.2268101444 0.0065926350 0.0000149658 0.0130217472
-0.0542807152 1.0131397691 0.0897841480 0.0044577871 0.0022421726 0.0133959177
0.1922582557 1.0300332469 0.3733223952 0.0043695802 0.0022400910 0.0133462582
0.1954120411 1.0198564173 -0.2409616530 0.0045171592 -0.0022378210 0.0133238408
-0.2320965100 1.0184950152 -0.0224900233 0.0045562629 0.0022391153 0.0134681696
-0.3419486270 0.9378070071 -0.3109714782 0.0041583291 0.0000035844 0.0112450341
0.3630328912 0.2404603692 -0.3366089210 0.0022855807 -0.0002532730 0.0129308284
0.4389456938 1.0018897262 -0.0480559611 0.0066430258 0.0000110427 0.0131286075
0.3344702307 1.0311947636 -0.2500891782 0.0043461535 0.0022406024 0.0135119972
-0.2300483145 1.5932297695 -0.4131017282 0.0047539949 0.0006521960 0.0155644410
0.0346916058 1.0133025517 0.1881259643 0.0044217229 -0.0022412305 0.0135338941
0.3655613550 0.8270179843 0.2286038803 0.0066320527 0.0000094277 0.0132505167
-0.3874233515 1.0291113159 -0.0110868318 0.0045459918 0.0022396424 0.0134509450
-0.1146938950 1.0220256360 0.2786037851 0.0044858413 0.0022383952 0.0133136483
-0.3704182266 1.0279250871 -0.1585986915 0.0042808753 -0.0022375608 0.0133827980
-0.1742730995 1.0297371175 -0.3795932064 0.0038106470 0.0016399704 0.0121484170
0.3483035672 0.4895464819 -0.2802299808 0.0035773419 -0.0002219663 0.0154922811
-0.1256455251 0.9607853761 -0.4000698087 0.0048567415 0.0017596746 0.0147550791
-0.1806675045 1.0145622302 -0.0711050365 0.0043412299 -0.0022411004 0.0134045850
-0.3460538467 1.0005384561 0.2127076135 0.0041711886 0.0005013757 0.0113686817
0.3598957742 0.3617311483 0.2819601410 0.0033810005 0.0000860580 0.0154192643
-0.3584756392 1.0280928674 0.1201743768 0.0045485915 0.0022391893 0.0134064221
0.0375611300 1.0100217855 -0.0255303895 0.0044878354 -0.0022417150 0.0134261051
-0.3387418601 0.9312940082 0.2600569682 0.0042929453 0.0002262102 0.0156219738
-0.3608364618 0.9836898153 0.2206731263 0.0027700144 0.0001579039 0.0119642937
-0.4417695668 1.5878413909 -0.3514563253 0.0050918927 0.0006257949 0.0154910317
-0.0963745669 1.0216965805 0.2813720926 0.0044776429 0.0022384558 0.0133111764
-0.3455321621 1.0309617478 -0.2174575619 0.0045162822 0.0022404656 0.0135003242
-0.3486129419 0.8117884711 0.2540101040 0.0035919152 -0.0000061976 0.0155173812
-0.1165344282 1.0146786012 0.1138709063 0.0044913840 0.0022413225 0.0133896596
0.3292152347 0.5416942132 0.2323739522 0.0024035892 -0.0002179512 0.0125579722
0.2754220375 0.9651125194 -0.3273985140 0.0031001847 0.0000000000 0.0152499409
0.1881597114 1.0167487699 -0.0713861237 0.0043225787 0.0022401247 0.0134882923
-0.3811519929 0.1683011049 -0.3585656563 0.0060504666 -0.0000324955 0.0119221462
-0.0945825089 1.0251271239 0.3833344256 0.0043881058 -0.0022375249 0.0135976784
-0.1893995565 1.0144190251 -0.0389264194 0.0043383116 -0.0022409501 0.0134043495
-0.2551344843 1.0248679583 0.2190423436 0.0045471963 0.0022377941 0.0133510741
0.0352016443 1.0133171991 -0.0498683145 0.0043951984 0.0022423094 0.0134347320
0.1942270797 1.0271063850 0.3233094176 0.0043522412 0.0022387227 0.0133283337
0.2856599775 0.9557741065 0.3412405110 0.0044760727 -0.0020117611 0.0134483834
-0.2223688013 1.0191581911 0.1158083519 0.0045491142 0.0022390031 0.0133912521
0.0222756587 1.0145505258 -0.1898203563 0.0044350737 -0.0022410735 0.0133512759
0.3971063241 0.3062910810 0.2495053737 0.0062241259 0.0000790036 0.0121323319
-0.3443655469 0.3691185024 0.2604628111 0.0066061384 -0.0002270850 0.0136859212
0.3680123293 1.6250938685 -0.3932085872 0.0037736272 0.0008132021 0.0154249573
0.2497362316 1.5154057834 -0.3972680794 0.0047827109 -0.0005382856 0.0112985383
-0.0098315880 1.8435105988 -0.4484790955 0.0044337727 -0.0010174817 0.0114787227
-0.1572082324 1.0293476177 -0.3480812308 0.0044773849 0.0022397231 0.0135522986
-0.3637219769 0.6260259292 0.2200504223 0.0028307750 0.0000016868 0.0118778252
-0.2906223008 1.0190379866 0.0768351305 0.0042861847 -0.0022384199 0.0134702714
-0.3956068177 0.9661990813 -0.1646739823 0.0023697276 -0.0000018976 0.0125568215
0.3825210956 0.4694210115 -0.3124226911 0.0065344428 0.0002497985 0.0128351766
-0.3546305452 0.8147776256 -0.2674812525 0.0031478749 -0.0000466808 0.0152305539
0.2908997610 1.0266836158 0.3439684475 0.0055340780 0.0013295549 0.0147157040
0.0642213639 1.0234470024 0.3740909578 0.0044523454 -0.0022373477 0.0136024382
-0.3644788329 0.9480184048 0.2313798545 0.0024428072 0.0006232401 0.0132080014
0.3992309121 1.0294617973 0.0562466232 0.0043072293 0.0022397815 0.0134347275
0.1643338213 1.5355392975 -0.4038734910 0.0042214897 0.0005897912 0.0155978225
-0.3756916024 1.5464860915 -0.3668751119 0.0050949477 0.0005543057 0.0155102415
0.3775795813 0.4701165999 -0.2873866475 0.0060333541 0.0000284557 0.0149774020
-0.0620694238 1.0154196098 -0.1995366656 0.0044023740 -0.0022408110 0.0133476399
0.4202921758 0.1827116085 0.2907482902 0.0065170701 0.0004487486 0.0140443297
0.2814479715 1.4679354032 -0.3808996732 0.0046023941 -0.0015037458 0.0125262281
0.1329758825 1.0140733372 -0.0529745421 0.0043548028 0.0022417038 0.0134770231
0.3444968411 0.7672018274 0.2546942774 0.0048038317 0.0000343999 0.0156095068
0.3672261765 0.6439253974 0.2471539810 0.0063861684 0.0001572602 0.0144908351
0.3243052783 0.7529270346 0.2480874975 0.0028114127 -0.0000196741 0.0149614784
-0.4139015728 1.4471778662 -0.3363496882 0.0062953662 0.0004623125 0.0123848063
-0.4048472394 0.1091528321 0.2688683581 0.0047710558 -0.0004356804 0.0113106173
0.0540474594 1.0203435315 0.3390506202 0.0044465022 -0.0022374958 0.0136004621
0.4352775497 0.9970207734 0.0776757768 0.0022061644 -0.0000060137 0.0131359357
-0.2585943426 1.6127867692 -0.4238174916 0.0040414578 -0.0006794696 0.0113430051
-0.3312496352 0.9001918615 0.2574603933 0.0051087741 -0.0000648340 0.0155105914
-0.1149508354 1.6134047672 -0.4423397154 0.0042621254 -0.0006604102 0.0113077506
0.3644371788 0.8429019096 -0.2930296360 0.0065593365 0.0000186131 0.0128979201
0.3944962996 0.2613866936 -0.3036749958 0.0053764881 -0.0001544361 0.0154438350
0.3686606178 0.2576352236 -0.3476107849 0.0029552548 0.0000184135 0.0118017623
-0.4707065998 1.7290228340 -0.3999911910 0.0028036539 0.0003185938 0.0119918814
-0.1681333942 1.6024667346 -0.4331538858 0.0041916657 -0.0006768632 0.0113204285
0.3738301839 0.1743596937 0.2777333149 0.0022778353 -0.0004165132 0.0130892392
0.3700407744 0.1993594577 -0.3311102972 0.0023048690 -0.0004157528 0.0139018379
0.4340685604 1.7064971479 -0.3886886780 0.0025334479 -0.0009933148 0.0128636279
-0.4012520336 1.2476616688 -0.3122282137 0.0024660612 -0.0005454231 0.0125084674
0.3856647490 1.2275182963 -0.2772623195 0.0054152350 -0.0000479100 0.0154351969
0.1395200872 1.4886339315 -0.4044309078 0.0045954742 -0.0005432316 0.0112757553
0.1424010937 1.8292568214 -0.4290542111 0.0043348663 -0.0022089212 0.0133120198
-0.3688517732 1.2284962213 -0.2753133490 0.0048407416 0.0002614221 0.0155961582
-0.1185123546 1.0263262885 0.3439880610 0.0044751149 0.0022383010 0.0133087068
-0.3349868482 0.6846901518 -0.2694447357 0.0051741038 -0.0001204086 0.0155496681
0.4962393086 1.6518573693 -0.3727639196 0.0065057134 0.0000279465 0.0127079468
-0.3444635381 1.0227294049 0.0928238212 0.0042683432 -0.0022372984 0.0134787525
0.3578563761 0.8735887499 0.2144536547 0.0060069239 0.0000355282 0.0118865216
0.0778124881 1.8578220143 -0.4530046192 0.0044426508 -0.0000311048 0.0112071888
0.0467163326 1.0164865918 -0.2284146068 0.0044444834 -0.0022404028 0.0133379700
-0.4007064602 1.3794436378 -0.2935534425 0.0054497785 0.0005615352 0.0152871334
0.2607768761 1.5508004358 -0.4045873223 0.0048101796 -0.0005818104 0.0113145785
-0.1023863157 1.0133738099 -0.0108136514 0.0044879947 0.0022420941 0.0134501240
0.0403813805 1.0244393706 -0.3098355618 0.0044076632 0.0022378726 0.0135959580
0.2604350373 1.0018997887 -0.3421725740 0.0057356502 0.0000014961 0.0116257253
0.3591359776 0.7225064121 -0.2725395326 0.0058770518 -0.0000194430 0.0151009666
-0.0173559607 1.0115975141 0.1512165929 0.0044120641 -0.0022418361 0.0135174501
-0.1834817592 1.0282726929 0.3446752289 0.0044853254 0.0022392521 0.0133316916
0.4008297803 0.2777318255 -0.3091769730 0.0062291931 0.0000749436 0.0147612161
0.3558861861 1.0228447486 0.2698420751 0.0026624071 -0.0006666056 0.0122459888
-0.2525434722 1.4680551950 -0.3804983659 0.0044845605 -0.0022034368 0.0137219810
-0.4164660762 1.7378741327 -0.3862193598 0.0063024700 -0.0011208048 0.0138571670
0.0161331652 1.0117378435 0.0176321019 0.0043934914 0.0022427805 0.0134289023
0.3045000660 1.4702290030 -0.3676084872 0.0039914192 0.0005168350 0.0155819124
0.3925470891 0.3372089497 0.2445506993 0.0060954426 0.0000399022 0.0119697691
-0.3811124272 0.4922396776 0.2448908446 0.0022255671 0.0001806129 0.0132337744
-0.2707930629 1.0199370539 -0.1493477452 0.0042954150 -0.0022377717 0.0133645774
0.0871116336 1.0280374184 -0.3552870120 0.0043999425 0.0022391018 0.0135727152
0.3153875440 0.8297621427 0.2357672560 0.0022836965 -0.0000160178 0.0139318526
-0.3863807023 0.1630480423 -0.3207010351 0.0053910187 -0.0004893102 0.0153739474
-0.3634399835 0.8640102016 0.2300474420 0.0022184610 -0.0000042574 0.0133704722
0.3247214394 0.8369593329 0.2117788389 0.0030250640 0.0000153225 0.0117095986
-0.4615581444 1.6903522761 -0.3997858997 0.0044536643 -0.0005995442 0.0113047112
0.4561293118 1.6783896333 -0.3942907684 0.0034990023 -0.0007968299 0.0115780823
0.1472198038 1.0141399410 -0.1189745594 0.0045028214 -0.0022410309 0.0133908461
0.3558687304 0.9720740941 0.2565229245 0.0057881360 -0.0000354340 0.0151923767
0.3437583987 1.0551561246 -0.2644159790 0.0040675919 0.0001098235 0.0156198384
0.1522686181 1.0257221887 -0.3460696245 0.0044830823 -0.0022375025 0.0132976663
-0.1015976484 1.8846170036 -0.4352695060 0.0043683308 0.0020864400 0.0127168137
-0.3515740646 1.1143051332 -0.3165842457 0.0046386849 -0.0000917218 0.0112259701
-0.2019316122 1.5323119929 -0.3997203546 0.0046838112 0.0005831921 0.0155945118
-0.0484605703 1.0125304653 0.0417909977 0.0044666966 0.0022424507 0.0134203942
0.1982525152 1.0311435608 -0.3617965880 0.0043803604 0.0022405464 0.0135397306
0.0360055825 0.9640652518 -0.4254818690 0.0045849115 -0.0001688905 0.0112408911
0.3721847000 0.3149798371 -0.3459811484 0.0039985880 0.0002177471 0.0113097828
0.3373056399 0.8329431726 -0.2628902891 0.0041036764 -0.0000669963 0.0156306545
0.4494189622 0.0191930530 0.2955839064 0.0062078748 -0.0001572781 0.0121421969
-0.3817570865 1.1367903652 -0.2980090067 0.0023156111 -0.0003463698 0.0130019206
0.1643134227 1.5778567777 -0.4260870298 0.0046547251 -0.0006315350 0.0113061154
-0.3220386831 0.9927323030 0.3038278864 0.0061121267 -0.0000085663 0.0119676606
-0.4983098855 1.5927156845 -0.3512582209 0.0022231759 -0.0002158382 0.0134176734
0.3274111784 1.8459845063 -0.3958956570 0.0045936617 0.0012248411 0.0152562664
-0.4812455478 1.6144737343 -0.3313801421 0.0038281655 0.0004841197 0.0154901165
-0.3232452072 0.7891119133 -0.2701415578 0.0059668961 -0.0000765765 0.0150636328
-0.3315155771 0.5327609770 0.2564831883 0.0061982116 -0.0000291601 0.0147383793
0.4157925283 1.5088489054 -0.3419696761 0.0037589216 0.0004867822 0.0155287200
-0.3478252840 0.9855722829 -0.3101923081 0.0039326145 -0.0000601684 0.0112772761
-0.2672157233 0.9895524373 -0.3269299164 0.0057945109 0.0000000000 0.0152176809
0.3696301560 0.6394128813 0.2259582424 0.0065185281 0.0000793153 0.0126902265
0.3165293126 0.9265817436 0.2405547671 0.0023244152 0.0000225138 0.0141831338
0.3010687711 1.0261842476 0.1992992018 0.0043015632 0.0022382337 0.0133675787
0.3912557496 0.2908441932 -0.3464055595 0.0053457399 0.0003934476 0.0114759503
-0.3354914517 0.5744253437 -0.2773983713 0.0056354607 -0.0001880465 0.0152822996
0.3613980530 0.2722334081 0.2835113795 0.0026287811 -0.0000918317 0.0147165945
0.3586945213 0.5281723397 0.2194495211 0.0049529158 -0.0001336652 0.0112890792
0.4499458821 1.4183191460 -0.3086449523 0.0062252094 -0.0003871558 0.0146518861
0.1445184007 1.0169219559 -0.1995824962 0.0044882212 -0.0022400663 0.0133494860
0.2375190642 1.0185535439 0.0693461020 0.0042969313 0.0022391377 0.0134110989
-0.1193852384 1.5309171868 -0.4166566169 0.0042763039 -0.0005740605 0.0112823343
-0.3966124335 1.2976073225 -0.2818624234 0.0038900835 0.0000727813 0.0155698334
-0.0163005013 1.0135217389 -0.1673196380 0.0044138474 -0.0022413247 0.0133579581
-0.0578866563 1.0126827055 -0.0158765007 0.0044718714 0.0022423700 0.0134677748
-0.3184672629 0.8683972420 -0.2738894501 0.0063119314 -0.0000231598 0.0146281072
-0.4435700969 0.0541824929 -0.3528840240 0.0024043900 0.0001844777 0.0143509409
-0.3782151023 0.5262073850 0.2427521027 0.0022052739 0.0001728653 0.0133352357
-0.1139686396 1.8704581018 -0.4048818770 0.0044356905 0.0008864365 0.0154765212
-0.0733854514 1.0050113391 0.4430155557 0.0048496063 0.0000008838 0.0112435940
-0.3263795855 0.9576748530 0.2151698481 0.0058357006 0.0001257808 0.0117555369
0.3255338452 0.8515494244 -0.3075261842 0.0030633219 0.0000402297 0.0117200558
-0.4912676406 1.6339921261 -0.3794350782 0.0029814988 -0.0003148635 0.0117713057
-0.1522756501 1.5317757283 -0.4038370745 0.0046152738 0.0005854217 0.0156003483
0.3276785582 1.1033495081 -0.2965995511 0.0022644890 0.0002396059 0.0130249548
0.3908803521 1.8182697775 -0.4279227113 0.0053051805 0.0008003560 0.0115932971
-0.0929985572 0.9784662044 0.4410694608 0.0039475916 0.0000000000 0.0156339922
-0.2641674591 1.0066224568 0.3560360306 0.0057974717 0.0000000000 0.0116749991
-0.2835061262 1.8143380872 -0.4282138094 0.0048125393 -0.0020777503 0.0127973448
0.0365831489 1.0222680300 0.4522821968 0.0046290015 0.0006121346 0.0155602823
0.3762691779 0.3539323548 0.2849554729 0.0047276141 0.0002813586 0.0156210384
0.3643745789 0.6991973435 0.2462170595 0.0062848686 0.0001083251 0.0146239239
-0.3684017595 0.4728220159 -0.3276850945 0.0035914464 0.0002378092 0.0114214614
0.0022157872 1.0192803807 0.2644206334 0.0044274225 0.0022389246 0.0133086260
-0.1311090649 1.5622394089 -0.4141090892 0.0045887516 0.0006298930 0.0155901131
-0.3286541212 1.6311974490 -0.4161406141 0.0039590515 -0.0000622904 0.0116788908
-0.1761180045 1.0306434412 -0.3604670869 0.0044751508 0.0022403624 0.0135406750
-0.3653285097 0.3607920017 0.2346865979 0.0046876289 -0.0002728596 0.0112671598
-0.3975699241 1.3357893979 -0.2854683085 0.0046170773 0.0002979597 0.0156275120
-0.0701134309 1.0187289214 -0.2190199083 0.0044642225 0.0022391512 0.0135712751
0.4106414452 1.5841309423 -0.3760015940 0.0052444110 -0.0006305144 0.0114628529
0.4552852808 1.5318009203 -0.3629065946 0.0036820130 -0.0001959085 0.0113738497
0.4229718882 1.6273347602 -0.3745373062 0.0037676898 0.0008128410 0.0154221063
0.3435103924 0.6780028700 -0.2681810018 0.0042244461 -0.0001071071 0.0156488235
-0.4053573541 1.0277983800 0.0230607169 0.0042686842 -0.0022375810 0.0134512456
0.3720572751 0.4370369395 0.2745915076 0.0051603111 0.0002866702 0.0155256447
0.4495841404 0.0424308881 -0.3659246377 0.0066146643 0.0003755209 0.0134810202
0.0900106701 1.0194310462 -0.2257928421 0.0043773614 0.0022389381 0.0135717641
0.3798132504 0.2151757362 0.2993478682 0.0033713665 0.0001157273 0.0154117119
-0.4594733621 1.5873316866 -0.3281553026 0.0054920538 0.0005450485 0.0152875887
-0.1972383262 0.9561874300 0.3945759784 0.0048774608 -0.0014510446 0.0126934745
-0.0644211664 1.0131753646 -0.0565274322 0.0044624303 0.0022421412 0.0134915964
-0.0943553969 1.0148587700 0.1989373054 0.0043756343 -0.0022406630 0.0135359892
-0.4085285952 0.0668317024 -0.3351958719 0.0050738740 -0.0005262134 0.0155211473
-0.1251948273 1.0138727003 0.0010296123 0.0044912382 0.0022418608 0.0134612766
0.0962700662 1.0144029400 -0.1646790651 0.0044734864 -0.0022406249 0.0133514778
0.3765169800 0.3754539660 0.2818067882 0.0049537996 0.0002979215 0.0155880001
0.4294897815 0.1332433385 -0.3600745746 0.0064452713 0.0005146592 0.0126580607
-0.2383081599 1.0163566681 -0.0025019371 0.0043188574 -0.0022404970 0.0134358939
0.1262841347 1.8321289902 -0.4371239777 0.0043808584 -0.0020707003 0.0125879734
0.3852430767 0.4380137340 -0.2971388954 0.0064458814 0.0001210254 0.0143115412
-0.2167288926 1.6075402273 -0.4297830352 0.0041159259 -0.0006772535 0.0113287705
-0.0261758720 1.8453481622 -0.4059813770 0.0044377856 -0.0012235244 0.0153045173
-0.0711016135 1.0142857480 0.1420568077 0.0044601020 0.0022414683 0.0133691914
-0.0908640009 1.0136667922 0.0032829106 0.0044694444 0.0022417217 0.0133955005
0.3731315830 0.9611755600 -0.2234110557 0.0061060098 -0.0008958933 0.0123657783
0.3715442510 0.6028225546 0.2452894827 0.0065144098 0.0001703710 0.0141630649
-0.2498527731 1.0091275790 0.3664466968 0.0057328441 0.0000000000 0.0116249088
-0.3964671402 0.0939260241 0.2753104240 0.0055707882 -0.0005422334 0.0116176569
0.4190643962 0.1365496198 0.3108890607 0.0054803472 0.0005207088 0.0153059708
-0.3875847299 0.3859800791 -0.3270849290 0.0026753968 0.0003337682 0.0121655586
-0.4035552516 0.1043650743 0.3185858927 0.0053053173 0.0001934478 0.0154683272
-0.0952131870 1.5140446549 -0.4036450287 0.0045514425 0.0005496850 0.0156151346
-0.4949749041 1.6526811364 -0.3773900343 0.0024905422 -0.0000405190 0.0123266163
0.0382742705 1.0281807602 0.4282781207 0.0044432452 -0.0022374509 0.0136023014
0.1650627306 1.0149632302 -0.1265742324 0.0044985731 -0.0022410039 0.0133829483
0.3378787987 0.5313490561 0.2616609865 0.0029494250 0.0000184090 0.0150923465
0.4191747423 1.4819741005 -0.3436676638 0.0053261488 -0.0005497186 0.0114741065
0.4668004087 1.5031326354 -0.3129269178 0.0055794353 -0.0000034813 0.0153201426
0.4156462794 1.0283598344 -0.0507160040 0.0045800104 -0.0022375586 0.0134177564
0.3276329003 0.7129682506 -0.3112107230 0.0030158045 0.0000159999 0.0117510597
-0.0647030611 1.0264633340 0.3624356709 0.0044518497 0.0022383616 0.0133032807
0.4199991284 0.1944090451 -0.3377944656 0.0066124280 0.0003615959 0.0134698856
-0.0478287325 0.9555914053 0.4424552655 0.0045000759 -0.0021408414 0.0133519242
0.3601456983 0.8994070433 -0.2710947551 0.0062015561 -0.0000415037 0.0147728398
0.2718292587 1.0221593931 -0.2146429977 0.0045488562 -0.0022373029 0.0133416621
-0.3396991128 0.6985100724 0.2575788011 0.0047011883 0.0000646972 0.0156453804
0.3320140548 0.8787295305 0.2084794192 0.0036280647 0.0000689052 0.0113515333
0.3575960149 0.6338866385 -0.2721819473 0.0055057523 -0.0000329464 0.0153914120
-0.1091800676 1.8837280683 -0.4166135587 0.0043901537 0.0019539636 0.0145240484
-0.3659838819 0.5986896800 0.2547938096 0.0028197951 0.0002103225 0.0149518466
0.1862650930 1.0260836230 -0.2842113330 0.0043492736 0.0022382405 0.0135688167
0.3670880363 0.9613072648 -0.2881350829 0.0066400358 -0.0000890324 0.0133254043
-0.3072006885 1.0205315040 -0.1059902516 0.0042764789 -0.0022372782 0.0133838320
-0.4158857956 0.9848902831 0.1406398579 0.0022943018 -0.0000001391 0.0141326532
-0.2145740992 1.4944131782 -0.3881044630 0.0046921823 0.0005181203 0.0156094754
-0.0713349635 1.0118483264 -0.1102192668 0.0043698471 -0.0022405755 0.0133546092
-0.3644283815 1.2479222026 -0.2801392122 0.0054801296 0.0003935889 0.0153544303
-0.3908334605 0.1219282396 0.2708349906 0.0056115450 -0.0005233803 0.0116357429
0.3610276172 0.6034851136 0.2592676662 0.0055817928 0.0001926739 0.0153075275
-0.1606703316 1.0257362887 0.3150326146 0.0044968661 0.0022380633 0.0133141485
0.1130125779 1.5157856985 -0.4029688452 0.0042748055 0.0005558018 0.0156122680
-0.3188367410 0.9183446767 0.2212038617 0.0063066354 0.0001014792 0.0122549207
0.2080523209 1.0188643901 -0.1226545044 0.0043135570 0.0022390300 0.0135196708
-0.2079008344 1.0178783877 0.0919413707 0.0045443835 0.0022394831 0.0134045917
0.0337586366 1.6052964621 -0.4320208450 0.0043881237 0.0007031902 0.0155729647
-0.0085887080 1.0144830988 0.1673946803 0.0044333061 0.0022415019 0.0133633841
-0.4620559716 1.5387349747 -0.3150583853 0.0045150597 0.0004326724 0.0156145111
-0.0350623198 0.9889182847 -0.4220222328 0.0046712051 0.0000067360 0.0156712992
0.3838858848 1.1517728276 -0.2871935047 0.0065539037 -0.0003403943 0.0139195202
-0.3373016674 1.0258307560 0.0552886817 0.0045730254 0.0022380543 0.0134259257
0.4323742020 1.7763465861 -0.4197345884 0.0053986519 0.0002599641 0.0114713699
-0.3670620592 0.9969490329 -0.2845641068 0.0022346134 -0.0001401275 0.0134636296
0.0027593867 1.0119058278 -0.1338079848 0.0044261933 -0.0022417599 0.0133680677
-0.4777502152 1.5773581632 -0.3234905778 0.0037582374 0.0003500193 0.0154962850
-0.0313381772 0.9588015952 0.4441013640 0.0045642774 0.0009216999 0.0115256771
-0.3352098015 1.1541393993 -0.2867654666 0.0064728388 0.0003654472 0.0141604876
-0.3485380208 1.0277498464 -0.1090384462 0.0045505295 0.0022390233 0.0134860470
0.3979310848 0.0459938564 -0.3596532096 0.0024350641 -0.0007338711 0.0137389140
-0.2817725947 1.0251689484 -0.1613327717 0.0045563817 0.0022377627 0.0135254534
-0.3396199792 0.6636353236 -0.3189583473 0.0049374520 0.0000579635 0.0112981951
-0.0071234646 1.8709483653 -0.4507091375 0.0044213595 0.0010298860 0.0114556953
-0.3337783367 1.0145863949 0.2887401764 0.0061996023 -0.0000153404 0.0120785630
-0.1705535306 1.0180658128 0.2315918549 0.0043446483 -0.0022392005 0.0135445398
0.1826542440 1.0133465655 0.0067632931 0.0045302969 -0.0022406047 0.0134379576
-0.4097039405 1.0070266061 0.1543499954 0.0065460440 -0.0000275720 0.0127200415
0.3342129830 0.6791370054 0.2105593071 0.0035660166 -0.0001202314 0.0114121615
-0.2181132773 1.8768142735 -0.4330238925 0.0041468647 0.0020262469 0.0125888348
0.1682848650 1.0251661423 -0.2791560833 0.0043491906 0.0022378008 0.0135777688
0.4474831002 1.4578184012 -0.3517373946 0.0048981465 -0.0005003080 0.0113351655
-0.0238330411 1.0110993101 -0.0914538460 0.0044250942 -0.0022417711 0.0133708177
-0.1587278122 1.0195579597 -0.2520811216 0.0043498388 -0.0022380633 0.0133176522
0.4234654019 0.9901320338 0.1455120452 0.0065543254 -0.0000022005 0.0141429378
-0.0396367987 1.0129424856 0.0795923011 0.0044395464 0.0022421861 0.0133943409
0.2947820094 1.8548935778 -0.4404509492 0.0048420022 0.0012027916 0.0116642480
-0.2368641518 1.0176916467 0.1381851175 0.0043151989 -0.0022394697 0.0135016050
0.3755506562 1.0956207773 -0.2985128902 0.0065309682 -0.0002737142 0.0128759536
-0.3143683082 0.8942312819 -0.2862527835 0.0066432613 0.0000273970 0.0134876014
0.2295093470 1.8396996624 -0.4475627789 0.0044350176 -0.0007547429 0.0113429244
