-0.0929587714 1.8209893403 -0.4788058057 -0.0198385856 0.0024051336 -0.0116216055
-0.3450481658 1.0438994461 0.5756522592 -0.0198361706 0.0020037135 -0.0116473895
0.3993558066 1.8285505301 -0.5654869648 -0.0186529436 0.0021264538 -0.0156720757
-0.3652531938 1.7877193332 -0.5030796121 -0.0220944373 0.0023418496 -0.0134326185
0.1007986527 1.0667415867 -0.5362736425 -0.0198449797 0.0035164843 -0.0159020804
0.0134575878 1.8588136464 -0.4800193600 -0.0198211492 0.0024192366 -0.0116221230
0.1935161814 1.0816178982 0.2425125199 -0.0198275503 0.0046621135 -0.0139517578
0.0952842476 2.0977657098 -0.5381453380 -0.0198351193 0.0046574420 -0.0139209130
0.4137444995 0.0129403204 0.5351404053 -0.0213270340 0.0016609781 -0.0132330460
0.2434937700 2.1537669497 -0.5104367770 -0.0198247017 0.0032546465 -0.0119629935
0.3788161065 1.7421875742 -0.4943550910 -0.0193295818 0.0026307954 -0.0118136300
-0.4731454952 0.9717808781 0.4965537404 -0.0218573928 0.0021561214 -0.0144484722
0.4470525661 0.9021252729 0.1319303210 -0.0180361113 0.0009908156 -0.0141229844
0.1997953089 1.6677052094 -0.5606343443 -0.0198484647 0.0022962515 -0.0162819893
-0.4663777864 0.9515755634 0.2799598449 -0.0219590485 0.0017062103 -0.0141549994
-0.0090528854 1.7613664264 -0.5604914635 -0.0198455998 0.0022959578 -0.0162820057
-0.3748749869 1.3199790812 -0.4745257807 -0.0191285244 0.0023546239 -0.0122348502
0.3225567748 0.9021253451 -0.5084929465 -0.0198337020 0.0010385187 -0.0143130275
0.1492275533 1.3814766417 -0.4914620218 -0.0198196223 0.0008357596 -0.0121880027
-0.3871221557 1.0816178982 0.0405676656 -0.0198450660 0.0046621205 -0.0139518184
0.1457253235 1.0057829004 -0.3573112850 -0.0198147504 0.0000001911 -0.0139530515
-0.2455696861 1.3553331679 -0.5442378702 -0.0198413596 0.0010196836 -0.0154658620
0.3721049541 1.0816178982 -0.0286539871 -0.0198256878 0.0046621228 -0.0139519047
-0.3777500228 1.0046924874 -0.1453748944 -0.0193295422 0.0000792355 -0.0140733396
0.2973740294 1.0069337115 0.1279224908 -0.0197918266 0.0000004779 -0.0139502100
0.0893668862 1.0816178982 -0.2794067022 -0.0198329467 0.0046621415 -0.0139513755
-0.3671649744 0.7669344882 -0.5008032796 -0.0177401676 0.0021963277 -0.0137995177
0.0713170659 1.0816178982 0.1061743041 -0.0198334269 0.0046621438 -0.0139513405
-0.0185347069 1.0816178982 0.3292841316 -0.0198350657 0.0046621135 -0.0139459511
0.2768330472 1.2844176969 -0.5478500800 -0.0202264482 0.0012113724 -0.0159066143
-0.3061888260 1.8480426786 -0.4828056147 -0.0200690565 0.0024086162 -0.0116429838
0.0135294175 0.9235605036 -0.5350089398 -0.0198416346 0.0013002726 -0.0159672339
0.0226503003 1.0816178982 0.0535859230 -0.0198345109 0.0046621461 -0.0139512636
0.4395352331 1.0138791973 -0.1809564821 -0.0194709754 0.0000292759 -0.0139783810
0.2742808416 1.0816178982 -0.0022290781 -0.0198283499 0.0046621298 -0.0139517065
-0.1444369837 1.0799733845 -0.5255822062 -0.0198463690 0.0032827383 -0.0160462199
-0.4167788853 2.1772222348 -0.5081683772 -0.0202368494 0.0045992934 -0.0137002886
0.1211943694 1.0055999321 -0.1851816056 -0.0198181724 0.0000001585 -0.0139508254
-0.0532345872 1.0046924874 0.3996252285 -0.0200019612 0.0000790653 -0.0142658303
0.3791018704 1.0816178982 -0.1835766432 -0.0198260701 0.0046621251 -0.0139518650
-0.3667765221 1.9002553560 -0.5220171610 -0.0221510147 0.0023336489 -0.0138437802
-0.1962079787 1.8758815302 -0.4803678694 -0.0198563507 0.0024160313 -0.0116220135
0.3932089954 0.9038104056 0.1427880770 -0.0218435718 0.0012543597 -0.0136770805
0.4104633697 1.0126880516 -0.3161341406 -0.0195359937 0.0000227466 -0.0139731617
-0.3671649744 0.6403693451 -0.5168570091 -0.0177971041 0.0023273224 -0.0143487605
-0.4790564811 0.9492575094 0.5619933436 -0.0209206371 0.0033704542 -0.0123637189
0.4160755726 0.7987503486 -0.5470298849 -0.0180236960 0.0023571694 -0.0153109296
0.3164336520 1.0046924874 -0.0558991307 -0.0202106435 0.0000683331 -0.0140949090
0.3542099403 1.8849872844 -0.5440051032 -0.0175725565 0.0023204084 -0.0143606117
-0.3999480367 0.5417913029 -0.4753283319 -0.0205600620 0.0022813606 -0.0122845347
0.4813456182 0.0265891401 0.5338318435 -0.0180258033 0.0018439254 -0.0139928756
-0.2071254241 1.4244502533 -0.5538399937 -0.0198503132 0.0021803669 -0.0162729285
-0.1833083099 1.0046924874 0.2450561006 -0.0197201834 0.0046444160 -0.0138558481
0.4313629945 0.9665433602 -0.2147598853 -0.0187755114 0.0033201474 -0.0140419121
-0.3246282969 1.0816178982 -0.4194737794 -0.0198440123 0.0046621228 -0.0139532171
0.1112124884 1.0046924874 -0.0454465875 -0.0199637805 0.0000400548 -0.0141147348
0.3700005290 1.0046924874 0.2880591815 -0.0204624344 0.0001246728 -0.0141970729
0.3545393839 1.4022612374 -0.5319563763 -0.0175546771 0.0022851859 -0.0142538719
0.4042264252 0.9327126391 0.3300842981 -0.0214686700 0.0008894932 -0.0138230826
-0.1098877606 1.0816178982 0.4263313371 -0.0198349981 0.0046620039 -0.0139326756
-0.1793178368 1.7721305666 -0.5600736303 -0.0198489356 0.0022955102 -0.0162819777
-0.2067811479 1.4663007258 -0.4731725812 -0.0198580547 0.0022705118 -0.0116251138
-0.1603402284 1.0816178982 0.4511519527 -0.0198349701 0.0046619526 -0.0139275566
-0.2132328588 1.0062068876 -0.3708384530 -0.0198636423 0.0000002704 -0.0139532800
0.1672899894 1.0046924874 0.3920770205 -0.0202692234 0.0001099730 -0.0142456665
0.3947198757 0.5893053786 -0.5551611107 -0.0195939721 0.0023847740 -0.0156562711
0.0718327062 1.0741210880 -0.5296219605 -0.0198439587 0.0037778349 -0.0157772980
-0.2206454404 0.9021252729 -0.4947017845 -0.0198307019 0.0010294462 -0.0136952069
0.3528387076 1.2820901811 -0.5423276537 -0.0205988581 0.0012060529 -0.0156338974
0.1162685206 1.0816178982 -0.4323883694 -0.0198321169 0.0046621391 -0.0139516203
-0.3095750639 1.0046924874 0.0761178094 -0.0195218627 0.0000550530 -0.0141627083
-0.4277728739 0.2557646621 -0.5528293266 -0.0217118429 0.0023690532 -0.0149887963
0.4152927983 0.4186799430 0.4918915943 -0.0208466581 0.0018447809 -0.0155179125
0.0067392861 1.9932803113 -0.4861685908 -0.0198214895 0.0025496951 -0.0116359416
0.0373876658 1.3168987757 -0.4761616509 -0.0198099577 0.0023495725 -0.0122907680
-0.4249962232 1.2535213050 -0.4692841042 -0.0217235309 0.0023266533 -0.0133060902
0.3505816531 2.0574923807 -0.5191909634 -0.0176575241 0.0027695969 -0.0138068327
0.2485377342 1.6008046645 -0.4768390327 -0.0197769916 0.0023648153 -0.0116211533
0.2469643438 1.0816178982 0.3938662659 -0.0198292869 0.0046621321 -0.0139511797
0.1977062502 1.3464902003 -0.4778036750 -0.0198586305 0.0035211628 -0.0119946262
0.1612212365 1.3175267877 -0.5490325471 -0.0198350890 0.0028626346 -0.0154862706
0.1096760968 1.0046924874 0.4384204708 -0.0202233782 0.0001081641 -0.0142646717
-0.1762471003 1.0046924874 -0.1110457013 -0.0195850091 0.0000493442 -0.0140934218
-0.1778224675 2.1702290156 -0.5311463914 -0.0198303126 0.0040264485 -0.0139412307
-0.4191901659 0.9021252729 0.4349995535 -0.0184862136 0.0011594221 -0.0138149052
0.1684554373 1.0046924874 0.0769068264 -0.0197119967 0.0046486609 -0.0140386136
-0.0652124681 1.3473602267 -0.5087236854 -0.0198252192 0.0043353646 -0.0139121505
0.0414992265 0.9693835746 -0.4664868585 -0.0198208345 0.0018841994 -0.0117561364
0.2186568649 1.3507250863 -0.5333700463 -0.0198361030 0.0002258274 -0.0141835807
0.3862722255 0.9566986886 0.0248634525 -0.0212957813 0.0008573477 -0.0140500265
-0.4626934765 1.0046925596 0.2965109578 -0.0205152821 0.0038524502 -0.0126839734
-0.3669677773 1.3921796028 -0.5143074329 -0.0221620127 0.0022961839 -0.0139130946
-0.3649374802 1.0083926253 0.3389467581 -0.0198914264 0.0000007832 -0.0139530842
-0.4277728739 2.1524097664 -0.5450394959 -0.0214599774 0.0023275555 -0.0146534108
-0.2951820492 1.0816178982 0.1027386428 -0.0198427139 0.0046621275 -0.0139516785
0.0676375067 0.9670963933 -0.5351846514 -0.0198421871 0.0018552474 -0.0161375374
-0.1442887834 1.0816178982 0.3716067164 -0.0198352545 0.0046620808 -0.0139414987
0.1334523147 1.0447563836 -0.5418627258 -0.0198495137 0.0021970084 -0.0162751080
-0.3839088903 0.9891324605 -0.1122233408 -0.0190666111 0.0002496230 -0.0140056266
0.3758392376 1.2441254465 -0.4732921652 -0.0202494162 0.0022088922 -0.0128487989
0.0383697795 1.2820901811 -0.5171352693 -0.0198345109 0.0005501286 -0.0144963384
-0.0704705553 1.0816178982 -0.1129513116 -0.0198365949 0.0046621438 -0.0139513149
0.1302744421 2.1648204832 -0.5102953532 -0.0198299280 0.0035859223 -0.0122366964
0.4813456531 0.4716365893 0.5011997369 -0.0181326993 0.0028159712 -0.0145338990
0.4014589170 2.0291384855 -0.5720844050 -0.0183225606 0.0021548113 -0.0153632668
0.3481396746 1.7730030126 -0.5587155565 -0.0187134232 0.0023061446 -0.0155446150
-0.1426713287 1.0816178982 -0.4967216966 -0.0198428421 0.0046621181 -0.0139493102
-0.0245754869 1.0046924874 0.2498940492 -0.0199563071 0.0000620765 -0.0142171551
0.1635340433 1.3473602267 -0.4794546272 -0.0198341099 0.0036636053 -0.0120997063
0.3554676731 0.8592615015 -0.4686521783 -0.0207149175 0.0023122939 -0.0119205377
-0.4001382615 2.1062918240 -0.5054625795 -0.0209347144 0.0026277557 -0.0123507046
0.4813456182 0.8904939526 0.4955259983 -0.0192679039 0.0042045099 -0.0141534259
-0.3158454430 0.9388472145 0.4960136191 -0.0199232292 0.0006752652 -0.0153108620
0.3901425993 1.6473464519 -0.5594143516 -0.0191814491 0.0020587012 -0.0160718361
0.2282051546 1.5580224178 -0.5588424322 -0.0198456091 0.0022896173 -0.0162818891
0.4250187740 0.1285467043 0.5618238210 -0.0212819674 0.0022293031 -0.0126625159
0.4539000932 1.0046924874 0.3153361443 -0.0195889883 0.0046426047 -0.0140676308
0.3870061638 1.7893828406 -0.4964639615 -0.0191623809 0.0026110023 -0.0118566290
-0.3717793871 1.0046924874 -0.0869852231 -0.0193660561 0.0000745034 -0.0140965081
0.4502723024 0.8475106671 0.5618238210 -0.0190647486 0.0025918712 -0.0121745873
0.3028574708 1.0068703273 -0.1630623844 -0.0197931087 0.0000004056 -0.0139519186
0.4175552935 0.9021252729 0.2276420757 -0.0207149921 0.0012376996 -0.0137713770
0.4330968582 1.0816178982 0.1526110160 -0.0198197412 0.0046620855 -0.0139523173
0.2968352602 1.0816178982 -0.0470332813 -0.0198278813 0.0046621298 -0.0139517392
0.2131072280 1.7201924849 -0.4778957291 -0.0197809871 0.0023787878 -0.0116213887
0.0766098675 0.9275560794 0.4937963328 -0.0197919711 0.0007781658 -0.0154885970
-0.1722200271 1.0061215214 -0.4930919151 -0.0198718687 0.0000005035 -0.0139424848
-0.4277728739 0.3706279536 -0.5129210832 -0.0217263562 0.0023203874 -0.0137403924
-0.3776805545 0.9523856206 -0.2498691137 -0.0183971736 0.0009080089 -0.0138707787
-0.4140421799 1.0110276726 0.5265653083 -0.0198580104 0.0000284647 -0.0136708052
0.2325610140 1.0046924874 0.5389483530 -0.0198707730 0.0039025147 -0.0130041766
-0.4277728739 0.3060862611 -0.5128251875 -0.0217314402 0.0023182382 -0.0136482428
0.4813456182 0.7203880083 0.5154837134 -0.0183282041 0.0030775503 -0.0140185570
-0.3855698731 0.0023310731 -0.5216834143 -0.0190138216 0.0016293408 -0.0136991091
-0.0290122928 0.9404705995 0.4943930805 -0.0197738214 0.0006550898 -0.0152931971
-0.0763676387 1.7964702491 -0.4781140528 -0.0198358116 0.0023992103 -0.0116213981
0.3741816698 1.0816178982 0.0676872250 -0.0198248183 0.0046621181 -0.0139519699
-0.0789048975 2.0771038988 -0.4930435057 -0.0198271936 0.0027693241 -0.0116630147
0.2841982171 1.3477153517 -0.5170854706 -0.0198520545 0.0003865455 -0.0128012847
0.4618034612 0.9104649338 0.4918916293 -0.0191180696 0.0013959654 -0.0139008378
-0.1293979679 1.0056146575 0.0359310051 -0.0198523762 0.0000001678 -0.0139481563
0.2634800477 1.0816179705 -0.4645979830 -0.0198179486 0.0046586262 -0.0140124403
-0.1638553607 0.9021252729 0.5178050402 -0.0199623213 0.0010233621 -0.0146221651
-0.0274992935 1.8931608354 -0.5627975312 -0.0198459658 0.0022904168 -0.0162819124
0.4582797831 0.3835100344 0.5618238210 -0.0193973601 0.0024451534 -0.0119817586
0.4160755726 1.9425991046 -0.5212110899 -0.0182016805 0.0023734240 -0.0130054027
0.4297536239 1.0121210041 0.0654327044 -0.0195534790 0.0000223527 -0.0139716209
-0.0729649061 0.9179000662 -0.5347281551 -0.0198415577 0.0012259859 -0.0159436527
-0.1797566567 1.0059181353 0.1630846625 -0.0198602436 0.0000002634 -0.0139476155
0.3755328064 0.8515462231 -0.5454760732 -0.0205636729 0.0023747364 -0.0154899560
0.1121042474 1.0630669881 0.5690505181 -0.0198277135 0.0036941144 -0.0121559924
-0.2164018221 1.0816178260 0.3902173486 -0.0198413479 0.0046621135 -0.0139465875
0.4575529592 0.9021252729 0.1820845117 -0.0178805938 0.0011153182 -0.0141200892
0.3588597084 0.9280279422 -0.4411500618 -0.0216030540 0.0012638169 -0.0138824643
0.1215302584 0.9021252729 0.5538916060 -0.0196805575 0.0010250777 -0.0125633800
-0.3439160639 1.0747370787 0.5477250179 -0.0198407861 0.0043995158 -0.0128918142
-0.4359517980 0.4395041622 0.5664859671 -0.0195068273 0.0026868228 -0.0120601550
0.4160755726 0.5770432350 -0.4806102380 -0.0182345229 0.0022981979 -0.0126625159
-0.3671649744 0.2863639634 -0.5545119698 -0.0184368088 0.0023893569 -0.0155939382
-0.2939359671 1.0071136937 0.1720739446 -0.0198785518 0.0000005198 -0.0139501284
-0.4117039924 0.6741055948 0.4965538104 -0.0188592319 0.0009822606 -0.0146031552
-0.2508572848 1.0771728683 0.5447939267 -0.0198277368 0.0039836150 -0.0124191146
0.1161218239 1.0046924874 -0.2897102013 -0.0198404038 0.0000212874 -0.0140326670
-0.2817945637 1.0816178982 -0.1308235695 -0.0198414109 0.0046621321 -0.0139516063
0.4380599575 0.9633082574 -0.1200785488 -0.0187287244 0.0032059061 -0.0140214173
0.3040974898 1.5864268227 -0.5595554911 -0.0197335591 0.0022912840 -0.0162779006
-0.3671649744 0.8726423341 -0.5192184234 -0.0177655600 0.0022930393 -0.0145045997
0.1774346538 2.1622768466 -0.5754833053 -0.0198504018 0.0038467554 -0.0153275222
-0.3671649744 0.7949599375 -0.4830826650 -0.0177360882 0.0020543351 -0.0131576894
0.1539933832 1.2820901811 -0.5023940132 -0.0198350890 0.0005427274 -0.0140679828
0.3761837609 1.0046924874 0.3647285287 -0.0196647785 0.0046499383 -0.0140697684
-0.1312826358 1.8804082270 -0.4804816211 -0.0198450054 0.0024195699 -0.0116221067
0.1156350655 1.9923525186 -0.4870756790 -0.0198018782 0.0025457089 -0.0116358460
-0.4412755679 1.0109253758 0.5179419465 -0.0199835504 0.0000120074 -0.0138903364
0.3718903975 0.9788165671 -0.2196281566 -0.0207130154 0.0004730400 -0.0140094449
0.4099503518 1.2445058962 -0.5480379925 -0.0181611058 0.0021766954 -0.0153024561
-0.3508273319 0.9465814842 -0.4639393103 -0.0198214056 0.0015956148 -0.0118439223
0.1560147732 1.0782827737 0.5418482872 -0.0198275433 0.0037961105 -0.0122065254
0.3554676731 0.8948921024 -0.5321597974 -0.0216746296 0.0023573582 -0.0149780127
-0.3338485860 1.6413141733 -0.5565268328 -0.0199999401 0.0022929810 -0.0162746744
0.3833601977 1.9936798246 -0.5705616432 -0.0190055487 0.0019783234 -0.0157750975
0.4899598049 1.0405609066 0.3578207830 -0.0175510500 0.0019443107 -0.0141056972
-0.2606416842 1.3776129557 -0.5509471390 -0.0198505487 0.0020203923 -0.0162583569
0.0284408443 0.9021252729 0.5381114046 -0.0197875514 0.0010206044 -0.0134545749
-0.1326030069 1.6467628281 -0.4748745396 -0.0198489962 0.0023713610 -0.0116207057
0.2056173900 0.9616059796 0.5629996725 -0.0200220061 0.0020725337 -0.0118448291
0.0966975166 1.0054361719 -0.4319748044 -0.0198203519 0.0000001469 -0.0139537788
-0.2757790922 1.0046924874 -0.5057661295 -0.0195894592 0.0018433986 -0.0139450466
-0.0247608561 1.0048433731 -0.0692645712 -0.0198379049 0.0000000303 -0.0139489652
-0.1439695849 1.0816178982 0.2850188539 -0.0198416113 0.0046621158 -0.0139515923
-0.1555969213 0.9360572954 0.5650404640 -0.0199982454 0.0016559290 -0.0119611053
0.3101305866 1.6404189643 -0.4817318828 -0.0195307884 0.0023713470 -0.0116479327
-0.0281407000 2.0839249636 -0.4941868831 -0.0198224639 0.0028095002 -0.0116845212
-0.1178145675 1.0073367121 0.4270217380 -0.0198346810 0.0000015455 -0.0138815156
0.4270655774 0.7025440730 0.5618238210 -0.0202177999 0.0026439940 -0.0119560143
-0.3062071972 1.0816178982 0.2062595062 -0.0198463108 0.0046620995 -0.0139518674
-0.4114553625 0.0384959069 0.5410494331 -0.0179044220 0.0019358396 -0.0138313625
-0.1363668927 1.0816178982 0.2552942597 -0.0198403852 0.0046621228 -0.0139515270
-0.4762955885 0.0132816407 0.4965538104 -0.0216864039 0.0018769264 -0.0150733956
-0.3415413112 1.0816178982 -0.0158412277 -0.0198435461 0.0046621251 -0.0139517298
-0.2728492457 1.0065780900 0.0279423851 -0.0198730039 0.0000003846 -0.0139496342
-0.1558045920 1.0046924874 -0.4048433938 -0.0197736908 0.0046450500 -0.0139871295
-0.3663771137 1.7369472147 -0.5156172396 -0.0221366390 0.0023356326 -0.0137374832
-0.3855234545 0.3439920569 -0.5595588338 -0.0195252148 0.0023956904 -0.0157517518
-0.3928896547 0.0693241732 -0.4936121896 -0.0193967936 0.0018345032 -0.0122656647
0.4236257714 0.9021252729 -0.1022815916 -0.0181888992 0.0008809498 -0.0141866437
-0.1190240075 1.6745978381 -0.5588914826 -0.0198477467 0.0022957806 -0.0162819823
0.2786583613 1.0066691464 -0.0397641470 -0.0197960272 0.0000003893 -0.0139506622
0.2555451473 1.7356129365 -0.4790362952 -0.0197536693 0.0023827296 -0.0116238294
0.3199714866 0.9021252729 0.5170942937 -0.0197175213 0.0010215904 -0.0145224674
0.1612298078 1.6157262921 -0.4761908172 -0.0197937964 0.0023671930 -0.0116209318
0.3963721076 1.4101074102 -0.5520466945 -0.0190562705 0.0023256790 -0.0160604581
0.2126859798 1.0816178982 -0.0494006795 -0.0198302170 0.0046621368 -0.0139515667
0.3710729788 1.0816179705 -0.3124226200 -0.0198266039 0.0046621275 -0.0139518207
-0.4114553625 0.4621090182 0.5550693433 -0.0188340236 0.0030795200 -0.0129856003
0.0109933475 1.0046924874 -0.5061051421 -0.0199453231 0.0018975914 -0.0139548115
-0.1367529370 1.3291000596 -0.4748515598 -0.0198350890 0.0031877051 -0.0121924130
-0.0489803416 1.4237112635 -0.4731726161 -0.0198313476 0.0021269550 -0.0116331910
-0.3990825628 0.9469461432 0.2231146656 -0.0184793928 0.0006949115 -0.0139186589
-0.3871647327 1.0816179705 0.3706493657 -0.0198525464 0.0046620622 -0.0139521168
-0.3558383044 1.9940385068 -0.4893541094 -0.0202370056 0.0025051086 -0.0116671034
-0.3923772778 1.0816178982 0.1839505333 -0.0198493948 0.0046620878 -0.0139520469
0.3474600152 1.0816178982 -0.1519106824 -0.0198268440 0.0046621275 -0.0139518091
0.3554676731 0.3437701038 -0.5635157814 -0.0217000663 0.0023769253 -0.0153240605
-0.3976252879 1.9747654675 -0.5005397821 -0.0207275753 0.0021258244 -0.0121299193
0.1062128426 1.7615630548 -0.4781223397 -0.0198031113 0.0023914292 -0.0116214353
-0.4758087858 1.0654016183 0.5632971757 -0.0205976436 0.0040046693 -0.0127522808
-0.3671649744 0.9570030218 -0.4844349765 -0.0177621613 0.0020032566 -0.0132530676
-0.4277728739 0.5391889792 -0.5247295020 -0.0217062810 0.0023411340 -0.0143883631
-0.4528363919 0.2890041857 0.5664859671 -0.0205220516 0.0024628346 -0.0124202125
0.2185200123 1.0816178982 -0.1915532325 -0.0198300585 0.0046621368 -0.0139515783
0.3475179587 1.6739059430 -0.4897974469 -0.0186751960 0.0023651114 -0.0123302238
-0.3128981484 1.0069158555 -0.2264824601 -0.0198775355 0.0000004056 -0.0139520888
-0.4225138379 0.2990469986 -0.4842933381 -0.0215397631 0.0022819317 -0.0125358664
0.1682995025 1.5336929803 -0.5578430755 -0.0198437000 0.0022881207 -0.0162818751
-0.1673330117 1.3178927266 -0.4744512633 -0.0198350890 0.0029876431 -0.0124446328
-0.3654231080 1.0083450341 0.2475000186 -0.0198924427 0.0000007879 -0.0139528138
-0.2586551344 1.5258577636 -0.5561352498 -0.0198505300 0.0022821671 -0.0162817096
-0.3929580553 1.6150972846 -0.4863129658 -0.0203111780 0.0023135807 -0.0117753468
0.4160755726 1.3049860296 -0.4838991234 -0.0176885227 0.0023624889 -0.0133310373
0.1106165053 1.0046924874 -0.2567948577 -0.0196313136 0.0046356908 -0.0140076709
-0.2888510785 1.2820901811 -0.4799898742 -0.0185997438 0.0014871314 -0.0128061123
-0.3070487868 1.7307732278 -0.5585678364 -0.0199445399 0.0022972678 -0.0162774414
0.0290417273 1.7735351290 -0.4777700610 -0.0198180255 0.0023957347 -0.0116213538
0.4171699694 0.0242641348 0.4918916293 -0.0215917367 0.0019090975 -0.0151587268
0.3425058463 1.0125566584 -0.4821760734 -0.0194856332 0.0000313086 -0.0139507974
-0.2424787089 1.0816178260 -0.2140327234 -0.0198404971 0.0046621345 -0.0139515503
0.3328177155 1.0816178982 0.4250696229 -0.0198264267 0.0046621205 -0.0139513405
-0.3671649744 0.9234380734 -0.4670661768 -0.0186702238 0.0021709726 -0.0122687604
0.3455342202 1.9661451640 -0.4940870385 -0.0191693089 0.0024314724 -0.0118884831
-0.4778547710 1.0780972436 0.4631062781 -0.0216780843 0.0037251317 -0.0139769847
0.1722881061 2.1441120064 -0.5096272886 -0.0198255293 0.0024291227 -0.0120756519
0.4137444995 0.2254445464 0.5360919563 -0.0215392899 0.0022636514 -0.0139565225
0.1470698631 1.0816179705 -0.2696136778 -0.0198316506 0.0046621391 -0.0139514664
-0.4277728739 1.4089818515 -0.5046325706 -0.0214300558 0.0023683632 -0.0131319660
0.0023011421 2.0932991944 -0.5105348056 -0.0198318278 0.0045530635 -0.0132483798
-0.1880979354 0.9116710916 0.5652240384 -0.0198634884 0.0011896025 -0.0119998781
0.0638243910 1.0816178982 0.5371826188 -0.0198349864 0.0046620039 -0.0139269482
0.1889535045 1.6196292473 -0.4764766534 -0.0197881855 0.0023672350 -0.0116210204
-0.3435998515 1.0816178260 0.0550945072 -0.0198438911 0.0046621251 -0.0139517485
-0.4277728739 1.4414045975 -0.5108465354 -0.0215432900 0.0023586333 -0.0133851718
-0.1113507537 1.7662405673 -0.4772647986 -0.0198439750 0.0023915224 -0.0116212022
0.2221424671 2.0911582040 -0.5087511105 -0.0198254220 0.0041464475 -0.0128814293
0.4251795481 0.9322943444 -0.3021800156 -0.0182762608 0.0021872878 -0.0141836553
0.4441305800 1.0700727974 -0.1781014538 -0.0182483462 0.0040338753 -0.0140666914
0.1063459958 1.8575341461 -0.5622995231 -0.0198442594 0.0022920439 -0.0162819474
-0.0490448190 0.9653711382 -0.4658988966 -0.0198209347 0.0018334193 -0.0117715844
0.3824824904 0.9880367116 -0.0395622341 -0.0206371413 0.0003504256 -0.0140751322
0.3708090896 1.0046925596 -0.1586811210 -0.0202220052 0.0000617012 -0.0140586911
0.3222104706 1.0816178982 -0.4021193135 -0.0198266458 0.0046621251 -0.0139527112
-0.3666514250 1.0816179705 -0.2100848111 -0.0198434669 0.0046621275 -0.0139517275
-0.4523892128 0.2416340982 0.5664859671 -0.0205678921 0.0023923337 -0.0124542112
-0.1677440498 1.0816178982 0.3890965571 -0.0198352638 0.0046620645 -0.0139393122
0.2136837886 1.0816178982 0.1655713860 -0.0198289396 0.0046621275 -0.0139516692
-0.3061587691 1.0046924874 0.3457755061 -0.0196619485 0.0000365069 -0.0142689119
0.2959667629 1.0816178982 -0.4538551139 -0.0198258696 0.0046621181 -0.0139539210
0.1851737977 1.7673440717 -0.4789834381 -0.0197875747 0.0023919677 -0.0116217058
-0.1671818765 1.9577570563 -0.5627230487 -0.0198487607 0.0022916733 -0.0162818681
0.4531554482 1.0816178260 0.3670857797 -0.0198133611 0.0046620389 -0.0139527089
0.2086140544 1.2820901811 -0.5411137777 -0.0200180549 0.0010655055 -0.0156554575
-0.4110841974 0.3979415865 -0.5575663818 -0.0208385320 0.0023856598 -0.0155110429
0.2572166385 1.4710591942 -0.5573990644 -0.0198257367 0.0022843327 -0.0162812014
0.2056450971 1.0816179705 -0.2513327036 -0.0198303359 0.0046621368 -0.0139515573
0.2412037984 1.0046924874 -0.4084877212 -0.0199283063 0.0000121239 -0.0139900154
0.0521652564 1.0046924874 -0.4523106219 -0.0196827813 0.0000409453 -0.0139666067
-0.4277728739 0.5052156594 -0.5173704886 -0.0217132532 0.0023304320 -0.0140823002
-0.0090257564 1.0816178982 0.1257045097 -0.0198352382 0.0046621461 -0.0139512333
0.4160756076 1.1484010643 -0.5378404010 -0.0178265222 0.0023202755 -0.0150013188
0.2385971319 1.0199579995 0.5614070904 -0.0198284571 0.0006437515 -0.0125927352
-0.4045211171 1.0816178982 0.4983292558 -0.0198477560 0.0046620669 -0.0139387131
0.3808452683 1.0597068208 -0.5391306802 -0.0199559971 0.0022682926 -0.0152981063
-0.4543891709 0.9637616954 0.0751539877 -0.0219205019 0.0019761089 -0.0142668979
-0.4277728739 0.4801127299 -0.5034122562 -0.0217234143 0.0023113638 -0.0135558787
0.3026510986 1.0046924874 0.2796336905 -0.0203750121 0.0001137191 -0.0141999099
0.1396494375 1.0046924874 0.1501468783 -0.0197482029 0.0046527635 -0.0140369422
-0.3919579504 1.2878003427 -0.5456398358 -0.0199395350 0.0019660597 -0.0159958175
-0.2413407559 1.0816178982 0.1292779748 -0.0198412966 0.0046621298 -0.0139515946
0.3870605128 2.1297170895 -0.5103171580 -0.0191265547 0.0022591571 -0.0118425959
-0.3599797168 1.4446409824 -0.5497926284 -0.0210030871 0.0022642086 -0.0155171060
-0.2165239121 1.5417010648 -0.5564241793 -0.0198497048 0.0022835821 -0.0162817399
0.0072831440 1.0046924874 0.4031566247 -0.0200783341 0.0000883383 -0.0142620306
-0.0754906144 1.0053444745 0.2548402692 -0.0198462781 0.0000001469 -0.0139463357
0.2811866665 1.0046924151 -0.4618392956 -0.0194292095 0.0046147880 -0.0139944910
0.4054426835 2.1772222348 -0.5387691168 -0.0196565288 0.0046310846 -0.0139048519
0.4276275734 1.0123785970 0.0215746208 -0.0195279002 0.0000249681 -0.0139734018
0.2972491445 1.8510034701 -0.5631271169 -0.0197499419 0.0022922234 -0.0162785603
-0.0308693958 1.4046920454 -0.5543986097 -0.0198479262 0.0021129569 -0.0162665903
-0.2150103487 1.0046924874 -0.0326495069 -0.0195787479 0.0000493954 -0.0141230008
-0.2703617740 1.0816178982 -0.4252026502 -0.0198424622 0.0046621251 -0.0139528487
0.3554676731 0.7924113940 -0.5414717839 -0.0216772614 0.0023653911 -0.0151651210
0.4137445345 0.6962775355 0.4963492167 -0.0208137690 0.0009924730 -0.0147225877
-0.0942873619 1.0816178982 0.2287386615 -0.0198377487 0.0046621391 -0.0139513802
0.0792591973 1.0052670036 0.1647759143 -0.0198239231 0.0000001142 -0.0139467367
-0.0103111823 1.0046924874 0.1175218256 -0.0197601427 0.0046509570 -0.0139779404
-0.3932142962 1.0732965898 0.5518215058 -0.0198586608 0.0044162109 -0.0129097472
0.0910889315 2.1075475661 -0.5731147067 -0.0198592715 0.0008790010 -0.0154762190
-0.1608419336 0.9822453797 0.5650700943 -0.0198646377 0.0032944449 -0.0127023026
-0.0133376331 1.0816178982 -0.0484787587 -0.0198353034 0.0046621461 -0.0139512380
-0.0159042075 2.1595030072 -0.5101238025 -0.0198324432 0.0035739826 -0.0123809596
0.3652117193 0.0023310731 -0.5421612244 -0.0210064369 0.0016553859 -0.0138003173
-0.2146935488 1.0816178982 -0.2100504324 -0.0198398654 0.0046621368 -0.0139515130
0.4423983875 0.5690163690 0.5618238210 -0.0197666510 0.0025607723 -0.0119355544
0.1062630655 1.4011314129 -0.4741955189 -0.0198080182 0.0020085598 -0.0116440817
0.2544368945 1.9808361598 -0.4873463632 -0.0197721407 0.0025118781 -0.0116330371
0.4137444995 0.5885595238 0.5285042296 -0.0212793263 0.0012996199 -0.0135164742
-0.3194567274 1.3102360677 -0.4741778051 -0.0191644602 0.0021247474 -0.0121418381
-0.3990788634 2.1772222348 -0.5313555049 -0.0199039675 0.0046355113 -0.0138869680
0.3884243141 0.7450510153 -0.4724837444 -0.0203744317 0.0022819317 -0.0120077897
0.0514404955 1.0050863105 0.0183525184 -0.0198277275 0.0000000723 -0.0139481446
-0.4277728739 0.4151754008 -0.5407179265 -0.0217065444 0.0023581858 -0.0147812352
-0.4029537549 1.4824224620 -0.4809565423 -0.0205003632 0.0024161619 -0.0118162455
-0.4722994416 0.5057800029 0.4965538104 -0.0211510520 0.0021102715 -0.0153774654
0.1817256861 1.0046924874 -0.3728805942 -0.0198759783 0.0000178817 -0.0140020857
-0.4162152878 1.3070859022 -0.5458804258 -0.0210131970 0.0023751303 -0.0157858857
-0.1203016034 1.0816178982 0.1357480848 -0.0198378956 0.0046621391 -0.0139513918
0.3808881996 0.4199338342 -0.5614163378 -0.0203872619 0.0023865456 -0.0155981457
-0.1132651871 1.5444693562 -0.5569761797 -0.0198476581 0.0022855472 -0.0162817959
0.4320797178 0.7461216516 0.4918916293 -0.0204644577 0.0020756714 -0.0147680600
-0.4400793009 0.9346796242 -0.1693061147 -0.0219004244 0.0015710826 -0.0142043715
-0.4277728739 0.9050940343 -0.4866414490 -0.0219327913 0.0023341897 -0.0135736368
0.0985996675 1.0055852068 -0.4763577804 -0.0198134147 0.0000002634 -0.0139511237
0.0728521334 0.9924466706 -0.4666904218 -0.0198202587 0.0021760893 -0.0116673458
0.2363750085 1.4087887827 -0.5558117808 -0.0198465742 0.0021232649 -0.0162674714
-0.1560605228 1.0816179705 -0.3168910563 -0.0198385110 0.0046621391 -0.0139514314
0.2812403045 1.0816178982 0.0399634165 -0.0198279955 0.0046621298 -0.0139517368
-0.1869684326 1.0816178982 -0.3464825509 -0.0198392150 0.0046621368 -0.0139514734
0.0139054452 1.6784113012 -0.5591830089 -0.0198453410 0.0022968319 -0.0162820173
0.4692726691 0.7441293417 0.4918916293 -0.0195968207 0.0038984516 -0.0145570419
-0.4276286038 0.9021252729 0.1961299052 -0.0198152259 0.0011453984 -0.0138979799
-0.3451225038 1.3916628505 -0.5516267983 -0.0200243838 0.0020734662 -0.0162548650
-0.2717856493 1.0816178982 -0.4867199153 -0.0198500638 0.0046620972 -0.0139495689
-0.2232224393 1.0046924874 -0.1525305567 -0.0198498750 0.0046544303 -0.0139673550
-0.3230675153 1.0816178982 0.3267615166 -0.0198506792 0.0046620692 -0.0139521005
0.4455775749 1.0112122073 0.3482007662 -0.0195755706 0.0000274204 -0.0139671289
-0.1427208966 1.0046924874 0.1796400086 -0.0197729705 0.0000350244 -0.0142049543
0.1523717419 1.0046924874 0.0256249441 -0.0200528322 0.0000560600 -0.0141334137
-0.3342425513 1.9204903336 -0.5611810812 -0.0199994226 0.0022886848 -0.0162747397
0.3581598107 0.9046275772 0.5621378631 -0.0195461105 0.0010744941 -0.0120355808
-0.3619604319 1.0046924874 -0.3587236728 -0.0199181754 0.0046575073 -0.0139703434
-0.0179399872 2.0451084129 -0.4906915532 -0.0198241283 0.0026855570 -0.0116527743
0.4762830683 0.2007047281 0.5618238210 -0.0189216627 0.0023312176 -0.0119948896
-0.3235192096 1.4479679971 -0.5544690734 -0.0199796575 0.0022612085 -0.0162736767
0.1843984758 1.8509216611 -0.4813420062 -0.0197895841 0.0024146910 -0.0116224097
0.3090170167 2.0165046779 -0.4924211488 -0.0195595422 0.0025686024 -0.0116600263
-0.4277729088 0.5540788785 -0.4763345885 -0.0213274373 0.0023024918 -0.0123809759
-0.1028444420 1.3432982060 -0.5476218656 -0.0198382243 0.0040754477 -0.0152545153
0.3998671158 0.9164669061 0.2559763713 -0.0216700444 0.0010762681 -0.0137338584
0.2135557404 1.7224509963 -0.5616088028 -0.0198492666 0.0022976968 -0.0162820126
0.3088177915 1.0046924874 0.3267448005 -0.0196892594 0.0046510292 -0.0140577727
-0.3756854357 1.2339543197 -0.5430991876 -0.0190728351 0.0018268783 -0.0158130707
-0.1672650562 2.0979657509 -0.5418615883 -0.0198308115 0.0007569437 -0.0136895237
0.2515018195 1.7645136035 -0.4795509845 -0.0197707490 0.0023903895 -0.0116222815
0.4149432212 1.0046924874 -0.4052926685 -0.0193511489 0.0046092051 -0.0140032419
-0.4646867118 0.9032346096 0.2510703623 -0.0217970529 0.0010925530 -0.0138832732
-0.4248223251 2.0551132176 -0.5033009591 -0.0217860316 0.0023491295 -0.0127960980
-0.1844570580 1.0816178982 -0.2111801520 -0.0198391754 0.0046621368 -0.0139514711
-0.3350039497 1.2911903873 -0.5457608791 -0.0191641968 0.0018314122 -0.0159730662
0.4061683349 0.9395520564 0.3630969967 -0.0213833457 0.0008097961 -0.0138602305
-0.4462439308 0.9021253451 0.3394992224 -0.0204042368 0.0011111736 -0.0138468618
0.2660983952 1.4057343707 -0.4761668445 -0.0197403542 0.0019892608 -0.0116531333
-0.0974279140 0.9021252729 -0.4685094024 -0.0198233101 0.0010380082 -0.0121792565
0.4376833144 1.0609829085 -0.3683358642 -0.0176808628 0.0031747607 -0.0141269240
0.1193624490 1.7911661464 -0.4790763454 -0.0198011602 0.0023993036 -0.0116217221
0.4558945383 0.4872962812 0.5618238210 -0.0192951915 0.0025098384 -0.0118664148
0.1434485481 1.0057657577 -0.2829246714 -0.0198150884 0.0000001865 -0.0139520585
0.0199812123 1.0029725680 -0.4663471060 -0.0198199953 0.0023093055 -0.0116268225
-0.1674266462 1.9005470269 -0.4810554963 -0.0198509263 0.0024233835 -0.0116222419
0.3551333926 1.8262255761 -0.5327486498 -0.0175222309 0.0023283410 -0.0140600291
0.3539175608 1.6111958959 -0.5429709949 -0.0175858529 0.0023216112 -0.0144480899
-0.3115316268 0.9793477580 0.5659214465 -0.0197621800 0.0035209460 -0.0130102351
0.4137444995 0.8624621021 0.5056425267 -0.0208424412 0.0005966568 -0.0139585785
0.3906683122 1.0013726570 0.0995966850 -0.0204530681 0.0001549115 -0.0141331666
-0.2199369876 1.0046924874 -0.0025187443 -0.0195881281 0.0000480504 -0.0141346934
-0.3595331788 2.1702290156 -0.5379210724 -0.0197999178 0.0036543580 -0.0135054366
0.0982613496 1.0046924151 0.4687801938 -0.0196449154 0.0046434229 -0.0139134886
-0.4932104513 1.0266420508 0.5452465814 -0.0217445991 0.0013751816 -0.0134755172
-0.4219319601 1.0816178982 0.1790140059 -0.0198505323 0.0046620832 -0.0139521121
0.4160755726 1.6089625670 -0.5480782221 -0.0182013168 0.0022942328 -0.0151941009
-0.3392120867 1.0041020359 0.4961456162 -0.0196972829 0.0000561765 -0.0143281562
0.1991687375 2.0565320089 -0.5672919682 -0.0198478633 0.0023287024 -0.0162821385
-0.2542271772 1.0046924874 -0.2492029350 -0.0198815962 0.0046564839 -0.0139845723
0.4501542126 0.6294203859 0.4918916293 -0.0202359170 0.0035677423 -0.0149695136
0.2833535155 0.9060034698 0.4926283416 -0.0198073166 0.0009830834 -0.0158153878
0.1432814591 1.0046924874 0.3166168895 -0.0201989042 0.0000958351 -0.0142242439
-0.4114553625 0.7576092728 0.5154493883 -0.0190420486 0.0019848994 -0.0143463362
0.3974159622 1.5351302663 -0.5559294090 -0.0190396826 0.0021544710 -0.0160465207
0.4813456182 0.5699362641 0.5111574842 -0.0180930082 0.0027817767 -0.0142595457
-0.3895134823 0.9478446950 0.5663619727 -0.0197934490 0.0025812182 -0.0126961090
0.1558311289 1.6277447499 -0.5594877315 -0.0198463784 0.0022938132 -0.0162819590
0.1309302522 1.0816178260 0.0966691952 -0.0198320283 0.0046621391 -0.0139514408
0.3287133672 1.7857601736 -0.4859431528 -0.0194602781 0.0023942358 -0.0116557977
-0.4567528977 1.0046924874 0.4186263038 -0.0203990059 0.0039235083 -0.0127436908
-0.4586821427 1.0816178982 0.1815053892 -0.0198522107 0.0046620762 -0.0139522054
-0.1867215440 1.0816178982 0.0837984784 -0.0198395670 0.0046621368 -0.0139514921
-0.4790564811 0.1983343159 0.5185971342 -0.0212555563 0.0023310731 -0.0150073376
-0.2849628860 2.0416199131 -0.5644410845 -0.0198947318 0.0023434091 -0.0162798331
0.0827120456 1.0046924874 -0.2350177704 -0.0198285130 0.0000221965 -0.0140530942
-0.3129892235 1.0046924874 -0.4202605725 -0.0192673934 0.0000887952 -0.0139673037
0.3836560645 1.5936651845 -0.5577472521 -0.0193037885 0.0021747956 -0.0161056413
-0.3818491052 0.2544355961 -0.4859409476 -0.0187138405 0.0022953167 -0.0129598769
-0.1739390583 2.0627429876 -0.5657403617 -0.0198489356 0.0023542905 -0.0162819754
0.4372752274 1.0816178982 0.5051513509 -0.0198224989 0.0046620738 -0.0139406992
-0.0141328577 1.0816178982 0.2016404174 -0.0198353710 0.0046621461 -0.0139512403
0.4651972028 0.9021252729 0.3984319825 -0.0184849245 0.0011729703 -0.0139745790
0.3620148881 0.1330913574 -0.5701358074 -0.0209083477 0.0022611945 -0.0158083246
0.2355462258 1.3655838285 -0.5546966117 -0.0198502037 0.0019719176 -0.0162539302
0.0343379090 1.6677077713 -0.4755293706 -0.0198172609 0.0023734426 -0.0116206754
-0.3925105919 0.9047889901 0.0778744198 -0.0177341721 0.0015656326 -0.0138209077
-0.3313132363 1.0046924874 0.4666962914 -0.0196960475 0.0000482206 -0.0143090763
0.2350956154 0.9330047342 0.5628331360 -0.0198062093 0.0015708146 -0.0119394986
-0.0233362372 1.0046924151 0.0606808889 -0.0197787493 0.0046522577 -0.0139904816
-0.0378463837 1.8210754175 -0.4787939965 -0.0198296692 0.0024077211 -0.0116216871
0.4160755726 1.0217588770 -0.5271446616 -0.0177630611 0.0023411480 -0.0147002351
0.0184358484 1.5305271663 -0.4738741502 -0.0198191911 0.0023547241 -0.0116203864
-0.4306520358 1.0718773020 -0.4387554623 -0.0214225544 0.0040291176 -0.0141216767
0.3554676731 1.1010198412 -0.4838132583 -0.0218900208 0.0021245167 -0.0131668995
-0.2653698463 1.3120442717 -0.4742423992 -0.0197675834 0.0020088651 -0.0118236513
-0.0175564977 0.9903785263 -0.4661033504 -0.0198203100 0.0021499160 -0.0116753064
0.0243748584 1.0049098879 -0.4159300752 -0.0198309956 0.0000000396 -0.0139533033
-0.4210346508 1.0816179705 -0.0065888444 -0.0198458352 0.0046621205 -0.0139518650
-0.3945850674 1.5451507219 -0.4834890084 -0.0203429296 0.0023940680 -0.0117827712
-0.4470666154 1.0395196489 -0.3483456027 -0.0221239416 0.0020191359 -0.0141020607
0.3167766134 0.9657360793 0.5623716604 -0.0199965857 0.0021467924 -0.0118338124
-0.4205337288 1.0816178982 0.4670327072 -0.0198463504 0.0046621111 -0.0139513615
-0.1504987573 2.1702290156 -0.5271302555 -0.0198274454 0.0043519129 -0.0134792283
0.1565622210 0.9021252729 0.5083532686 -0.0198339957 0.0010197536 -0.0150481733
0.0866093271 1.0816178982 0.3266371306 -0.0198347836 0.0046621321 -0.0139475805
0.1278970296 2.1307271155 -0.5734087575 -0.0198576724 0.0020650440 -0.0159943885
0.4514161437 0.9263058876 0.5618238210 -0.0189302200 0.0025935192 -0.0122945467
-0.4571608424 0.9394640584 0.1225024685 -0.0219285604 0.0015690336 -0.0141399127
0.4160755726 1.1832351258 -0.5339605677 -0.0178238135 0.0023186554 -0.0148734011
0.4160755376 0.5685393149 -0.5135663102 -0.0177339693 0.0023196928 -0.0140343547
0.0535181622 1.0051122763 -0.1627352813 -0.0198272566 0.0000000746 -0.0139502426
0.2719677294 1.6302829785 -0.4787820800 -0.0196859050 0.0023685847 -0.0116310254
-0.4277728739 2.0714209129 -0.5305939993 -0.0215819881 0.0023313178 -0.0141027927
0.4443904130 0.9142502958 -0.0305787588 -0.0180143764 0.0015681128 -0.0141537733
0.4813456182 0.5396257710 0.5336473810 -0.0179081494 0.0023682467 -0.0135882316
0.3554676731 0.8914346898 -0.4794444894 -0.0216958844 0.0021688024 -0.0127175735
-0.0415912829 1.0816178982 -0.1415012850 -0.0198359305 0.0046621438 -0.0139512753
-0.1030567561 2.1462403321 -0.5092084600 -0.0198037640 0.0024759259 -0.0120117782
0.2067239178 1.6567576745 -0.4769805988 -0.0197834953 0.0023704589 -0.0116211486
0.0057757976 1.3517935896 -0.5394009705 -0.0198289093 0.0001474753 -0.0146274986
-0.3097652702 1.0816178982 -0.3847335133 -0.0198424528 0.0046621298 -0.0139520538
-0.3964018078 1.6727086783 -0.4886388453 -0.0203743081 0.0022126103 -0.0117877924
0.3600748292 1.0085044538 0.0202636579 -0.0197158523 0.0000072543 -0.0139570750
-0.2202918819 1.7904021163 -0.4779486561 -0.0198669827 0.0023974877 -0.0116215472
0.0145967715 1.0048365430 -0.2266068112 -0.0198324013 0.0000000256 -0.0139507904
-0.0367597400 1.0816178260 0.3044138969 -0.0198350727 0.0046621088 -0.0139469208
-0.3560909181 0.9766900876 -0.4639051275 -0.0198206526 0.0019766707 -0.0117280073
-0.3696815776 0.3231105702 -0.4834046375 -0.0180379715 0.0022971163 -0.0129393658
-0.3431606424 1.0816178982 0.2205035561 -0.0198483505 0.0046620902 -0.0139519816
0.4137444995 0.9074902701 0.5481613482 -0.0205038575 0.0022496067 -0.0123447230
0.4160755726 0.8617942520 -0.5276059600 -0.0177593757 0.0023308936 -0.0146317248
-0.0558780030 1.5339194860 -0.5573991343 -0.0198464973 0.0022867314 -0.0162818308
0.2521499813 1.0046924874 0.0169333331 -0.0201709057 0.0000692981 -0.0141226558
0.4160755726 0.8957336034 -0.5231577294 -0.0177489931 0.0023343412 -0.0145061033
0.3701705504 1.0816178982 0.3939848895 -0.0198212098 0.0046620878 -0.0139519186
-0.3114455123 1.5560881563 -0.4769377024 -0.0200808517 0.0023692887 -0.0116431283
0.4178293204 0.9712255675 -0.4060974249 -0.0188430332 0.0034893110 -0.0140894473
-0.4121840722 1.0816178982 -0.0403270242 -0.0198454459 0.0046621205 -0.0139518417
0.4689214207 1.0690244975 0.1546203474 -0.0182454557 0.0039908717 -0.0140632717
-0.4532477867 0.3094563144 0.4965537754 -0.0199868885 0.0020207093 -0.0155206632
0.2327260190 1.8291765514 -0.5627714581 -0.0198462292 0.0022932980 -0.0162819544
-0.3671649744 1.0248825055 -0.4655647583 -0.0210682290 0.0014217168 -0.0147978324
-0.1279207273 1.0816179705 -0.4197484801 -0.0198378700 0.0046621391 -0.0139513918
-0.2102813497 1.0046924874 0.1807867823 -0.0196920194 0.0000344393 -0.0142071292
0.0289034247 1.0046924874 0.3690774858 -0.0196779630 0.0046448705 -0.0139138755
-0.3678699585 0.7747744719 -0.5436492672 -0.0181005026 0.0023594096 -0.0153609917
-0.0537537218 1.0046924874 0.4313749307 -0.0200184815 0.0000834734 -0.0142757024
-0.1344038821 1.0816178982 -0.1634171271 -0.0198380425 0.0046621391 -0.0139514011
0.1234889821 1.6201622169 -0.4758919644 -0.0198011229 0.0023680346 -0.0116208339
-0.4397331761 0.3703480943 0.5664859671 -0.0197843975 0.0025838966 -0.0121708436
-0.0326877890 1.0816179705 0.1757275915 -0.0198357883 0.0046621438 -0.0139512659
-0.1133864332 1.0046924874 -0.2548368169 -0.0197978105 0.0046498497 -0.0140015052
-0.4277728739 0.8317725090 -0.4849226323 -0.0219250498 0.0023276837 -0.0134107111
-0.3971287390 0.7859417548 -0.4663113940 -0.0203190407 0.0022884540 -0.0119645390
-0.4323752629 1.0816178982 0.2204205722 -0.0198522364 0.0046620715 -0.0139522030
-0.3654397193 1.6844647762 -0.5033876424 -0.0221064143 0.0023401526 -0.0135029796
-0.3899215343 0.9362378463 -0.5376861725 -0.0193509298 0.0023576823 -0.0153109529
-0.4626310177 0.8772719710 0.5664859671 -0.0203296564 0.0034316472 -0.0122593382
0.0334134217 1.0289288754 0.5693904188 -0.0198273615 0.0013588384 -0.0118572327
-0.1925365293 1.0816178982 -0.0299251678 -0.0198393945 0.0046621368 -0.0139514827
-0.4703270158 0.9476375395 0.3474253534 -0.0219411599 0.0016485185 -0.0141082334
-0.1519609695 1.0057360924 0.1487647245 -0.0198561642 0.0000002191 -0.0139474546
-0.0751513011 1.0816178982 0.2619318737 -0.0198379166 0.0046621345 -0.0139513848
0.0878338654 1.9635850234 -0.5642920847 -0.0198444995 0.0022944985 -0.0162819008
-0.4657500587 0.6210820769 0.4965537754 -0.0210747676 0.0018897357 -0.0151412508
-0.4862078426 1.0258317092 0.3506030838 -0.0220446688 0.0016012421 -0.0140751741
-0.2281156274 2.1702290156 -0.5686069662 -0.0198349841 0.0036077272 -0.0156669031
0.0799443859 1.5646569547 -0.4748955961 -0.0198094239 0.0023610810 -0.0116206078
-0.0238733770 1.2935678417 -0.5477669539 -0.0198517562 0.0009620548 -0.0152147938
0.4813455832 0.0657178634 0.5454770010 -0.0180150944 0.0020691653 -0.0132389809
0.1037849134 1.0816178982 0.1017328570 -0.0198326950 0.0046621415 -0.0139513918
0.4160755726 1.5495930501 -0.5133082907 -0.0178327019 0.0023378914 -0.0139288993
-0.2729513281 2.1312361845 -0.5068808719 -0.0198050391 0.0021504848 -0.0118027392
-0.0595298108 1.0046924874 0.4695880808 -0.0200320250 0.0000880330 -0.0142880011
-0.2298062917 1.0816178982 0.0309401427 -0.0198405717 0.0046621345 -0.0139515527
-0.2808468007 0.9754051815 0.5657480449 -0.0197957778 0.0033151519 -0.0128760026
0.4186314450 0.9021252729 0.2817043594 -0.0208207016 0.0012039410 -0.0137453972
0.1325381821 1.3343499531 -0.5496333485 -0.0198418281 0.0034716088 -0.0155402978
0.3685529256 0.3396625922 -0.4874554527 -0.0211274289 0.0022821928 -0.0125239919
-0.1094059208 1.4894730209 -0.5564972375 -0.0198475649 0.0022823933 -0.0162817422
0.4755761261 0.9497883460 0.4103231731 -0.0186475611 0.0027609066 -0.0140433340
-0.2736969521 1.5636237369 -0.4747025250 -0.0199168793 0.0023626055 -0.0116254728
-0.1053702739 1.9592300544 -0.4830954696 -0.0198408724 0.0024580513 -0.0116249996
-0.1278179946 1.0046924874 0.1235765734 -0.0197592126 0.0046486888 -0.0139213653
0.4344602329 1.0816178982 -0.1317510405 -0.0198243124 0.0046621205 -0.0139520002
-0.3902576657 1.5799324275 -0.4848932864 -0.0202614749 0.0023795501 -0.0117654257
0.4813456531 0.2706089633 0.5431613643 -0.0183506500 0.0023387609 -0.0128323835
-0.3285889439 1.7442924282 -0.4816463021 -0.0201730060 0.0023885550 -0.0116534550
0.0760654500 1.0052818013 -0.3532655562 -0.0198240863 0.0000001026 -0.0139526832
-0.1441351237 0.9793205847 -0.5344970595 -0.0198423410 0.0020099607 -0.0161846018
0.3817526781 2.1772222348 -0.5594869482 -0.0197847658 0.0046344670 -0.0140744235
-0.4127869367 1.0330457415 -0.5341108473 -0.0207152789 0.0023616707 -0.0153306714
0.4400035387 0.9021252729 0.4512478460 -0.0201092069 0.0011151271 -0.0137799694
-0.2886291440 1.0046924874 0.0039063878 -0.0197995634 0.0046490362 -0.0138857978
0.1586337804 1.4489112961 -0.5568073308 -0.0198439634 0.0022640058 -0.0162800592
0.1291431397 1.0046924874 0.4579903023 -0.0202579083 0.0001137494 -0.0142691567
0.4160755726 0.9220823119 -0.4900378248 -0.0176647947 0.0023456842 -0.0134527846
0.4117494507 1.4601330002 -0.5536963996 -0.0186869842 0.0022316202 -0.0159116564
-0.3671649744 0.8479521537 -0.4792247415 -0.0177425593 0.0020057392 -0.0130312101
-0.3616283915 0.9935764252 0.5662044364 -0.0196854388 0.0041314167 -0.0133523503
-0.3292710578 1.0046924874 0.2752523291 -0.0195990515 0.0000443999 -0.0142404122
-0.4133992629 1.3501578267 -0.4756166227 -0.0206979380 0.0025149411 -0.0118588831
0.4160755726 2.0731327946 -0.5401524805 -0.0181774536 0.0023578781 -0.0134702607
0.4094658266 0.9896135007 0.4191536555 -0.0208145150 0.0003354857 -0.0141747389
-0.4754405019 0.9218220150 0.4347808732 -0.0218477398 0.0013094686 -0.0139268666
-0.4608863401 1.0701634994 -0.0071260565 -0.0214462451 0.0040127838 -0.0140499985
-0.0820894044 1.0046924874 0.5574832580 -0.0197937707 0.0041152274 -0.0131319754
-0.4651740832 0.9898523145 0.2593961883 -0.0218587658 0.0024238334 -0.0143078152
0.4332137056 0.9394127678 0.4918916293 -0.0203676669 0.0016291333 -0.0143478397
-0.3671649744 0.1522306910 -0.5328263328 -0.0179589831 0.0022869901 -0.0136746002
-0.4388545061 1.0750104647 -0.2261678655 -0.0214306059 0.0040018044 -0.0140490125
0.1701851052 1.3508165716 -0.5335387507 -0.0198351846 0.0002182211 -0.0142255610
0.3956658438 1.0816178982 -0.2974582569 -0.0198260304 0.0046621275 -0.0139518627
0.0132174593 1.0046924874 -0.1452483288 -0.0197916704 0.0000256931 -0.0140861465
0.3171502681 1.8841145539 -0.5634365692 -0.0197175819 0.0022902233 -0.0162776023
0.2017077656 2.1001314972 -0.5734786151 -0.0198478609 0.0013323738 -0.0160241983
0.4025279168 0.7748473902 -0.4713833357 -0.0197855886 0.0022785773 -0.0120222004
0.3174947937 1.9939507209 -0.5655312854 -0.0197266218 0.0022994917 -0.0162782573
0.3356982621 1.0816178982 -0.3152945253 -0.0198273988 0.0046621298 -0.0139517648
-0.3820626991 2.0461157372 -0.5691791700 -0.0201778756 0.0020634309 -0.0161580602
-0.0989213556 1.0046924874 0.2972156924 -0.0198904030 0.0000579784 -0.0142378154
0.3766897715 0.9032627806 -0.1380391940 -0.0219338869 0.0014241877 -0.0137379821
-0.4674260490 0.2838186018 0.4965537754 -0.0206007393 0.0020937185 -0.0157516935
0.1723438793 2.0254212025 -0.4905335554 -0.0197981671 0.0026324155 -0.0116465853
-0.2930765401 1.0816178982 0.4250074461 -0.0198427978 0.0046621158 -0.0139481120
-0.0059553485 1.5905487403 -0.5583618908 -0.0198455275 0.0022916103 -0.0162819287
-0.1371268691 1.5505879964 -0.4738177010 -0.0198466255 0.0023593490 -0.0116204889
-0.3826760930 1.1779164423 -0.5403789139 -0.0190178241 0.0020800142 -0.0155888541
0.1485169653 1.8193024989 -0.5619145207 -0.0198449214 0.0022936733 -0.0162819684
-0.3671649744 0.0909667693 -0.5298835022 -0.0177311114 0.0021466083 -0.0138684686
-0.4761864267 0.0000000000 0.5241126605 -0.0213382744 0.0016586284 -0.0138416659
-0.0831464994 1.0046925596 -0.0879581827 -0.0198276295 0.0046551972 -0.0140113144
0.2232416310 1.5541800727 -0.4761793297 -0.0197834720 0.0023608012 -0.0116209831
-0.3435687293 1.0816179705 -0.0477659749 -0.0198434739 0.0046621275 -0.0139517252
0.0191405318 1.0816178982 -0.1180116936 -0.0198345575 0.0046621461 -0.0139512613
-0.1959773656 0.9463939633 0.4953363795 -0.0198236015 0.0006004984 -0.0152008540
0.3682288901 0.9202595247 -0.2818743459 -0.0217896355 0.0013588408 -0.0138821613
0.1869204847 1.9294983435 -0.4835781463 -0.0197901249 0.0024360599 -0.0116231137
0.1667672276 1.0816178982 0.3774981399 -0.0198346904 0.0046621042 -0.0139429603
-0.3739854681 1.0046924874 -0.2251879663 -0.0198748431 0.0046536890 -0.0139210762
-0.1765483729 1.9783825842 -0.4848638356 -0.0198517818 0.0025065236 -0.0116313238
-0.3671649744 0.0287685931 -0.5342594579 -0.0180359039 0.0018487974 -0.0143158388
-0.4281601887 1.0544971220 0.5751882218 -0.0199016062 0.0029154777 -0.0118108444
-0.1393534751 2.0394035149 -0.5649067933 -0.0198483481 0.0023386770 -0.0162819800
-0.2507168026 2.0771877009 -0.5662562235 -0.0198502829 0.0023658014 -0.0162819427
-0.3324456226 1.0816179705 -0.3149763222 -0.0198425298 0.0046621298 -0.0139516739
0.2391237726 2.1702290156 -0.5324415426 -0.0198440007 0.0040387356 -0.0132064135
-0.1496179987 1.0816178982 0.5199119899 -0.0198349561 0.0046619386 -0.0139229481
0.2236429416 1.5272179354 -0.5582251617 -0.0198445648 0.0022877501 -0.0162818635
