0.3374911698 0.6261698113 -0.1602176321 0.0270211321 -0.0040802830 0.0083811226
0.2165213774 0.6686661887 -0.1271597642 0.0127511132 -0.0185064906 0.0149021226
-0.2984486038 0.5283018868 0.1095597075 0.0031493962 -0.0176854340 0.0154688585
0.2231569434 0.7212729623 -0.3007222170 -0.0020313774 0.0015395660 0.0286634057
-0.2504689057 1.0031395660 -0.2524182925 0.0185609245 -0.0010402075 0.0302289528
-0.3476556038 1.1087796226 -0.1384876698 -0.0055552075 -0.0016212075 0.0029473491
-0.2938064717 0.6154713208 0.2537898019 0.0224465472 0.0119200377 0.0078523491
-0.2459264340 1.1230828679 -0.2263876321 0.0208972264 -0.0044585283 0.0277451226
-0.0352342075 0.6603773585 0.3035278208 0.0094016604 -0.0188521698 0.0140827830
0.0075003962 0.0943396226 -0.0757320849 0.0094339623 0.0187304717 0.0115956698
-0.0263563208 0.5603356226 0.2981112736 0.0103741887 0.0178910000 0.0079929151
-0.0081297358 1.0977681698 -0.3068980283 0.0101093019 -0.0014482453 0.0326129151
0.2851167358 0.5209657925 -0.1201878019 0.0185647358 -0.0158934151 0.0114763113
0.3196902075 0.7305998113 0.2847422170 0.0143064151 0.0098614906 0.0290200660
-0.0714146226 0.6150485283 0.3534793302 0.0094339623 0.0000000000 -0.0050112358
0.0767843396 0.6223163208 0.3915403679 0.0116084151 0.0117763774 0.0280300094
0.2728028113 0.5867038302 -0.1422472358 -0.0044211132 0.0113396981 0.0196516887
0.3113207547 0.8026657170 -0.2111672736 -0.0068342642 0.0011331509 0.0232643113
0.1685860943 1.1086849057 -0.3027936698 0.0159767170 0.0056967925 -0.0028078962
-0.3511790189 0.6436318491 0.3064514623 -0.0050781132 -0.0081644906 0.0197411226
0.2031626792 0.9767682075 -0.2855053679 0.0009986604 -0.0022265472 0.0304788585
0.0674820000 0.5428206981 0.1894886698 0.0078309623 0.0185572642 0.0109254057
0.3679245283 0.6145370755 0.0495943868 0.0272547170 -0.0060312075 0.0128312170
-0.1078045472 0.7547169811 0.1277334057 0.0105896604 0.0188034717 0.0138084623
0.2857115849 0.6923846792 0.1944486321 0.0150639623 -0.0179396226 0.0151391038
-0.3858227925 1.0695278302 -0.0456560660 -0.0084483396 -0.0000501321 0.0078457830
-0.1758435660 0.7621629811 0.2141186509 0.0114128868 0.0187512830 0.0138932736
-0.3679245283 0.9377884717 0.1177815377 0.0282778679 0.0001636604 0.0139794434
-0.3210501321 0.6128016038 -0.0680587453 0.0262896792 0.0077612830 0.0159548774
0.0593102642 0.5193633585 -0.1202005566 0.0074320943 0.0184285660 0.0168199717
0.1290758868 0.5556039245 0.2711445943 0.0070897170 0.0181427925 0.0094781981
0.3867924528 0.7448087736 0.1522100472 0.0282475283 -0.0004112830 0.0142679717
-0.2598305849 0.5222861132 0.1665228962 0.0046546226 -0.0178873962 0.0171398208
0.1105925660 0.4905660377 0.0608114623 0.0112785660 -0.0186616981 0.0157521792
0.0839361887 0.8875997925 -0.3632191604 0.0090640943 0.0023788679 -0.0048552925
0.2548930377 0.5283018868 0.2348223113 0.0144976604 -0.0180143774 0.0151277075
-0.3490566038 0.6086245094 -0.1596597453 -0.0081312830 -0.0039634151 0.0084391038
0.2141041698 0.9274691509 -0.3257339906 0.0162509434 0.0037372830 -0.0033062170
-0.3103694528 0.7713234340 -0.2816294811 -0.0054183396 0.0018097925 0.0024829717
0.0542604717 0.8796085094 -0.3627440472 0.0094053774 0.0032283208 -0.0047141038
-0.2326542264 0.7547169811 -0.1364186132 0.0086764151 0.0185593774 0.0116085755
0.0583827170 0.5872672075 -0.2954984623 0.0066652642 0.0133191509 0.0266676509
-0.3240511887 1.1840490755 -0.1809600283 -0.0047029623 0.0000000000 0.0014851604
-0.1003436981 0.0754716981 0.2318554434 0.0094339623 0.0187942642 0.0148932925
0.0127018302 0.4716981132 0.0554592170 0.0096211887 -0.0185765283 0.0166886698
0.3031200943 1.1541110377 -0.1830232170 0.0184966226 -0.0069254717 0.0010250472
0.2279632830 0.7735849057 0.2436815755 0.0082542453 0.0187257170 0.0151530849
-0.1236777925 0.6401208868 0.3435272170 0.0132337736 -0.0039672264 -0.0034216321
-0.1102057736 0.0435594717 0.1965323868 -0.0073644340 0.0005401321 0.0053224623
0.3867924528 0.7243336415 0.0424564623 0.0283018868 0.0000000000 0.0138566887
0.3490566038 0.6685279245 -0.1515471038 0.0271160566 -0.0025871887 0.0080375189
0.1911659811 0.0362934717 0.3336245566 0.0255173962 0.0013739811 0.0044127264
0.0548560189 0.7547169811 -0.0955931604 0.0092823774 0.0188617358 0.0138291226
-0.2405320943 1.0214879811 -0.2843785943 -0.0009251887 0.0043280566 -0.0012842925
0.1594083585 0.5628725472 0.2506132170 0.0054672453 0.0180925849 0.0103668774
-0.3228837170 1.0083813962 -0.1516966321 0.0268316792 -0.0032142075 0.0198053302
0.2448090943 0.7735849057 0.0820825943 0.0079982642 0.0187554717 0.0138321415
0.3711183208 0.6396836981 -0.0074525000 0.0274890943 -0.0048398868 0.0115270849
-0.0112913396 0.0801655849 -0.0031538585 -0.0028996604 0.0000000000 -0.0000036887
0.1348145660 0.5283018868 0.0107822358 0.0065009245 0.0186169623 0.0131922358
0.2225934906 0.7688849057 -0.0851148208 0.0084601321 0.0186575472 0.0118330660
0.0834865283 0.7260473019 -0.3446338774 0.0063547358 0.0005076415 0.0324243113
-0.2114780000 0.6037735849 0.3908541415 0.0046616604 -0.0124079434 0.0270827264
0.0207249057 0.6603773585 0.0264933113 0.0094339623 -0.0188679245 0.0138566887
0.2549249623 0.8519138113 -0.2689541981 -0.0031022642 -0.0016673208 0.0278471604
-0.3811886981 0.6303019245 0.0924278396 -0.0086707547 -0.0047274528 0.0156671038
-0.0649306981 0.5124094906 -0.0923850849 0.0111190189 0.0186138302 0.0161229906
-0.1136253208 1.3018867925 -0.3012154245 0.0064419434 0.0182510755 0.0120817453
-0.0813108302 0.5978904151 -0.3472650849 0.0077298868 -0.0087995094 -0.0025760660
-0.2734459811 0.6485222075 -0.3013820094 -0.0020249057 -0.0060959057 0.0005297453
-0.2952638679 0.5688487736 -0.0465490094 0.0203974906 0.0151224340 0.0152468962
-0.0831082264 0.6603773585 -0.2023710094 0.0092040755 -0.0187735472 0.0125191038
-0.3079590755 0.7735849057 0.1553391981 0.0071082453 0.0186233208 0.0143957830
-0.2189799623 0.8242319245 -0.3439675943 0.0030214151 0.0021652642 -0.0037321604
-0.2596549245 0.7975290377 -0.2761271604 0.0198585094 -0.0001790189 0.0294745755
0.1067255472 1.0159840943 -0.3078592925 0.0058241887 -0.0026456604 0.0321757264
-0.2874915660 1.0573279245 -0.1986517453 0.0256977170 -0.0041244528 0.0224006321
-0.2492383774 0.9024994340 -0.2813354434 0.0196198868 -0.0029972830 0.0292150660
-0.2816298679 0.6869829245 -0.0674643868 0.0043950189 -0.0180940566 0.0148480660
-0.1262543962 0.6603773585 0.2103503679 0.0077614340 -0.0187735660 0.0140425189
0.2133519434 1.2376636981 -0.2411430094 0.0003763019 0.0044326981 0.0291585755
-0.3697227170 0.9893389245 -0.0786205377 -0.0085228868 0.0024177358 0.0086550283
0.1836595283 1.0016960943 -0.3205760660 0.0150603019 0.0039569623 -0.0036269151
-0.3205371698 0.5283018868 0.1114220660 0.0017918302 -0.0170737925 0.0158643113
-0.1224357736 0.6539519623 -0.3173348585 0.0131448868 0.0051234906 0.0314167453
-0.1848405849 0.5563291132 -0.2895374811 0.0041730189 -0.0146128302 0.0034741981
-0.2080474717 0.9519547547 -0.3225170849 0.0016313208 0.0035744717 -0.0029137264
0.3800769245 0.6479117170 0.1187312736 0.0275206038 -0.0046494151 0.0157368208
-0.3139179811 0.7414258491 -0.2262318585 0.0247108679 0.0012865660 0.0245971038
0.1610810755 0.4905660377 0.0321565000 0.0122119623 -0.0185622453 0.0150552547
-0.1243905660 0.8773030000 -0.3574202736 0.0058410943 0.0025427925 -0.0044754245
-0.0786713208 0.4766859434 -0.0311969717 0.0072490566 -0.0185391509 0.0112551604
-0.2707566981 1.2568339245 -0.2241092736 0.0105260377 0.0151514151 0.0249602736
0.1679875283 0.7603033585 -0.0093723113 0.0074287547 0.0187561321 0.0142139528
-0.2737742264 1.2357311698 -0.2312369906 -0.0039192642 0.0000196226 0.0005329151
0.1929321321 0.7650015472 0.0173531604 0.0074230943 0.0187586226 0.0140175755
-0.1914401509 0.0598224340 0.3212652925 -0.0068722453 -0.0000366981 0.0043808396
-0.1776481509 0.6676051321 -0.0486518774 0.0070858679 -0.0186528868 0.0146635377
-0.0239233962 0.6603773585 -0.1819484434 0.0093506604 -0.0188344340 0.0132735189
-0.4056603774 0.8583358113 0.1659312170 -0.0084401321 0.0031388302 0.0169955189
-0.2325951132 1.2464628491 -0.2330532736 0.0197251321 0.0000000000 0.0296572358
0.2197605660 1.1591719057 -0.2489045566 0.0180842830 0.0000000000 -0.0028880660
-0.0478778113 0.6603773585 -0.1220701415 0.0094339623 -0.0188679245 0.0138566887
-0.2541043774 1.0247979811 -0.2506005566 0.0182598491 -0.0003339057 0.0304470283
-0.2220036038 0.6046446226 -0.2576525189 0.0161270189 0.0118128113 0.0269051226
-0.4056603774 0.9826262830 0.0567038396 -0.0093529811 0.0000000000 0.0129986698
-0.0640126226 0.5420274906 -0.2108569717 0.0105635849 0.0180394906 0.0190868774
0.2914390000 0.5352536604 -0.1688927264 0.0196307170 -0.0147450000 0.0085335000
-0.0381164340 0.7547169811 0.0796557453 0.0094339623 0.0188679245 0.0138566887
-0.2686965849 0.9458770000 -0.2797999340 -0.0017470566 0.0041184906 -0.0007294057
-0.2547189811 0.7735849057 0.0646599717 0.0102944906 0.0187314340 0.0138566887
-0.2024510755 0.7706789057 0.2854368585 0.0107097547 0.0186992453 0.0156215000
-0.3533405472 1.1153074340 -0.0224231415 0.0186471509 0.0113206792 0.0250726509
0.3833795849 1.0671945283 0.0042861226 0.0245952642 0.0086847358 0.0205367642
-0.0854422642 0.6205803585 0.4100831038 0.0082595472 0.0070465283 0.0305369151
-0.3867924528 0.6828990377 0.1641117075 -0.0091195283 -0.0024807736 0.0156741792
-0.3014086226 0.6504651887 0.2834347453 0.0237590943 0.0101150000 0.0082798208
-0.4056603774 0.8267764717 0.0753794811 -0.0094339623 0.0000000000 0.0138566887
0.3439362453 0.8303557358 -0.1901836509 0.0270219623 0.0012405094 0.0072359528
0.3161802453 0.6232029811 -0.2271283113 0.0256546038 -0.0053047170 0.0062602358
0.1676726981 0.7632886792 -0.0643312736 0.0078002264 0.0187494528 0.0128171604
-0.0283018868 0.3829085849 0.0271736509 -0.0087505849 0.0000000000 0.0180678774
0.1389802075 1.1369155283 -0.2982251038 0.0145178113 0.0063140943 -0.0029844811
-0.1034353962 0.7547169811 0.3261655566 0.0096892642 0.0184744717 0.0166050472
0.1387865660 0.7547169811 -0.1942261792 0.0095586415 0.0187490755 0.0122727264
0.0590770377 0.7547169811 0.0787853113 0.0094339623 0.0188679245 0.0138566887
-0.3490566038 0.7567433019 0.0751363491 0.0280394906 0.0022620000 0.0141872736
0.2510423585 0.5743198679 -0.2672012547 0.0172068679 -0.0122482642 0.0022822547
-0.3494253774 0.8360504340 -0.0324393113 0.0280982075 0.0009747358 0.0162928208
0.0003630943 0.7547169811 -0.2269372925 0.0091956604 0.0185218491 0.0107956698
0.2505142264 0.8521447736 -0.3184333491 0.0188834151 0.0012151509 -0.0022233302
-0.2407652453 0.5471698113 -0.0758677642 0.0149317547 0.0179722830 0.0148737264
-0.1773508868 0.6735752830 0.3345283868 0.0036586792 -0.0171391132 0.0186013302
-0.1004116981 0.7547169811 0.1012994623 0.0103749434 0.0188162264 0.0138566887
-0.1208290377 0.5276977170 -0.0148891415 0.0117569434 0.0187066226 0.0132646509
0.1035202453 0.4905660377 -0.0801476321 0.0105512453 -0.0187727170 0.0131441981
0.1056385094 0.6603773585 0.2429998208 0.0105238113 -0.0188074528 0.0139127264
-0.2457795849 0.7585018868 0.2940025000 0.0064713019 0.0167137358 0.0211840283
-0.2606378679 0.6037459057 0.2720591038 0.0197553208 0.0143005094 0.0072576887
0.0451944151 0.7547169811 0.1297455943 0.0094339623 0.0188679245 0.0138566887
0.3203276226 0.6217873019 -0.0002485566 -0.0071225283 0.0085316226 0.0151542358
0.1349623962 0.5963543585 -0.3396877264 0.0133947736 -0.0090352075 -0.0020501226
-0.1704430377 0.7730119811 -0.3207331038 0.0140723962 -0.0001984340 0.0320671604
-0.2793522264 0.7227484528 0.3136917075 0.0150471698 0.0141719057 0.0220689151
0.0169100566 0.7547169811 0.2684467830 0.0094339623 0.0188679245 0.0138566887
0.2160836415 0.5768036038 -0.2889204434 0.0158268302 -0.0115083396 0.0004017075
-0.2886051698 0.9153532264 -0.2333501604 0.0238436038 -0.0027088679 0.0255621604
-0.2323508113 0.5019785660 -0.0342024623 0.0056763962 -0.0184733962 0.0136386698
0.0023748302 0.8600270189 -0.3654761981 0.0095061509 0.0041373396 -0.0045384811
0.0158890943 0.5630214906 -0.2789813679 0.0092272453 0.0159583962 0.0237310472
-0.1855320755 1.2000401321 -0.2565848396 0.0169218302 -0.0007452453 0.0310681604
0.3294785660 0.8002642453 -0.2328465943 0.0266783208 0.0004488302 0.0062664057
-0.2297077358 0.7723566415 0.0664906887 0.0113486792 0.0187704528 0.0138566887
-0.3608273585 0.7463987736 -0.1772461415 -0.0081502453 -0.0003793019 0.0070354057
-0.2525547358 0.5272207736 0.1956303679 0.0040865660 -0.0179552642 0.0159841226
0.0317636792 0.5709527170 0.3961301604 0.0103484340 -0.0086036226 0.0304696509
0.0870713019 0.5395740377 -0.2010430849 0.0068995472 0.0177138113 0.0194339151
-0.0295130189 0.4905660377 0.1485341792 0.0093393585 -0.0188520943 0.0139918396
0.1637581509 1.0644354906 -0.3107257453 0.0153966604 0.0041518491 -0.0035061038
-0.0923610377 0.6958338868 -0.2691621792 0.0068814528 -0.0046905472 -0.0037292170
-0.1114259811 0.6025881509 -0.2968713491 0.0129393774 0.0107952264 0.0283479906
-0.0329695472 0.5849056604 0.4060370472 0.0076270755 -0.0116813585 0.0284847075
0.4011786792 0.8931913585 0.0892462358 0.0218074151 -0.0096598302 0.0036694811
0.3429994340 0.9425380000 -0.1304139528 0.0271870189 0.0028793396 0.0085475755
0.2686835283 0.5734088868 0.1942464623 -0.0004428868 0.0155208868 0.0103828774
-0.4029978679 0.9922657358 0.0058691226 -0.0089084340 -0.0009343962 0.0097106321
0.2661644340 0.6786036981 -0.1304470472 0.0157999057 -0.0176140377 0.0128991792
0.2951145283 1.2012490377 -0.1492347642 -0.0048932830 0.0055816792 0.0247450094
-0.0820334151 1.1162932830 -0.3121587453 0.0086709057 0.0038063585 -0.0045660472
-0.3891958113 0.8043647547 -0.0355370849 -0.0090737547 0.0003540755 0.0102821415
-0.4739850189 0.0129745849 -0.0551112547 -0.0013209245 0.0000000000 0.0284233679
0.1509449434 0.5440257170 0.1466244434 0.0061060755 0.0183836226 0.0114300660
0.3420451132 0.7703507547 -0.1958569717 0.0270709245 0.0001198491 0.0072047642
0.1824132075 0.5650183774 0.2450637642 0.0059767736 0.0181359811 0.0100397453
-0.0464719811 0.5094339623 -0.0714207642 0.0109158679 0.0186862830 0.0152718396
-0.3490566038 0.7849727170 -0.1078117642 0.0282114906 0.0000846415 0.0149062547
-0.0223286604 0.6603773585 -0.2399129906 0.0091287925 -0.0185199811 0.0105944057
0.0857734340 0.5021147736 0.2137615755 0.0115185849 -0.0184979245 0.0165526509
-0.3284658679 0.8458329623 -0.2520170849 -0.0055755094 0.0008053208 0.0025282170
-0.3530970566 0.7825845660 0.0583391604 0.0277431698 0.0042401321 0.0148523491
0.0096961509 0.5570684151 0.3066430472 0.0094215849 0.0181087358 0.0086101038
0.1249300755 0.0377358491 0.2212887642 0.0102708113 -0.0185169434 0.0124648962
0.1731461321 0.7750773208 -0.3257659528 0.0049963208 -0.0005236038 0.0321678585
-0.0383167736 0.4716981132 -0.0004171038 0.0079058113 -0.0186782453 0.0144211792
0.3217966604 0.9230389057 -0.1975892358 0.0260078113 0.0037866792 0.0057674245
0.3045534906 0.7282428302 -0.2002137642 -0.0073623962 0.0021155472 0.0219072358
-0.0358040377 0.5354316226 -0.2892907453 0.0094339623 -0.0155595472 0.0034588396
0.0496244528 0.0542166415 0.1200644811 0.0078125094 -0.0186887358 0.0118906509
-0.2832818679 0.5283018868 0.1923924434 0.0078293208 -0.0186159623 0.0147189340
0.2316706981 0.5535699057 -0.1144400283 0.0037648302 0.0177891698 0.0161189528
0.0200121132 0.8728990377 -0.3622581415 0.0096139623 0.0039269245 -0.0045912170
0.3485741509 0.7266947925 0.2218862736 -0.0086571698 0.0014563019 0.0091761038
-0.0336024151 0.5962148679 -0.3521733679 0.0083315849 -0.0097039245 -0.0020559906
0.1653988302 1.2452830189 -0.2688399528 0.0024319057 -0.0047154717 0.0298125000
-0.0808090943 0.4905660000 -0.1582852358 0.0084313962 -0.0186530000 0.0114442358
-0.3490566038 0.7991905283 -0.1258778019 0.0280921321 -0.0008498113 0.0156604623
-0.3098626038 0.7692413962 0.2199408208 0.0035565094 0.0157798302 0.0172758019
-0.1664135094 0.0612533208 0.2712120094 -0.0058486981 -0.0034877736 0.0037914434
-0.3280299245 0.7735849057 0.0837087453 0.0063461321 0.0185952264 0.0140118585
0.2924113019 0.5484812075 -0.1896422170 0.0206819434 -0.0131591509 0.0070024245
-0.1495510566 1.1842579434 -0.2745753491 0.0167976226 -0.0013003396 0.0310176887
-0.3867924528 0.7570693585 0.2656007453 -0.0083410000 0.0025169623 0.0188906132
0.2514875094 0.0576416038 -0.0194596887 0.0134068113 -0.0012513585 0.0322508208
0.0684537358 0.7036445849 -0.3446338774 0.0070525660 0.0016679057 0.0323781415
-0.1118614906 0.7547169811 0.2099760660 0.0107067170 0.0187961321 0.0137152736
-0.1126101698 0.5371236981 -0.2918288962 0.0074775472 -0.0148201887 0.0027137642
0.1119643208 0.6816026981 0.3820909717 0.0133523208 -0.0113786792 0.0275021038
0.2467670000 0.7547169811 -0.1470582925 0.0124253774 0.0179424340 0.0098134623
-0.1645429057 0.6348120566 -0.3549800472 0.0056079811 -0.0054252830 -0.0034472736
-0.3490566038 0.8006246981 -0.0346450094 0.0282762830 0.0003086604 0.0140624623
0.0521549245 0.7547169811 -0.0175971038 0.0094339623 0.0188679245 0.0138566887
0.2775078491 1.0060731509 -0.2086354623 -0.0058550377 -0.0023323019 0.0246146321
0.1018073585 0.9932282642 -0.3361830283 0.0115350000 0.0032659434 -0.0045279151
-0.2237128868 1.0360033962 -0.2912422925 -0.0000953774 0.0044407925 -0.0017043679
0.0637736604 0.5149685849 -0.0259095943 0.0063276038 0.0185192453 0.0131316321
-0.3868051887 0.7074707358 0.2118297453 -0.0090175849 -0.0027639245 0.0162996887
-0.2025491698 1.2091006792 -0.2480762547 0.0181103585 0.0000000000 0.0305943302
-0.0241496038 0.6066387170 0.4100831038 0.0096648491 0.0006926415 0.0326300283
-0.0577827170 0.6603773585 0.3032721981 0.0094029057 -0.0188527736 0.0140741038
0.2698154528 0.6860386038 0.0432951792 0.0139622264 -0.0182799623 0.0136943302
-0.3301886792 0.5946845283 -0.1972019906 -0.0061618491 -0.0075275283 0.0065448962
0.1986068679 0.8050594717 -0.3160851792 0.0019939245 -0.0010246415 0.0308791981
0.3490566038 0.6988055472 0.1338332547 -0.0086380377 0.0053525472 0.0140057830
0.1573956038 0.7155198868 -0.3582064245 0.0137927170 -0.0011725472 -0.0042675755
0.0755732830 0.6658504340 0.3644254623 0.0105741509 -0.0170372264 0.0198121792
0.0842720377 0.7547169057 -0.0547032170 0.0087477170 0.0188399245 0.0137319151
0.1974525094 0.5481076226 0.2044115189 0.0043774340 0.0179112830 0.0108254245
-0.2076330943 0.7679416792 0.0478002925 0.0113502453 0.0187702830 0.0138566887
0.2593347170 0.9184622075 -0.2602771792 -0.0027998113 -0.0021089245 0.0279216887
0.2634970377 0.5413616415 -0.2096118019 0.0170175094 -0.0153883396 0.0063529906
-0.0596781509 0.6603773585 -0.2259937642 0.0092094906 -0.0187776981 0.0122853491
0.3867924528 0.8466857358 0.1240814623 0.0263497736 -0.0037602453 0.0100964434
0.2327966981 0.7729744151 0.1836518774 0.0073518491 0.0187509245 0.0136008585
-0.2844482264 0.5769010566 0.1779871981 0.0182498113 0.0164913585 0.0124118962
0.1755690755 0.5082086226 0.1547242736 0.0124343962 -0.0185686038 0.0143136509
0.1320895283 0.5283018868 -0.0457225566 0.0063639811 0.0185819057 0.0142206698
-0.0061856226 0.5094339623 -0.0184798585 0.0098662830 0.0187164340 0.0123322547
-0.3581569623 1.0921214151 -0.1097856887 -0.0071932075 -0.0002604151 0.0052580472
-0.1961570566 0.6974611887 0.3367838774 0.0143062830 0.0169775849 0.0104372170
0.0575770566 0.6603773585 -0.1716365377 0.0095159245 -0.0188304151 0.0133839151
-0.1621907170 0.6645136415 0.1149008019 0.0069756981 -0.0186933019 0.0138984057
-0.0443662075 1.2455827170 -0.3068980283 0.0077294340 -0.0034090377 -0.0045903113
-0.2144288868 1.0815129623 -0.2862856698 -0.0008601509 0.0047672642 -0.0011234811
-0.3192476604 0.6499675472 0.2249491604 0.0265133208 0.0053474528 0.0082170849
0.2894770377 0.5954698491 -0.1132025943 -0.0060635283 0.0099544151 0.0175066698
-0.0175811509 0.5963966792 0.3534793302 0.0094339623 0.0000000000 -0.0050112358
-0.2337168679 0.5471698113 -0.0300888962 0.0147804906 0.0180632830 0.0143398962
-0.1881166981 0.5327375849 -0.0690444434 0.0134439811 0.0183997736 0.0148291604
0.3641619434 0.0513978491 -0.0465234245 0.0140101132 0.0000000000 0.0321612736
-0.2169252453 0.6734212453 -0.0587677453 0.0061275094 -0.0184841321 0.0153493113
-0.0759806604 0.5283018868 0.1074543679 0.0105038868 0.0186859811 0.0115621792
-0.2945879057 0.9744772264 -0.2271562170 0.0238809811 -0.0016838113 0.0255200094
-0.0872046038 0.7547169811 -0.0328412358 0.0098286981 0.0188512264 0.0137131415
-0.2869874717 0.6798879434 0.3562120283 -0.0001451698 0.0001173208 0.0299615000
-0.0033084340 0.2879389623 0.0515925377 0.0037353774 0.0000000000 0.0313793679
-0.0342728302 0.6603773585 0.3675974811 0.0093650189 -0.0184580566 0.0173480849
-0.0288464340 0.8151974906 -0.3436646509 0.0111841509 -0.0022858491 0.0324154245
-0.1453802642 0.6831199434 0.3762257642 0.0030670000 -0.0123520566 0.0259371415
0.3141613019 0.6094546792 0.0203339906 -0.0058833774 0.0106666981 0.0149725000
-0.1523683774 0.5283018868 0.0415640472 0.0121521132 0.0185906038 0.0126409528
0.1539661698 1.2830188679 -0.2902267264 0.0156581132 0.0141197547 0.0056225943
-0.3147974906 0.9230831887 -0.1832602736 0.0270125472 -0.0029365094 0.0199378208
0.3301886792 0.6853055472 -0.0292881038 -0.0091923774 0.0016390566 0.0146762170
-0.2011356038 0.0377498868 0.3889370094 0.0251759811 0.0034163208 0.0236612736
-0.2302711132 0.5100556415 -0.1603006509 0.0048445472 -0.0178314906 0.0097953302
0.2451763396 0.6674752830 -0.3156244057 0.0186669057 -0.0035142642 -0.0020327453
-0.2674940943 0.5850702264 -0.1996795189 0.0207869245 0.0123631698 0.0211400094
-0.3815296038 0.8863125283 -0.0585356321 -0.0085523396 0.0004069623 0.0082457264
0.1527195283 0.8980615660 -0.3156156509 0.0044713019 -0.0030433208 0.0317396509
0.3114576792 0.6705255283 0.2590027642 -0.0048896981 0.0035848302 0.0031678396
0.2766469623 0.6983073208 0.3236464245 0.0175463774 0.0047563019 0.0301554811
-0.1557632264 0.9548748679 -0.3446338774 0.0059130566 0.0031325094 -0.0043968208
-0.1323784340 0.6603773585 -0.1043259151 0.0086637170 -0.0188353396 0.0141367830
-0.2032225283 0.5402905472 0.0205014811 0.0137597547 0.0183478113 0.0136490094
-0.4071957170 0.0303414717 -0.0770164245 0.0132356792 0.0015992642 -0.0045486887
0.0501726038 0.9304890189 -0.3496832736 0.0094271509 0.0030725094 -0.0047458585
-0.0677398491 0.5653130943 0.2954262170 0.0104472264 0.0178833019 0.0079844623
-0.0069680377 0.5283018868 0.1034935000 0.0096352830 0.0187753962 0.0120768774
0.0319616792 0.7405995849 0.3789553491 0.0103368113 0.0138701321 0.0259118774
0.3490566038 0.9013203396 0.0660160283 -0.0094339623 0.0000000000 0.0138566887
-0.0835391132 0.8334511887 -0.3677448208 0.0076670189 0.0028410189 -0.0046148396
-0.2054321887 0.5456846792 -0.1500140849 0.0131155283 0.0181549623 0.0173383113
-0.3490566038 0.6832805094 -0.0256417264 0.0277302642 0.0039398113 0.0151170472
-0.0117727736 1.0518025094 -0.3336556887 0.0093307925 0.0045939623 -0.0043630094
-0.2093609057 1.0623648302 -0.2729722925 0.0174156604 -0.0019100000 0.0307783868
-0.3526319811 0.6073489623 0.2419277075 -0.0062881321 -0.0089149811 0.0190486321
0.2821620377 0.6573623019 -0.2870610094 0.0216456792 -0.0036057925 0.0000865377
-0.0287502264 0.5701624717 -0.2907799340 0.0111924528 0.0145358302 0.0254958396
-0.1526526604 0.0536759623 0.2543428396 -0.0052617547 -0.0054893962 0.0033959528
0.2591155283 0.6090958113 -0.2274896132 -0.0030450000 0.0098721509 0.0238959906
0.2990348113 0.5680834528 -0.2121164811 0.0221213585 -0.0109694528 0.0055499151
-0.0912816604 0.4932336604 -0.1854929717 0.0084438113 -0.0184353585 0.0105356132
0.4016962264 0.9852918302 0.0436642358 0.0247948679 0.0042219811 0.0164463491
-0.3270130189 0.5439941887 -0.0499938208 -0.0027123585 -0.0143424151 0.0128682170
0.2771909434 0.6902595283 -0.0461993491 0.0145424906 -0.0181129623 0.0140957075
0.1677790377 0.5167683019 -0.2041598962 0.0128300189 -0.0175951321 0.0081243868
-0.1929171321 0.7138117736 -0.2520262736 0.0007712642 -0.0006353208 -0.0026308019
0.3490566038 0.7359546415 0.1200314434 0.0281719434 0.0000559811 0.0146723302
0.1376103208 0.7547169057 0.3126498774 0.0083707925 0.0184573585 0.0162131981
0.3276730000 0.7624708868 0.1924815377 0.0185429057 0.0146623774 0.0172854245
-0.2631622453 0.5172943208 -0.1327697075 0.0042700189 -0.0177113774 0.0101652547
-0.0310868302 0.6259807358 0.4067438774 0.0083784151 0.0123488113 0.0279416887
-0.1486373585 0.5283018868 -0.0111338396 0.0123658302 0.0186085094 0.0136511038
0.1618791698 0.7708429245 -0.3567118962 0.0138386415 0.0005462453 -0.0043778019
-0.2509399245 0.6477959057 0.3157434811 0.0145048868 0.0000000000 -0.0041288962
-0.4056603774 0.8044679057 0.0673722358 -0.0094310566 -0.0000661698 0.0138566887
-0.1030256792 0.7363708113 -0.3700404057 0.0059036038 -0.0002734151 -0.0046596698
-0.3490566038 0.6543525094 -0.2087082925 -0.0081246981 -0.0036684717 0.0085001792
-0.3490566038 0.7251062264 0.0368927642 0.0282498679 0.0009435660 0.0140324811
-0.0984997547 0.8179806415 -0.3678722925 0.0068011698 0.0021156792 -0.0046369717
0.1235654340 1.0665237170 -0.2984934245 0.0041187925 -0.0031447547 0.0316328208
-0.2178054340 0.6223736981 -0.2686161226 0.0171795660 0.0092289434 0.0278794811
-0.1036476604 0.5219706038 -0.1204612170 0.0122759245 0.0184130189 0.0164438774
-0.2804360377 0.6825513208 -0.0896716509 0.0039810189 -0.0179592642 0.0144098962
0.1611996415 1.1284027170 -0.2950905377 0.0163885283 0.0066286038 -0.0022894623
-0.1978127170 0.5183057547 -0.2041206887 0.0051510943 -0.0174119811 0.0082067075
0.3275802264 0.5634292830 -0.1114992358 0.0238355094 -0.0116980377 0.0113224057
-0.1694347547 0.7506158868 -0.3212372547 0.0143023019 0.0001834906 0.0319380660
0.1455679245 0.6613920000 0.2128991981 0.0117096981 -0.0187167170 0.0140017642
0.0464304340 0.4716981132 -0.0163178585 0.0114644717 -0.0184989811 0.0120660660
-0.3153279811 0.7454669811 0.2471179717 -0.0061306226 0.0035148679 0.0229782736
0.1658628302 0.5471698113 0.1754848019 0.0064532453 0.0184276604 0.0113285189
0.2737909623 0.7570173208 -0.3066919717 0.0207874906 0.0000155283 -0.0012073868
-0.1724261509 1.0810794528 -0.3068980283 0.0036816981 0.0045701321 -0.0035033491
0.0168729623 0.7306710000 -0.2880301038 0.0089987170 0.0080263585 -0.0021853491
-0.2626616415 0.6856968679 -0.0024796509 0.0048703962 -0.0182669057 0.0139162170
0.1795800189 0.6371968113 -0.3024180660 0.0031929057 0.0095606038 0.0287998019
-0.2239206792 0.6768595849 0.1085309906 0.0058609811 -0.0185173396 0.0139578019
-0.0843582830 0.6603773585 0.1707853491 0.0089251132 -0.0188392264 0.0139132358
-0.3490566038 0.7500107170 0.2016083302 0.0277926981 0.0000000000 0.0102210094
-0.2189279623 0.7433938113 -0.3439849151 0.0031441698 -0.0002873019 -0.0038878774
0.1095594151 0.7547169811 0.0239289717 0.0082324151 0.0188013774 0.0138566887
-0.3679245283 0.6047283396 0.1757602547 -0.0079718868 -0.0060280566 0.0163820849
-0.3242673774 0.6009905094 0.0044419528 0.0263028868 0.0077040377 0.0130585943
-0.0601491698 0.0566037736 0.1009525566 0.0094339623 -0.0188679245 0.0138566887
-0.0653353019 0.5094339623 -0.0243189528 0.0118873019 0.0185419057 0.0123634434
-0.1316551132 0.5350137358 -0.1647748585 0.0128824906 0.0180076792 0.0181322925
-0.3404944717 0.8706264906 -0.1556255189 0.0276946792 -0.0031823774 0.0170773868
-0.1973748113 0.9711236792 -0.3237356698 0.0021474340 0.0036264528 -0.0031571981
-0.2378559811 1.2573923019 -0.2671552358 -0.0019942642 0.0000000000 -0.0011444434
-0.4056603774 0.7978904340 0.0427349151 -0.0093557358 0.0000000000 0.0130280094
0.2377394528 1.2429606604 -0.2587830094 0.0194577547 0.0000000000 -0.0020392170
0.0857708491 0.9556759623 -0.3462809340 0.0096738868 0.0030758113 -0.0047518962
0.1694081509 0.5464997925 -0.1532743491 0.0058727925 0.0179780189 0.0182408019
0.3679245283 0.6438204151 0.2073011604 0.0278828113 -0.0013935283 0.0166437642
-0.2639708113 0.0342982453 0.4763009906 0.0073839245 0.0000000000 0.0184291792
-0.0174408302 1.1811300943 -0.2955792547 0.0105707547 -0.0061377736 0.0314765566
0.3713458113 0.8346853396 -0.0513511415 0.0280198868 0.0026723585 0.0124628585
0.0896158679 1.0886888302 -0.3024923113 0.0059571509 -0.0026851698 0.0321474245
0.3066455094 0.6649975283 -0.2627988774 0.0235243774 -0.0033879623 0.0019203679
0.1548700943 0.7547169811 -0.2186633679 0.0098378302 0.0186353019 0.0111348208
-0.4056603774 0.8359739245 0.1196783113 -0.0094339623 0.0000000000 0.0138566887
-0.1510218491 0.0329796415 0.2770763868 0.0162899434 -0.0173423019 0.0137666321
-0.2784596604 0.7735849057 0.1600246132 0.0085264528 0.0186596981 0.0143574245
-0.1216407736 0.6732015094 -0.3638353679 0.0074613774 -0.0028808679 -0.0046249717
-0.2694876981 0.5808084528 0.2327406887 0.0200546981 0.0138560755 0.0075739717
0.2866660755 0.6919495283 -0.0236610660 0.0147367736 -0.0180577170 0.0133353491
0.0969555094 0.6603773585 0.0861279717 0.0102875283 -0.0188206415 0.0138566887
0.0939540000 1.0128360189 -0.3401096887 0.0127066981 0.0035022830 -0.0043607264
0.1333595283 1.0851117170 -0.2888916887 0.0033714151 -0.0029378868 0.0314427264
-0.3197639811 0.7571478113 -0.2699282358 -0.0061681321 0.0013851887 0.0034508019
0.0883666792 0.5393019245 0.1789322358 0.0081781321 0.0185934151 0.0110501038
0.3282801509 0.0223932075 -0.0423718208 0.0075923208 -0.0186684528 0.0156983302
0.0078112453 0.9652088113 -0.3446338774 0.0093553585 0.0024966604 -0.0048440849
0.1276455283 0.8837308302 -0.3635018019 0.0117790755 0.0025599623 -0.0046341792
0.2692904528 0.7620997170 -0.1123208396 0.0122030377 0.0181439811 0.0102153679
-0.3956768113 0.9062463208 -0.0160940094 -0.0088217925 0.0003323396 0.0093244434
-0.3028335849 0.9557861509 -0.2518223868 -0.0041348113 0.0042824340 0.0015493302
-0.3490566038 0.8239140755 0.1177177453 0.0280196226 -0.0017774340 0.0114867642
-0.0946982075 0.6201328868 -0.3086688774 0.0125456981 0.0077176415 0.0306387830
0.3303331698 0.6612399811 0.1241919151 -0.0088835283 0.0045000566 0.0139268774
-0.1776557170 1.0565398679 -0.2888248962 0.0162236038 -0.0025196226 0.0311840472
-0.3916360377 0.9253532830 -0.0282162925 -0.0086935660 0.0008543774 0.0088740283
0.1660128868 0.7547169811 -0.1968946509 0.0094018302 0.0187064151 0.0115513868
0.2895298679 0.5967245660 0.3186664434 0.0194554151 -0.0082685472 0.0272468019
-0.2347093774 0.9461731887 -0.3101496887 -0.0006208113 0.0039795472 -0.0015211981
0.3269687925 0.7735849057 0.0985863491 0.0123636604 0.0186130943 0.0141488396
0.0366003396 0.4809534340 0.0889711226 0.0097881887 -0.0186527358 0.0163216887
-0.1747243774 0.7194084340 -0.3185924057 0.0151823396 0.0014383774 0.0315310660
-0.3490566038 0.9068394717 0.0708314623 0.0283018868 0.0000000000 0.0138566887
0.1008717547 0.6603773585 -0.0827668019 0.0104930000 -0.0188246981 0.0140492358
0.1165171509 0.6014086604 0.3912151792 0.0097349623 -0.0009814340 0.0324794811
-0.0749531509 0.5660377358 0.3180104245 0.0109006981 0.0180167358 0.0098164811
-0.2546236981 0.5536309434 0.3128172925 0.0026334717 -0.0152342642 0.0225014623
0.3867924151 0.9931356981 0.0578788774 0.0280470377 0.0006416981 0.0145595000
-0.0978343208 0.9600956038 -0.3257659528 0.0120261132 -0.0021462642 0.0323966698
-0.0673108868 0.6710957925 -0.2606944623 0.0079398302 -0.0128495660 0.0034179717
0.1337868868 0.6754423208 -0.2616441226 0.0139807925 -0.0082467170 -0.0003932547
-0.3725139623 1.1329164340 -0.0855826698 -0.0085497358 0.0011094717 0.0089715943
-0.0530786604 0.5833544528 -0.3430827075 0.0080656226 -0.0104432075 -0.0017103113
-0.1790064528 0.0576537170 0.0138566887 0.0080361698 -0.0013221509 0.0326237264
0.0081389057 0.1360798679 0.0515925377 0.0090244340 0.0000000000 0.0326581604
-0.2022044151 0.9442122830 -0.2920018208 0.0153463585 -0.0027041509 0.0314885377
0.3176995472 1.1216223396 -0.0802144811 -0.0080145094 0.0007435660 0.0204164245
-0.1455825283 0.4905660377 -0.1379324623 0.0073300377 -0.0185773774 0.0118589151
0.0352162075 0.8221906226 -0.3732067075 0.0114159623 0.0028254151 -0.0046217075
-0.2904783019 0.6335446415 -0.2209717830 0.0232312830 0.0076578491 0.0238996509
-0.2462590943 0.9020025094 -0.3120414623 0.0004087925 0.0035357170 -0.0022446887
-0.0851137358 0.4905660377 -0.1193288019 0.0075658302 -0.0186391698 0.0117926509
0.1539853962 1.1891074906 -0.2691621792 0.0032594340 -0.0031592453 0.0313122547
0.3679245283 0.7107712453 0.2525797453 0.0270857170 -0.0012624717 0.0198246698
-0.3490566038 0.9006714717 0.0462293868 0.0282767925 -0.0004829057 0.0136957264
-0.1080623208 0.9098548868 -0.3563065943 0.0068055660 0.0029895472 -0.0045516887
0.0917347170 0.6603773585 -0.2022036887 0.0097253396 -0.0187478302 0.0123998208
0.0180341321 0.9063728679 -0.3257659528 0.0097084151 -0.0017966038 0.0326109906
0.3826784151 1.0074280000 -0.0025995189 0.0271853208 -0.0008943962 0.0076382925
-0.2139654717 0.6897571509 -0.2961865377 0.0182950943 0.0029856981 0.0301954434
0.1098066604 0.7547169811 0.0455032358 0.0082256038 0.0188010000 0.0138566887
0.2619955283 1.2262907170 -0.2052798585 -0.0037136604 0.0019520000 0.0262370094
-0.3867924528 0.7406454906 -0.1009759340 -0.0091976604 0.0000472075 0.0114211038
0.4965470566 0.0104559623 -0.0796196887 0.0182029434 -0.0056079811 0.0279763113
0.0197594906 0.6603773585 0.0835687075 0.0094339623 -0.0188679245 0.0138566887
-0.3867924528 0.6934797170 -0.0803686132 -0.0090585094 -0.0022433585 0.0117521415
0.0710468679 0.5471698113 0.2232402736 0.0078010377 0.0184966415 0.0105490849
0.2947836038 0.8068603585 -0.2290955566 -0.0060557358 0.0005428491 0.0245272925
-0.3064805849 0.5944619057 0.1360072358 0.0207134528 0.0143059434 0.0148691981
0.3199083585 0.7096882264 0.3041684245 0.0100198491 0.0129868491 0.0274294245
-0.2917452075 0.7613326792 -0.0935867075 0.0059062264 0.0181424340 0.0103911792
-0.1302984151 0.5371435283 0.1536559151 0.0116846038 0.0184686226 0.0108949906
-0.0467177547 0.7547169811 0.0120914057 0.0094339623 0.0188679245 0.0138566887
0.0961713774 0.5275551509 -0.1529676132 0.0065755283 0.0182711132 0.0174461415
0.2566613396 1.1504651887 -0.2021522547 -0.0043670000 -0.0015645849 0.0263587075
-0.1365494528 0.7547169811 0.1524240283 0.0113865660 0.0187587736 0.0137475000
-0.0633576226 1.1866098113 -0.3008735377 0.0059060943 0.0069156415 -0.0032990849
0.3058109245 0.7641266226 0.2285723491 0.0183856604 0.0133331132 0.0202134623
-0.3306376226 0.7308467736 0.3157434811 0.0103891698 0.0118602075 0.0282341038
-0.2313546792 1.0671428491 -0.2619754057 0.0193175849 -0.0021066981 0.0296323868
0.1510710377 0.6006715094 0.3349309340 0.0038352830 0.0103541887 -0.0003818019
-0.2668993208 0.5602538679 -0.1017688585 0.0184372264 0.0162158679 0.0162958585
0.2632816792 0.6835276792 0.3338738019 0.0118955094 0.0146154717 0.0234102925
-0.2502546415 1.2601030377 -0.2318408019 0.0119743208 0.0151170189 0.0240460660
-0.0056145472 1.2104548302 -0.3068980283 0.0067226981 0.0014960943 -0.0044817830
0.2171754717 0.8844526792 -0.2931619906 -0.0001418868 -0.0027763208 0.0298405189
-0.3427965094 0.8248245660 -0.1684748019 0.0270884151 -0.0000534340 0.0194885943
0.0634584340 0.9808884340 -0.3446338774 0.0095665094 0.0029355094 -0.0047783113
-0.2029004340 0.7547170566 -0.1410268962 0.0097753208 0.0188005849 0.0124611604
0.3484686038 0.7139023208 0.0346273868 -0.0085702642 0.0051577736 0.0159075566
0.3122069434 0.6587252264 -0.1721638962 -0.0080761698 0.0035981321 0.0193844434
0.1600927358 0.8776700000 -0.3186837830 0.0045761698 -0.0026881321 0.0318324811
0.2741758868 1.2171517170 -0.2308353679 0.0218243774 0.0002678679 -0.0001381981
0.0270123019 0.4027857170 0.0340141981 0.0262570755 0.0000000000 0.0218915377
-0.1050679623 0.5283018868 0.1128281981 0.0103291509 0.0187117547 0.0121368019
-0.3459101698 0.6360889623 0.2857020472 -0.0058385660 -0.0098077736 0.0183337453
-0.2514419623 0.7735849057 0.0435077075 0.0104635849 0.0187396604 0.0138566887
-0.1370812642 1.1023775472 -0.2880301038 0.0134803585 -0.0031524151 0.0319972358
-0.0120043962 0.8746154340 -0.3618290849 0.0094242264 0.0043669434 -0.0044887264
-0.2243247925 0.9485488113 -0.2794960849 0.0180930189 -0.0033878302 0.0301421415
-0.0366575660 0.5095754717 -0.2505065189 0.0094339623 -0.0173612264 0.0064753679
-0.0078776038 0.2028436981 0.0515925377 0.0013621321 0.0000000000 0.0307253113
-0.0494303396 0.6603773585 -0.0476779340 0.0094339623 -0.0188679245 0.0138566887
-0.1711485283 0.7624878868 0.2393961981 0.0112451132 0.0187504151 0.0143411792
0.0255443962 0.9340090566 -0.3469806698 0.0090871321 0.0025462642 -0.0048263302
0.2207846226 0.6451450566 -0.3219314623 0.0171881698 -0.0053501509 -0.0024209528
0.2536783962 0.5673486226 -0.1430966132 -0.0004000189 0.0154286226 0.0183267075
-0.0485705472 0.4905660755 -0.1437507264 0.0086388491 -0.0186593208 0.0114216698
-0.0232629623 1.2315007358 -0.2880301038 0.0094339623 0.0000000000 0.0327246132
-0.1346288491 0.8537666792 -0.3559688585 0.0056537547 0.0021337736 -0.0044840849
0.3583545283 0.9285364717 -0.0883209528 0.0275123774 0.0022036981 0.0090514623
-0.0639431321 0.5453921321 0.1972028585 0.0106610943 0.0185668679 0.0107954057
0.0897602830 0.5660377358 0.3001227830 0.0085700566 0.0177585660 0.0076553302
0.2548461321 0.7473757736 -0.3162674245 0.0201457736 -0.0002842264 -0.0016338208
-0.3490566038 0.8329834906 0.1801026321 0.0279283585 0.0029633396 0.0158322358
-0.3162266038 0.6928440377 -0.2119990094 0.0255628491 0.0030466226 0.0226215943
0.2680285849 0.6964414340 0.2685491038 0.0161534528 -0.0172428491 0.0173522170
0.3308525094 0.6774818868 0.0613014057 -0.0084409811 0.0057336038 0.0155567453
0.2060864906 0.6643639245 -0.2065034623 0.0145108491 -0.0177103208 0.0108735943
0.0747395849 0.9122910377 -0.3562800094 0.0093972075 0.0029304528 -0.0047701038
0.1015987170 0.7547169811 -0.0378674245 0.0084953962 0.0188283774 0.0137145377
-0.1447017170 0.7591290000 0.3333634245 0.0098277925 0.0183373396 0.0178884245
-0.2533721698 0.7735849057 0.0049717075 0.0102436038 0.0186817736 0.0133008019
0.2537661132 0.6828286604 0.1022396509 0.0136377358 -0.0183699434 0.0139961604
-0.0094339623 0.0506459245 -0.1659543679 -0.0094193019 -0.0001911698 0.0136655189
0.2477080377 0.7636571132 -0.1112539340 0.0104881509 0.0185422642 0.0113304434
-0.0490455849 0.7995293774 -0.3806005377 0.0077762453 0.0024878491 -0.0047204623
0.2140898113 0.7692330566 0.0770420660 0.0074810000 0.0187664340 0.0138566887
0.1230996792 0.5471698491 0.2074715000 0.0085220566 0.0185624340 0.0107903868
-0.2858141698 0.6663590943 -0.2400588962 0.0227657170 0.0044385849 0.0262284811
0.3811410189 0.8756575660 -0.0219655566 0.0278534340 0.0007775849 0.0100218396
0.2498156604 0.6528362830 0.3583806321 0.0202416038 0.0000000000 0.0293140660
0.3301886792 0.6656378302 0.1466191226 -0.0084183208 0.0056551698 0.0130404811
0.0094339623 0.2800243585 -0.0048149717 0.0091787925 0.0000195283 -0.0048653868
-0.2516584528 0.6862942642 0.2515142736 0.0041996604 -0.0180248868 0.0153370472
0.4048717358 0.8696058113 0.1069353302 0.0210621132 -0.0112980000 0.0042620660
-0.4056603774 0.8063314151 0.1266400849 -0.0094339623 0.0000000000 0.0138566887
0.1523159811 0.7362270755 -0.3257659528 0.0053300755 0.0007023019 0.0321923868
-0.1537430566 1.2802054906 -0.2691621792 0.0135014717 0.0067702642 0.0307323113
0.0941326038 0.7314676981 -0.3781987453 0.0125479245 -0.0002434151 -0.0047245943
-0.2220973208 0.7708345849 0.0169694434 0.0113772075 0.0187675849 0.0138566887
0.0607810189 0.6603773585 -0.1418587642 0.0096563396 -0.0188588491 0.0138971226
0.3695730566 1.1193850566 -0.0468923868 0.0222663208 0.0121415472 0.0200102547
-0.3454900377 0.7030323585 -0.2196915755 -0.0079808868 -0.0005268113 0.0067425566
-0.2767913585 0.7053819245 -0.1872775943 -0.0046703962 -0.0026444906 0.0023548962
0.0510886604 0.6822238491 0.3912151792 0.0108421509 -0.0109092642 0.0282988019
-0.0253442075 0.5983806792 -0.3095920660 0.0118384717 0.0117904340 0.0276264057
0.0838212830 0.0593490377 0.0188447642 0.0138565660 -0.0015616981 0.0315471226
-0.3114353396 0.8913905283 -0.2124438208 0.0249567358 -0.0027584717 0.0241305943
-0.0201500755 0.1338417170 0.0057048774 0.0038859811 0.0038618491 -0.0036268962
0.0127292075 0.7517332453 0.3738391226 0.0101725094 0.0155438302 0.0242855566
0.0960798679 0.0566037736 0.0018180094 0.0073322642 -0.0187370755 0.0138566887
0.0910188302 0.7547169811 0.1936727642 0.0087574151 0.0188310377 0.0138168962
-0.3316276038 0.6732202264 -0.0859963679 0.0276847358 0.0039459434 0.0163715755
0.1703961509 0.9763362830 -0.3018886132 0.0039289623 -0.0030685660 0.0316033679
-0.1603921887 0.7622671321 0.2834973491 0.0112276226 0.0186938679 0.0146742358
-0.1868520943 0.7894016415 -0.3546768962 0.0045955472 0.0014612642 -0.0042356887
0.1096120189 0.8474292453 -0.3635018019 0.0117888113 0.0021741509 -0.0047137264
-0.0327879057 1.0338477358 -0.3396406132 0.0084037547 0.0036068302 -0.0045599528
0.2608254906 1.1766639623 -0.2253178208 0.0190828113 -0.0045086415 -0.0009185943
0.2991680000 0.7013035094 -0.2813148962 0.0231776038 -0.0019041509 0.0012643868
0.1965217170 0.6721461321 -0.0165060283 0.0125193962 -0.0185726038 0.0133550094
-0.3778424528 0.8188533396 0.2373486321 0.0025862075 0.0102821132 0.0270476509
-0.3882030566 0.7774814340 0.2185826887 -0.0090337736 -0.0018499434 0.0169591981
0.1087717736 0.7442129623 -0.2642657642 0.0117386981 0.0136965283 0.0039495377
-0.1058570377 0.7547169811 -0.0443836698 0.0101765283 0.0188365094 0.0135866698
0.3633769057 0.6126331887 -0.0777436698 0.0269146038 -0.0055609811 0.0100332736
-0.2553978302 1.1472387547 -0.2489325189 -0.0044412453 0.0087786226 0.0056324434
-0.1877854717 0.0595549811 -0.0260141981 0.0140101132 0.0000000000 -0.0044478962
-0.2149826792 0.5745990377 -0.2954029717 0.0017307736 -0.0115597736 0.0012858019
0.3567749245 0.5926239434 0.0926297642 0.0264225849 -0.0074524528 0.0166251792
-0.1284649057 0.5595154717 0.2788525566 0.0114399623 0.0180439057 0.0088636887
-0.0473490755 0.5471698113 0.2167259906 0.0105976792 0.0185364906 0.0106122358
0.0094339623 0.4292411887 0.0335935943 0.0269289623 0.0000000000 0.0204670660
0.0339531698 0.5004832830 -0.2144915000 0.0094339623 -0.0179023019 0.0083667642
0.1105625660 0.8698278491 -0.3300071038 0.0065285094 -0.0024851321 0.0323021415
-0.2742473962 0.5094339623 0.0433303491 0.0050364717 -0.0183191509 0.0146341981
-0.2063888868 0.6335753019 0.3304735755 0.0142608491 -0.0042131698 -0.0030758019
0.3085468302 0.6074798113 0.3076964811 0.0209254340 -0.0062403585 0.0274316509
-0.2012117736 0.5597450377 0.2356137264 0.0128502830 0.0182029623 0.0104873491
0.0226407358 0.6960358491 -0.3446338774 0.0091998868 0.0016007547 0.0325909906
-0.3255451887 0.7314977170 -0.2029775000 0.0266066038 0.0012383396 0.0209360094
0.3436940755 0.7311206981 0.0018633113 -0.0087343774 0.0041767547 0.0166569717
-0.1324285660 0.5094339245 0.2169574811 0.0082962453 -0.0187295660 0.0154460660
-0.2788783396 0.7481558491 -0.3204725189 -0.0011445283 0.0006296226 -0.0015467075
0.2812034528 0.7535459434 0.2854477453 0.0219567358 0.0064058868 0.0262168585
0.2492670943 0.6856541132 0.2325362170 0.0147335094 -0.0180514906 0.0151297830
0.1481902830 0.8465242264 -0.3257659528 0.0054163585 -0.0017116981 0.0321864245
0.1620740000 0.6653127925 -0.0800590849 0.0117355283 -0.0186819434 0.0145768774
-0.0121515094 0.7547169811 -0.0353859906 0.0094339623 0.0188679245 0.0138566887
-0.0403390189 0.5660377358 0.3207250472 0.0098042453 0.0182616981 0.0110828019
-0.0050016981 1.0602996415 -0.3119554245 0.0107255660 -0.0024684717 0.0324359906
-0.0699046415 0.0632334528 0.0223239151 0.0056704906 0.0000000000 0.0323302925
-0.0792129811 0.9246997547 -0.3514133113 0.0089367170 0.0035351698 -0.0046484057
-0.1252700755 0.6603773585 -0.1997815000 0.0090852075 -0.0187226415 0.0121129151
0.1006086981 0.7533463585 -0.3727610472 0.0122679434 0.0004061321 -0.0047717075
-0.3169130943 0.8121116981 -0.2202415943 0.0250791698 -0.0008371509 0.0242320849
0.1253814340 0.9127339811 -0.3192805755 0.0055750377 -0.0026508491 0.0321253868
-0.3371331887 0.6085348302 -0.1808930849 -0.0075630566 -0.0050418491 0.0075535943
0.0482346415 1.0044249057 -0.3446338774 0.0098477736 0.0028557736 -0.0047554811
-0.1913025283 1.2847009245 -0.2725675189 0.0015364906 0.0011489057 -0.0027541415
-0.2512852264 0.6593350189 -0.2648132736 0.0193026226 0.0050035660 0.0290237830
0.2104338868 0.5633817736 0.2164788396 0.0054390566 0.0181297358 0.0109555755
-0.0888343585 0.7547169811 -0.0081754057 0.0099839245 0.0188396226 0.0137965755
-0.2565193208 0.8428238113 -0.3208048396 -0.0015946604 0.0032502075 -0.0010747642
-0.1645533585 0.5283018868 -0.0323008019 0.0128066038 0.0185286415 0.0142183868
0.1556149245 0.5401821887 0.1070512170 0.0057356415 0.0183731887 0.0118331226
-0.3193631509 0.7735849057 0.1076496887 0.0069049623 0.0186240189 0.0141061981
-0.0089131509 0.6603773585 -0.0291323679 0.0094339623 -0.0188679245 0.0138566887
-0.2676800943 0.7735849057 0.1970962925 0.0092950943 0.0186785472 0.0141183868
-0.1809311321 0.5601149434 0.2413713491 0.0118980943 0.0183090755 0.0100691038
0.3000061321 0.6556621132 0.2704543302 -0.0051803585 0.0043438113 0.0035861792
-0.2171966604 0.9695241698 -0.3138042170 0.0003177358 0.0039233396 -0.0020568585
-0.3640903962 0.7267929623 -0.1674570283 -0.0081744528 -0.0004844528 0.0071018585
0.2123814528 0.9480775094 -0.3162912170 0.0168574906 0.0039627925 -0.0029906509
0.2424420943 0.8751109811 -0.3224694057 0.0179051132 0.0021700377 -0.0026926509
0.2210804340 0.0534290000 -0.0133782736 0.0131166038 -0.0018413208 0.0322698962
0.3541755660 0.5813281509 -0.0064861981 0.0254937736 -0.0093517736 0.0120498962
0.0094339623 0.0618043019 -0.2893451038 0.0283018868 0.0000000000 0.0138566887
-0.2191110000 0.6758976981 0.0169091981 0.0059444906 -0.0185284717 0.0136999906
-0.3680025849 0.9548408302 -0.0991166321 -0.0084566038 0.0012292642 0.0080095943
0.1904068868 0.7802973396 -0.3564645566 0.0158032453 0.0005661509 -0.0038276509
-0.1448842453 1.2951436981 -0.2880301038 0.0049145660 0.0117543019 0.0026941415
0.1631289434 0.7590408302 0.1465717642 0.0074068302 0.0187584340 0.0137955566
-0.1706217547 0.5094339623 0.2247255943 0.0082253208 -0.0187079057 0.0148807453
0.0766320000 0.7000727358 0.3912151792 0.0117071132 0.0010552642 0.0322386509
0.0385171698 0.7547169811 -0.2282391604 0.0094339623 0.0187672264 0.0121534057
-0.0834147170 0.8534930943 -0.3635018019 0.0081926226 0.0032633962 -0.0045871038
-0.0436846981 0.6603773585 0.0664958962 0.0094339623 -0.0188679245 0.0138566887
0.2762234528 0.6567432453 -0.2269707264 -0.0056186981 0.0041864906 0.0242759151
-0.1111136226 0.6716463396 -0.3232329528 0.0128370000 0.0036322642 0.0319480849
0.3544285660 0.8759365472 0.1432921038 -0.0052273208 0.0079953962 0.0209335943
-0.0734237925 0.6603773585 0.2787065943 0.0092288113 -0.0188563585 0.0138794811
-0.2996622453 0.5177143019 0.0419105566 0.0038844151 -0.0179842830 0.0147244811
0.2820129811 0.5660377358 0.0552066887 0.0007297547 0.0163110943 0.0128538208
-0.0094539245 0.5867033962 0.4100831038 0.0105180000 -0.0041790377 0.0312152925
-0.3365053585 0.7107054528 -0.0453498774 -0.0017509434 -0.0145143774 0.0126656132
-0.1078856604 0.5507638302 -0.3104920472 0.0075499811 -0.0136690189 0.0011246698
0.1549416038 0.6570866415 -0.3564350472 0.0139879245 -0.0036424906 -0.0038895943
-0.0354040377 1.0524199057 -0.3068980283 0.0106504151 -0.0020067547 0.0325128019
0.2104893019 0.9136825472 -0.2899389906 0.0008273019 -0.0029270755 0.0303331604
-0.3753850755 0.9960992830 -0.0581013302 -0.0082874906 0.0015776981 0.0078020283
0.1686399623 0.6515490000 0.3723472547 0.0108853396 0.0023038491 0.0322306321
-0.0975233208 0.6603773585 -0.1208939717 0.0089109057 -0.0188457925 0.0140468962
0.1704433019 0.7619504340 0.2234285189 0.0075409434 0.0187455660 0.0143949906
-0.3867924528 0.7980276792 -0.0776936132 -0.0092063774 0.0009541698 0.0114676321
0.3442858868 0.5612670566 0.0693025377 0.0242256226 -0.0115314340 0.0145495000
0.3490566038 0.7590879057 0.1776467264 -0.0094339623 0.0000000000 0.0138566887
0.0641135283 0.7993003585 -0.3704325000 0.0117600755 0.0017997547 -0.0047629151
0.2465544340 0.6879250189 0.2581785755 0.0153638491 -0.0176606226 0.0162115189
-0.0211082453 0.2598353019 0.0399182547 -0.0042249245 0.0000000000 0.0255117830
0.0035448868 0.4846631887 0.0963905755 0.0093815472 -0.0184054717 0.0179065755
0.3301886792 0.6892745472 -0.0572992925 -0.0092947736 0.0011246604 0.0143565566
