0.0660250476 1.0294116948 0.1214856105 0.0000000000 -0.0022624433 0.0021616729
0.4294322831 1.5707400540 -0.2584361261 -0.0014067691 -0.0006036312 0.0010980531
0.4841425984 0.5973386744 -0.2955928272 0.0011736040 -0.0007119411 0.0039436683
-0.1483684628 0.9101403070 0.0848860022 0.0000446900 -0.0019324184 0.0033123312
0.4498400147 0.6146835669 -0.3159199842 -0.0021462170 0.0002394570 0.0015772069
0.4807500036 0.0826102591 -0.5089256317 0.0017711990 -0.0009561334 0.0030954579
-0.4389219725 0.9547590755 0.0241576126 0.0009922760 -0.0020301605 0.0021737385
-0.4447923929 0.0514906820 -0.5100865095 0.0000827828 -0.0007773936 0.0042484714
0.4884379465 1.0898864147 0.0073760368 0.0014372985 0.0007934524 0.0037097068
-0.4539822927 1.0617841451 -0.1505660045 0.0013799004 0.0005578167 0.0004910893
0.1964442604 1.0294116948 -0.2174918778 0.0000000000 -0.0022624433 0.0021616729
-0.4023236989 0.9414877958 0.0551596377 -0.0000172443 0.0014887827 0.0005032613
0.2792398430 0.9582625209 -0.2999923654 0.0000147443 -0.0015622397 0.0007599898
-0.4792241937 0.5747385447 0.2313688655 -0.0008673416 -0.0009517918 0.0003077590
-0.4822286211 0.4891100596 -0.3378363334 -0.0010275836 -0.0007412850 0.0040161570
0.2905428581 0.9108173567 0.0578813117 0.0000023213 -0.0017730768 0.0007794355
-0.4865875258 0.0951239754 -0.5082509666 -0.0020566786 -0.0007033800 0.0027027566
0.4874678742 1.7010001153 -0.3273017979 0.0021093008 0.0001918552 0.0015147295
-0.1360093980 0.0716851083 -0.5481293938 -0.0000481878 0.0017361560 0.0007243178
0.0634086133 0.9568773536 -0.2986071279 0.0000083235 -0.0018384524 0.0013135146
0.4515777906 0.9292506632 -0.1940687233 -0.0019933053 0.0003656538 0.0012687341
0.4654973598 0.2373333414 0.4505457149 -0.0006330520 0.0009738099 0.0040654873
-0.3836716255 1.0361989546 -0.0729071025 -0.0000001765 0.0022624433 0.0021613585
0.3202009715 1.5702729002 -0.2585350650 -0.0001628280 0.0009751334 0.0041932158
-0.4578654124 0.7865278312 0.1646975578 0.0012430067 0.0008524796 0.0038293719
-0.4268172312 1.6623017582 -0.2947656078 0.0002541267 0.0010591221 0.0041430122
-0.4490655804 0.5908190300 0.2415852789 0.0021447125 -0.0003335995 0.0015887341
-0.4686107759 1.6850376277 -0.3399016545 -0.0001499140 -0.0010062714 0.0001847161
-0.1257239304 1.0361990247 0.4360977159 -0.0000000181 0.0022624207 0.0021698426
-0.2847934897 1.0294116948 -0.1837540068 0.0000000000 -0.0022624433 0.0021616729
-0.4839666391 0.1029346265 -0.5263619043 -0.0018437012 0.0000445136 0.0009024332
0.4932126362 0.4430839971 -0.3722093424 0.0022019116 -0.0001628348 0.0025663946
-0.3660586697 0.9267759778 0.0498794253 -0.0001061878 0.0000582986 -0.0000781120
-0.4487954786 0.0180680395 0.5372221230 0.0022024297 -0.0001052262 0.0017702680
0.2884865121 1.0361989546 0.3991405849 0.0000000271 0.0022624342 0.0021660191
-0.4501321753 0.8750105040 0.1095441000 0.0017972555 0.0005284796 0.0032768787
-0.2914036001 1.0260988806 -0.2947436169 0.0000143710 -0.0009853461 0.0041303018
0.4770711871 0.7530167702 -0.2759254417 0.0006531991 0.0008034072 0.0001651278
-0.2102811509 1.7620740704 -0.3396519577 0.0000038891 -0.0010297284 0.0041053855
0.0270736633 1.0294116247 -0.1973858859 0.0000000000 -0.0022624433 0.0021616729
0.4214987135 1.0361990247 0.1101861498 0.0000038891 0.0022624365 0.0021607521
-0.4502262138 0.6920768987 -0.2731554011 0.0022081967 -0.0001574502 0.0025713132
-0.3153422207 1.7934776226 -0.3517622216 -0.0000040204 0.0020449659 0.0031151480
0.2382175743 1.0294116948 0.5407785934 0.0000000000 -0.0022624433 0.0021616729
-0.4905930957 1.4948304144 -0.2037290212 -0.0016944863 0.0006340724 0.0033962045
0.4796252389 0.1489891188 -0.4720406184 0.0008854683 -0.0007793619 0.0040903334
0.4625411949 1.4322441132 -0.2072987133 -0.0010654615 -0.0009084004 0.0003906979
-0.3056904860 1.7819343836 -0.3391769668 0.0000023688 0.0009163303 0.0042156683
0.4895446930 1.2795289154 -0.1226465991 0.0016372239 -0.0006912352 0.0008134830
-0.4525155145 0.3288335094 -0.4362600394 0.0017391990 0.0005031696 0.0009094671
0.4585454983 0.0760692437 0.5293539041 -0.0011222714 0.0008858370 0.0038951932
0.4822992885 0.1046555314 -0.5288649675 0.0017038777 0.0001527489 0.0007046323
0.4537490597 0.1454059268 -0.5122959596 -0.0015771356 0.0006707850 0.0007302296
0.1172422432 0.9390792553 0.0910408773 0.0000851878 0.0011072805 0.0040812180
-0.3569290821 1.0361990247 0.3630196168 -0.0000001878 0.0022624433 0.0021616661
0.4757266872 0.1494371822 -0.5174347194 0.0004880226 0.0007861968 0.0001580871
-0.1805851846 1.0361990247 0.4374774624 -0.0000000226 0.0022624184 0.0021702996
-0.1548272112 1.0330549548 -0.2982440239 -0.0000027964 0.0018391990 0.0010195440
0.2209142135 0.9837190124 0.5564602439 -0.0000108914 0.0000037534 -0.0000999581
0.2092199406 0.0340581380 -0.5170915000 -0.0000339683 -0.0011112420 0.0040893742
0.4717793209 1.3420511442 -0.1144082083 -0.0000002805 0.0010207692 0.0041563108
-0.1738763932 0.9568803921 0.5563270923 -0.0000005204 -0.0018923370 0.0032835665
0.2869547475 1.0361990247 0.1001015147 0.0000000181 0.0022624320 0.0021618471
-0.4164715645 1.0294116948 0.1993404265 0.0000027014 -0.0022624388 0.0021608087
-0.1641400771 1.0361990948 -0.2224064159 -0.0000001199 0.0022624410 0.0021596232
-0.4541196208 0.1901090165 -0.4944768363 0.0014388823 0.0006323574 0.0005826798
0.2864613063 0.0571439848 -0.5350613472 0.0002293846 0.0021536424 0.0026478675
-0.2521205756 1.0294116948 0.5133669753 0.0000000000 -0.0022624433 0.0021616729
-0.0275885456 1.6717738051 -0.3212833096 0.0000046425 0.0011785882 0.0040925190
-0.3446975400 1.0294116948 0.1672932092 0.0000000000 -0.0022624433 0.0021616729
0.4434388839 0.9800192050 -0.2349979535 -0.0022605179 0.0000431561 0.0021935847
0.3182644512 1.0294116948 -0.0802128418 0.0000000000 -0.0022624433 0.0021616729
0.4509410644 1.3875058990 -0.1519330134 -0.0016028777 0.0006736425 0.0035818900
0.4495303156 0.2597865276 -0.4568466285 -0.0021288732 0.0002345973 0.0015813585
-0.4936600095 0.3670000882 -0.4112075253 -0.0022252351 0.0000585204 0.0020067114
-0.4152510012 0.0452487571 -0.5611001916 -0.0000004842 0.0008410610 0.0000679717
0.4666265792 0.2180435938 0.4608113929 -0.0004579366 0.0009854547 0.0040886185
0.1628442537 1.0361990247 -0.1728682089 -0.0000000430 0.0022624365 0.0021573471
0.4327761675 0.0768320966 -0.5277674382 -0.0018588935 0.0011997714 0.0021873607
0.4803531710 0.9038632848 -0.2144468870 0.0008546900 0.0007802104 0.0002256889
-0.1500904627 1.7776069653 -0.3809251834 -0.0000024593 0.0005729389 -0.0000055147
-0.0819778383 0.9640190884 0.5554382146 0.0000136516 0.0008051380 0.0002014151
0.4293311677 0.0260834688 -0.5208079477 0.0004335294 -0.0014123461 0.0038650733
0.4434388839 0.9830909853 0.4157854367 -0.0022607238 0.0000389502 0.0021567137
0.1444090920 0.9183527114 0.0925265627 0.0000163507 -0.0005862104 0.0043269986
0.1674270180 1.0138151416 0.5564602778 -0.0000090271 -0.0000639253 -0.0000993586
0.0672282963 1.5786902277 -0.2850377510 0.0000365656 -0.0010179954 0.0001440509
-0.1945189438 0.0641445952 -0.5501668914 -0.0000777851 0.0017659388 0.0007753925
0.4603175547 1.4658896720 -0.1820489073 -0.0012004615 0.0008590814 0.0038405009
-0.0909047812 0.0459205896 -0.5456348940 0.0000683145 -0.0015903325 0.0005796866
0.4635391948 1.6165596391 -0.2565737235 -0.0009318484 0.0009198099 0.0039935597
-0.0130838249 1.0344417103 0.5526823120 0.0000002511 0.0021390293 0.0028099761
-0.4847572657 0.9717439702 -0.1458505387 -0.0013196153 -0.0006638325 0.0038343855
-0.0583087924 1.7511427024 -0.3575198592 -0.0000012489 -0.0022446152 0.0024413290
0.3389693842 1.0361990247 0.0262929111 0.0000000204 0.0022624342 0.0021604014
0.1708906422 0.9265620774 0.0499328914 -0.0000234027 -0.0001828009 -0.0000774468
-0.4919969734 1.6748577370 -0.3037389149 -0.0021456582 0.0003012692 0.0025995236
0.3108352866 0.9447266644 0.0583920809 0.0000629728 0.0016719139 0.0006903359
0.4589719168 0.2079195605 -0.4519182487 -0.0013194298 -0.0006608846 0.0038163968
-0.1022715519 1.0361990247 0.0209263232 -0.0000001154 0.0022624410 0.0021594603
-0.0584532313 1.6614592786 -0.3273845128 -0.0000258891 -0.0008939049 0.0000842704
-0.0783589087 1.0294116948 0.4142373260 0.0000000000 -0.0022624433 0.0021616729
0.4559200890 0.7751488478 -0.2263294609 -0.0013899343 -0.0006502624 0.0038016298
-0.4306851947 1.0361990247 -0.1348222748 -0.0001592104 0.0022551899 0.0021590417
-0.4938898217 0.9291567627 -0.1892340177 -0.0021254252 0.0002382285 0.0015785236
-0.2665796742 1.0328944955 0.5562820742 -0.0000051357 0.0018566673 0.0033808652
-0.4509831459 0.2573171771 0.4283507390 0.0019811718 0.0004734773 0.0030901186
-0.1089558591 1.6701439455 -0.3196428527 0.0000388529 0.0011643144 0.0041002158
-0.1055489906 1.0215719917 -0.2964808407 -0.0000015362 -0.0000804570 0.0044223583
-0.4528491729 0.2082219225 0.4284517503 0.0018297012 -0.0005810135 0.0010340169
-0.4788694449 0.1313362558 0.4585527483 -0.0008005769 -0.0009626696 0.0002885328
-0.3140624515 1.0227685980 0.5632476416 -0.0000064819 0.0001424434 0.0044192135
-0.4934041656 0.2578549101 -0.4574638502 -0.0022015338 0.0001324932 0.0018170644
-0.4951683148 1.1102660106 -0.0446060592 0.0022599750 0.0000047466 0.0022589105
0.4660963552 0.9729041919 0.0736420188 -0.0006533914 0.0009727579 0.0040628447
-0.3687599931 1.7682694139 -0.3372048199 0.0001276063 -0.0001917647 0.0043771004
0.0167884853 1.0294116948 0.2335929875 0.0000000000 -0.0022624433 0.0021616729
-0.0847455146 1.0361990247 -0.1293824403 -0.0000001041 0.0022624410 0.0021591639
-0.4844510531 0.4130949878 0.3568495086 -0.0012324977 0.0008483144 0.0038194443
0.4780429834 0.7501438382 0.1409975526 0.0007847104 -0.0009611131 0.0002886821
0.0727164792 0.0678585316 -0.5509234094 -0.0000013937 0.0004431380 -0.0000285034
0.1694752170 1.0294116948 0.3775004122 0.0000000000 -0.0022624433 0.0021616729
-0.4868461321 0.2095865310 -0.4526779772 -0.0012673529 -0.0006922171 0.0038847859
0.4463685014 1.7027438980 -0.3415869236 -0.0015571492 -0.0011947556 0.0010629875
-0.4120708883 1.6475427117 -0.2887109069 0.0002429932 0.0010383868 0.0041543425
0.4534621480 1.0477370149 -0.1201919206 -0.0016134275 -0.0005441764 0.0035433493
-0.4932126362 0.3095756758 -0.4225901670 -0.0021330112 -0.0002674117 0.0028246163
-0.4939775434 1.0834867002 -0.1249220243 0.0021939320 -0.0001968937 0.0026291774
0.4864434987 0.5548226162 -0.3140199889 0.0013241311 -0.0006739932 0.0038479036
0.0793824290 1.0294116948 0.3173682579 0.0000000000 -0.0022624433 0.0021616729
-0.1509189422 1.0294116948 0.4990960374 0.0000000000 -0.0022624433 0.0021616729
-0.4804344719 0.7738246488 -0.2665429423 -0.0008710339 0.0007765972 0.0002320577
-0.4548076818 1.1987408824 -0.0827312761 0.0014332035 -0.0007958800 0.0006101278
0.2060358073 1.0294116948 0.4768136158 0.0000000000 -0.0022624433 0.0021616729
-0.3014728461 1.6233270844 -0.2964474222 -0.0001465724 -0.0009488529 0.0001180351
-0.3887961976 0.9876818787 0.5475428282 -0.0010318687 -0.0000208688 0.0041714465
-0.1466709923 1.0294116948 0.4205887803 0.0000000000 -0.0022624433 0.0021616729
-0.4407570312 0.0295127537 -0.5233429090 -0.0008560746 -0.0016379117 0.0033730643
0.3565815120 1.0294117650 -0.0266979247 0.0000000000 -0.0022624433 0.0021616729
-0.1120408612 1.7808751076 -0.3799697830 -0.0000019253 0.0008877465 0.0000894106
0.4561700980 0.6741298027 0.1853641017 -0.0014378687 -0.0007890904 0.0006254513
-0.3731507620 0.9762657505 0.5467729844 0.0008638325 0.0000407308 0.0000761889
-0.4932126362 1.0505712839 0.0064879192 -0.0022460655 -0.0000737941 0.0020172725
0.4646417648 1.0409501013 -0.1601364586 -0.0008514004 0.0007807149 0.0002281708
-0.4755875288 0.5865369036 0.2719675121 -0.0005235927 0.0009915565 0.0040999556
0.1381170947 1.0361990247 0.0764418330 0.0000000000 0.0022624274 0.0021627046
-0.3528127656 1.0361990247 0.3279764970 -0.0000001855 0.0022624433 0.0021615983
-0.0224897790 1.0294116948 0.0336044423 0.0000000000 -0.0022624433 0.0021616729
-0.4540909330 0.0853794874 0.4892482168 0.0017098302 -0.0006655090 0.0008694196
-0.2051979024 1.0361990247 0.0296037231 -0.0000001380 0.0022624410 0.0021602046
-0.3128449245 1.7511311029 -0.3577330334 0.0000047353 -0.0022449320 0.0024263335
-0.4479637705 1.0117957345 0.4112045909 -0.0022573256 0.0000836154 0.0021812521
-0.4932797471 0.2032382871 -0.4737257495 -0.0022470179 -0.0000370792 0.0022424014
0.4490394469 0.1530824625 0.4752880481 -0.0021593935 0.0001649887 0.0025061706
0.0405035561 1.7822222998 -0.3392729034 -0.0000014955 0.0009436131 0.0042078741
0.1150473338 0.0409223004 -0.5185267940 -0.0000621493 -0.0018871356 0.0033813674
0.3024820677 0.9088798365 0.0823648485 0.0001074231 -0.0019435610 0.0032581525
0.2582195322 0.9628260727 -0.2948622006 -0.0000101900 0.0009306651 0.0041508289
0.0666957217 1.5389316263 -0.2641505760 0.0000296810 -0.0009300791 0.0005130441
0.4553419125 0.3737770267 0.3747163400 -0.0013389479 0.0008259592 0.0037784918
-0.4793020421 0.6846435915 0.1750535639 -0.0008818280 -0.0009491266 0.0003124672
-0.1310785137 1.7929650389 -0.3507369479 -0.0000013824 0.0020186786 0.0031617996
-0.4476480646 1.6528371661 -0.2990218768 0.0003410181 -0.0008202805 0.0003343676
0.4183116639 1.0361990247 0.2728408356 0.0000041606 0.0022624365 0.0021620598
-0.4579938694 1.6267094258 -0.2649988723 0.0013178845 0.0008013551 0.0037788199
-0.0492724989 0.0903806319 -0.5275130807 -0.0000358371 0.0022525722 0.0021456752
0.0895482858 0.9549680031 -0.2966977434 -0.0000042647 -0.0022191107 0.0020877114
-0.4033408957 0.9204555258 0.0926594043 -0.0000283733 -0.0006328393 0.0043043583
0.2482530940 1.6174527975 -0.2873545314 -0.0001274864 0.0010441922 0.0041610574
0.4616064732 0.6266776656 -0.2826535657 -0.0010070633 -0.0007428597 0.0040303425
-0.2508149988 0.0604335185 -0.5292751937 -0.0002010973 0.0019962080 0.0031480077
-0.3731711285 1.0293842152 -0.3017690463 -0.0000203891 0.0009268755 0.0002010735
0.2221669532 1.5449685829 -0.2522779274 -0.0001024909 0.0008939864 0.0042369488
-0.2078402461 1.0294116948 -0.2617489042 0.0000000000 -0.0022624433 0.0021616729
0.4122472978 0.9646032716 -0.2915142438 -0.0005119796 0.0004394773 0.0041736049
0.2461812819 1.0361990247 0.1348714264 0.0000000136 0.0022624320 0.0021626594
-0.1344205927 1.7645581449 -0.3807199843 -0.0000021968 -0.0009144592 0.0001449672
-0.4479637705 0.9964181903 0.3719350981 -0.0022572442 0.0000070860 0.0021741480
0.2754999542 1.5602206045 -0.2563434272 -0.0001367013 0.0009387194 0.0042137475
0.4472189900 1.5636526563 -0.2437110502 -0.0013895881 0.0007388914 0.0037230439
-0.4927016385 0.6700927826 0.1946683725 -0.0020517827 -0.0003953190 0.0013932861
-0.4289102401 1.7751487121 -0.3680107590 -0.0009894728 0.0015094162 0.0008544015
-0.0130905376 1.0361990247 0.1283170852 -0.0000000973 0.0022624388 0.0021589467
-0.2103197120 0.9351037533 0.0515484660 -0.0000171471 0.0008041131 0.0000705848
0.4948505388 1.0383928390 -0.1379838311 0.0022486311 -0.0000387760 0.0022726028
0.4932126362 1.3175223314 -0.1289292254 0.0022521989 -0.0000484909 0.0020655666
-0.4814307117 0.2035197645 0.4229633503 -0.0009740701 -0.0009274570 0.0003570169
-0.0156358745 1.7546848130 -0.3465799980 0.0000018190 -0.0019024456 0.0032907385
-0.1098649405 1.0294116948 0.5276123997 0.0000000000 -0.0022624433 0.0021616729
-0.3606761158 1.5615342402 -0.2502419140 0.0004676855 0.0008711583 0.0041056479
0.1967762604 0.9161965962 0.0910891646 0.0000105837 -0.0009411425 0.0041352407
0.1858121299 1.0361990247 0.4733439690 0.0000000181 0.0022624297 0.0021678765
0.0884105754 1.0294116247 0.1068838491 0.0000000000 -0.0022624433 0.0021616729
0.4434388839 1.0004663959 -0.0858614071 -0.0022606695 -0.0000181380 0.0021738969
-0.1009682714 1.0294116948 0.3075160504 0.0000000000 -0.0022624433 0.0021616729
0.4376925359 1.6186345576 -0.2823640114 -0.0007411787 -0.0007439683 0.0006266753
0.4541482067 0.9130379584 0.0969715918 -0.0015769637 0.0007203280 0.0035703629
-0.4821816370 0.8758366193 0.0787599867 -0.0010663891 -0.0009050904 0.0003976504
-0.4389685087 0.9548055415 0.3933928545 0.0009713574 -0.0020229388 0.0021617295
-0.1911602834 1.6351409773 -0.3003114875 0.0000873869 0.0010579796 0.0041561909
0.4513969626 0.5113308250 -0.3612825671 -0.0019603438 0.0004026900 0.0011655056
-0.3626228872 1.0361990247 0.4763075570 -0.0000001946 0.0022624433 0.0021618381
0.2937453059 1.0305186133 0.5594930831 0.0000068416 0.0013508936 0.0038755574
-0.2320876155 1.7819168474 -0.3391710980 0.0000014525 0.0009148280 0.0042162814
-0.0866646005 1.0294116948 0.2391899939 0.0000000000 -0.0022624433 0.0021616729
-0.4786170874 1.7224329826 -0.3175926855 -0.0016604841 0.0011079502 0.0031693946
-0.4815327931 0.6360604387 0.2012778970 -0.0010120271 -0.0009186560 0.0003722364
0.1111921078 1.0294116948 -0.0191689568 0.0000000000 -0.0022624433 0.0021616729
0.1431051487 0.9800266620 0.5632476077 0.0000079140 -0.0000250136 0.0044212587
-0.4109059042 0.0124565829 -0.5494660227 -0.0007227262 -0.0019326266 0.0012981413
0.2417164972 1.0294116948 -0.2695404489 0.0000000000 -0.0022624433 0.0021616729
-0.2353499229 1.0294116948 0.1574325628 0.0000000000 -0.0022624433 0.0021616729
0.0418778818 1.0361990247 0.1681904399 -0.0000000068 0.0022624252 0.0021647566
0.4249680865 1.0361990247 0.4820474843 0.0000560498 0.0022582329 0.0022033562
-0.4547508922 0.0740809316 -0.5486305861 -0.0003185498 0.0006402511 0.0000544943
-0.4044957644 1.6252818671 -0.2781744551 0.0003206968 0.0009904253 0.0041361343
-0.2364527328 1.0361990247 -0.0122149189 -0.0000001448 0.0022624410 0.0021603788
-0.1547812610 0.9494092478 0.0747481929 -0.0001558891 0.0021865609 0.0026100055
0.4923561069 0.5476422864 0.2571929316 0.0019879162 -0.0004543484 0.0012794716
-0.2430193636 0.9701914409 0.5564602778 0.0000187738 0.0001178167 -0.0000965577
-0.0775762300 1.0208870732 0.5632476077 0.0000011199 0.0001352896 0.0044193108
-0.2928510797 1.0294116948 0.3458975998 0.0000000000 -0.0022624433 0.0021616729
-0.4582560300 0.6667538710 -0.2683864083 0.0012323823 -0.0006912104 0.0039024081
-0.0229892360 1.0332639525 -0.2978261348 0.0000016697 0.0019117420 0.0011202929
0.4852692974 1.0327396290 -0.1603181645 0.0011604547 0.0007175859 0.0003837454
0.4939835841 0.5055521625 -0.3548304114 0.0022358166 0.0000348937 0.0020704829
-0.4247470413 0.9385465087 0.0531987713 -0.0000077149 0.0011946108 0.0002770848
-0.4503462477 0.1413323999 -0.4879940970 0.0020135768 -0.0002853461 0.0031209919
-0.4822433293 1.6714295517 -0.2866579432 -0.0011086244 0.0009059027 0.0038780687
-0.4999999661 1.1159469062 -0.0670309536 -0.0022564750 0.0000963507 0.0021457046
0.4789680399 0.1106471938 0.5150956019 0.0008590294 0.0009485678 0.0040164307
-0.2365495677 1.0361990948 -0.1212513617 -0.0000001403 0.0022624410 0.0021602544
0.1940121927 1.0361990247 0.0938614993 0.0000000068 0.0022624297 0.0021625032
0.2083612370 1.0256012788 0.5549717531 -0.0000066991 -0.0008546108 0.0001499762
0.1467211348 1.0294117650 0.0931212233 0.0000000000 -0.0022624433 0.0021616729
0.4825998383 0.3361935632 -0.3993683292 0.0010197126 -0.0007425837 0.0040160936
-0.4870351412 0.2787102209 -0.4611013793 -0.0014994207 0.0006114117 0.0006288314
0.1017344818 0.9805317909 0.5632476077 0.0000055950 -0.0000335339 0.0044203832
-0.1196996955 0.0354004523 -0.5311735669 0.0000847489 -0.0022485202 0.0020864874
-0.3830058315 1.5944067787 -0.2756082177 0.0001451176 -0.0009533665 0.0003031979
-0.0201000190 1.0294116948 0.3671466708 0.0000000000 -0.0022624433 0.0021616729
-0.2241047156 1.0294116948 0.0208230156 0.0000000000 -0.0022624433 0.0021616729
0.1307072626 1.0361990247 -0.1041450778 -0.0000000543 0.0022624388 0.0021576548
-0.4514497476 0.1345160723 0.4920127143 0.0018816153 0.0005249841 0.0031911276
-0.0225580301 0.9598052471 -0.2924852120 0.0000073778 0.0000062602 0.0042595054
0.3395265380 1.0361990247 0.1663405351 0.0000000249 0.0022624342 0.0021623539
0.4486704741 0.1729614521 0.4634314855 -0.0021900066 0.0000906493 0.0023643132
-0.1568443581 1.7949228578 -0.3554579906 -0.0000054638 0.0021402465 0.0028134082
0.4292756224 1.0294116948 -0.1198963414 -0.0001313982 -0.0022569365 0.0021640870
-0.0715630721 0.0565171839 -0.5496436742 0.0000337421 -0.0007411380 0.0000349830
-0.4619062288 0.5858374150 -0.3411741409 0.0009845995 0.0007559751 0.0002819174
-0.4181711255 1.0294116948 0.3331504355 0.0000036742 -0.0022624388 0.0021604965
-0.2516419264 0.0544380574 -0.5557818842 -0.0000818529 0.0015609388 0.0005494966
0.1483797343 0.9260793896 0.0500535747 -0.0000197579 -0.0002248914 -0.0000707115
0.4905645459 0.2586152947 -0.4648820035 0.0018704999 0.0004360701 0.0010626436
0.4830355781 0.0850875666 0.4846878415 0.0010555407 -0.0009059117 0.0003996482
-0.2680709795 1.7748511307 -0.3816141766 -0.0000051810 0.0002254276 -0.0000455848
-0.4820255284 0.3598955706 -0.3895207145 -0.0009875882 -0.0007491312 0.0040333244
0.4389139974 0.9565572654 -0.2215748979 -0.0020505745 -0.0006324298 0.0021654806
0.3537389941 1.0165080758 0.5602200853 0.0004486131 0.0000794457 0.0043551162
-0.4488353157 0.4176029943 -0.3860963935 0.0022485315 -0.0000468823 0.0022915575
-0.4628308351 0.9473948814 0.0853453189 0.0009765090 0.0009268325 0.0039735914
0.4491776731 1.4487578496 -0.1987032003 -0.0020846379 -0.0004311131 0.0014142771
-0.4530548901 0.9920646725 -0.1432869416 0.0016987714 -0.0005045701 0.0034434353
0.4923900435 0.6261141249 -0.2930795808 0.0020422306 -0.0003320475 0.0029963991
0.4745021511 0.4527664218 0.2921143410 0.0003552104 -0.0009957805 0.0002226550
0.4802715624 0.3066594882 -0.4539260224 0.0009004298 0.0007696447 0.0002399694
0.4816292818 1.3166326256 -0.1045924081 0.0009089004 0.0009347398 0.0039860642
0.4563627315 0.1030725609 0.4780056655 -0.0015268551 -0.0007526312 0.0006990101
-0.3526083946 0.9724879928 0.5537154228 0.0004593868 0.0000775724 -0.0000227455
-0.4735208932 0.4229297270 0.3070395414 -0.0002187941 -0.0010032307 0.0002084242
0.4649469390 1.7087080809 -0.3499891652 0.0004578778 -0.0008101764 0.0001315577
-0.4553379080 0.8014702578 -0.2161257851 0.0014294207 -0.0006399886 0.0037763221
-0.4570932563 0.5405597574 0.2903123887 0.0012505701 0.0008526063 0.0038302769
-0.4542511502 0.8700549885 -0.1899305539 0.0015388845 -0.0005921357 0.0036584828
-0.4543535438 0.3010187759 0.4110446158 0.0014315316 0.0007814253 0.0036916298
-0.0948035841 0.9779179811 0.5564602778 0.0000073552 0.0000626606 -0.0000980645
-0.4430800604 1.0306666450 0.4663884808 -0.0017173460 0.0013241379 0.0024005236
-0.0209521886 1.0361990247 0.4143999255 -0.0000000068 0.0022624229 0.0021687023
-0.4651366042 0.8294702016 -0.1999941029 0.0007007262 -0.0007895180 0.0041491253
-0.1042963888 0.9452737028 0.0592126419 0.0000753371 0.0018297284 0.0008704830
0.3906544214 1.6699463414 -0.3025368200 -0.0002235475 0.0011186085 0.0041130212
0.4800892502 0.2846194807 -0.4185391311 0.0008469886 -0.0007774411 0.0041039036
-0.4719589046 1.4530854082 -0.2216786535 -0.0003441991 -0.0010125090 0.0001847319
0.4533111480 0.9349659411 -0.1656925374 -0.0016743664 -0.0005202081 0.0034809986
-0.3502478382 1.0361990247 0.5130932491 -0.0000001561 0.0022624365 0.0021644014
0.4541047067 0.7766443477 0.1668303360 -0.0015593234 0.0007257081 0.0035812950
0.4894832790 0.0304584436 0.5502399050 0.0016789230 0.0008186674 0.0033555167
0.0773485400 1.0361990247 0.2922415899 0.0000000000 0.0022624274 0.0021662091
0.2863788335 1.0294116948 0.0565124407 0.0000000000 -0.0022624433 0.0021616729
0.0216557768 1.7511311029 -0.3589386170 -0.0000023281 -0.0022420112 0.0023320869
0.4714023730 1.2577506884 -0.1217472463 0.0002445498 -0.0010192126 0.0001726753
0.0083984949 1.0361990247 0.0586732505 -0.0000000905 0.0022624388 0.0021587137
0.3609915796 1.6543923198 -0.3071743513 0.0001050000 -0.0009320158 0.0001059649
-0.4161113948 1.0247146114 -0.2973141710 -0.0008622963 0.0000840769 0.0001703880
-0.1861509308 0.9165837975 0.0532475428 0.0000321923 -0.0010533664 0.0001907500
0.2778648952 0.0459613000 -0.5195759546 0.0001666425 0.0010881877 0.0041134556
-0.4989968213 1.0720697417 -0.0669509966 -0.0013371605 -0.0008231628 0.0024426706
0.2819698202 1.0361990247 0.0743560572 0.0000000158 0.0022624320 0.0021615281
-0.4897781998 0.4442038251 0.3363244353 -0.0017164750 0.0006481018 0.0034283357
0.0849279286 1.0294116948 0.1375795325 0.0000000000 -0.0022624433 0.0021616729
0.3467869244 1.6369793504 -0.2997397659 0.0001215701 -0.0009641651 0.0001230780
0.1552749804 0.0402246941 -0.5516840021 -0.0000905452 -0.0012725542 0.0003187590
-0.4595965593 0.2184554082 -0.4473191721 0.0012647375 -0.0006758144 0.0038541977
-0.0705271536 0.9432018907 0.0882924816 -0.0000081403 0.0016736153 0.0036589783
-0.3352298415 1.7703585563 -0.3372048199 0.0000050498 -0.0001256109 0.0043963877
-0.3751508026 0.9072881579 0.0631750195 -0.0000001923 -0.0020294094 0.0011662997
0.2819277886 1.0294116948 0.2056335890 0.0000000000 -0.0022624433 0.0021616729
0.3462917729 1.0294116948 0.0046649262 0.0000000000 -0.0022624433 0.0021616729
-0.4930074371 1.2927891475 -0.1042512248 -0.0020866854 0.0003837647 0.0029082023
0.3064021263 1.0361990247 0.0916012822 0.0000000204 0.0022624320 0.0021615734
-0.4434388839 0.9712440201 0.2569219656 0.0022606899 0.0000758077 0.0021686164
0.4580376431 0.8623298306 0.0877068843 -0.0012829750 -0.0008446018 0.0005160871
-0.4836934310 0.1704248685 -0.5060730686 -0.0012487171 0.0006629909 0.0004610577
-0.2378385223 1.0016183302 -0.2964808407 0.0000166109 -0.0000175271 0.0044220845
-0.4917695073 0.5889760302 0.2589548885 -0.0019775723 0.0004365950 0.0030157023
-0.1808631574 1.0361990247 -0.1300878475 -0.0000001267 0.0022624410 0.0021598471
0.4497949627 0.6475268316 0.2095770186 -0.0020966379 -0.0004011312 0.0014212205
0.1896257564 1.0361990247 0.2308368610 0.0000000113 0.0022624297 0.0021644535
0.0537257271 0.9453520671 0.0593300650 0.0000864638 0.0018034750 0.0008458472
-0.4932126362 1.3871801479 -0.1729472111 -0.0022081198 -0.0002122511 0.0017437725
-0.1932755412 1.0361990247 0.2897681647 -0.0000001471 0.0022624410 0.0021604173
-0.3971265296 0.9224747949 0.0509547239 -0.0000485633 -0.0003856832 -0.0000188179
-0.4718990788 1.6125800648 -0.2525291967 -0.0000024095 0.0010129049 0.0041436864
-0.0361188120 1.0294116948 -0.0659427252 0.0000000000 -0.0022624433 0.0021616729
-0.4434388839 1.0146476777 0.1413851499 0.0022606627 -0.0000633959 0.0021601933
0.3600526792 1.0294116948 -0.2018285417 0.0000000000 -0.0022624433 0.0021616729
0.4543862701 0.9394123254 0.0908188479 0.0000898507 0.0012512058 0.0039330009
-0.4483162411 0.7889475573 0.1460369414 0.0021740089 -0.0001376878 0.0019961186
-0.4213831343 0.9554274238 0.5064130414 0.0007370995 -0.0018824818 0.0017392974
-0.1300755839 1.0361990247 -0.2080680752 -0.0000001109 0.0022624410 0.0021593969
0.4423081103 0.9064198570 0.0766250842 0.0001100656 -0.0021417962 0.0027282498
-0.3695560405 1.0361990247 0.5239096239 -0.0000001878 0.0022624410 0.0021626480
-0.2253904915 0.0652408553 -0.5303223543 -0.0001838959 0.0021028234 0.0028753222
-0.4948654189 0.8835059898 -0.2026954263 -0.0022508935 0.0000201018 0.0021193879
-0.0013938506 1.5413636420 -0.2604533070 -0.0000287557 0.0001040973 0.0028168313
-0.4361359998 1.6201169398 -0.2728263718 0.0007160271 0.0009241198 0.0039751298
-0.4751007302 0.7041019975 0.2118173849 -0.0004692262 0.0009988823 0.0041140868
-0.4925429756 0.8911946929 0.0807876608 -0.0020495858 -0.0003833529 0.0014148743
0.0014433144 0.9949141994 -0.2964808068 0.0000052805 -0.0000207896 0.0044230393
-0.0767296441 1.0294116948 0.1233936579 0.0000000000 -0.0022624433 0.0021616729
0.4054357327 1.0262736317 0.5347153992 0.0014039252 0.0003533665 0.0038077294
0.3886159238 1.5490444039 -0.2432182968 -0.0009986402 0.0006009705 0.0035386321
-0.4726768276 0.7999835272 0.1632679787 -0.0002147670 0.0010149841 0.0041458809
0.4588453580 0.7624008555 0.1776822334 -0.0011721673 0.0008754773 0.0038745144
-0.4580502427 1.0701434070 -0.1070453943 0.0011685090 -0.0007035000 0.0039402972
0.4595887222 0.7599596566 -0.2700289036 -0.0011363823 0.0007233800 0.0003658902
-0.4545490777 1.1398873910 -0.1192559297 0.0015147827 0.0006917194 0.0006754309
-0.1805069063 1.6081055809 -0.2869599274 0.0000878914 0.0010113597 0.0041794963
0.2351924682 1.0361990247 0.5172477466 0.0000000249 0.0022624320 0.0021680960
0.0302577966 1.0045580970 0.5564602778 -0.0000046584 -0.0000431086 -0.0000995509
0.4810945352 0.4424340831 -0.3990781347 0.0009418642 0.0007613891 0.0002631844
0.4109296916 1.0274114823 0.5170758620 -0.0007596651 -0.0020137510 0.0015734264
-0.1449509947 1.6421520107 -0.3052609623 0.0000580701 0.0010833144 0.0041439647
-0.2795968181 0.9174019038 0.0918926940 -0.0000016403 -0.0009536990 0.0041818131
-0.0803522774 1.7567957722 -0.3745437992 0.0000004910 -0.0016559727 0.0006369129
-0.3169723563 1.0080868818 -0.2964808407 0.0000203258 -0.0000338326 0.0044220257
-0.3000649638 1.0361990247 0.3012945734 -0.0000001719 0.0022624433 0.0021611910
-0.1614477809 1.0361990247 0.3804294436 -0.0000000226 0.0022624184 0.0021693494
0.0939138353 1.7552983401 -0.3456597424 -0.0000011516 -0.0018179886 0.0034051050
-0.2580583490 1.0294116948 0.2958720082 0.0000000000 -0.0022624433 0.0021616729
-0.0988833417 1.0124343249 0.5564603118 -0.0000004683 -0.0000608213 -0.0000993993
0.4554729940 0.6599258738 -0.2727944034 -0.0014633234 -0.0006287285 0.0037449964
0.0801310421 1.0361990247 -0.1863256469 -0.0000000633 0.0022624388 0.0021579218
0.4777060830 0.7476662524 0.1888320245 0.0006770135 0.0009752398 0.0040673244
0.0644332784 0.9832800283 0.5632476077 0.0000042014 -0.0000250068 0.0044200687
0.4889067225 0.1452619879 0.4577735130 0.0014159230 -0.0007993823 0.0006075305
-0.4696586604 1.1506433880 -0.0162917082 0.0002154547 0.0010178235 0.0041509262
0.2779346802 1.0294116948 0.4504672126 0.0000000000 -0.0022624433 0.0021616729
0.4739907054 0.9812535103 0.0209826626 0.0004736538 -0.0009993483 0.0002127093
-0.3034183075 0.9201079556 0.0926594043 -0.0000200814 -0.0006179615 0.0043118357
0.4754987370 0.6611754370 -0.2659709107 0.0003689774 -0.0008149004 0.0042055416
-0.4680288687 1.1121497458 0.0028995575 0.0004348167 0.0009984909 0.0041129488
-0.4465617910 1.0269897583 0.2335817862 -0.0020536447 0.0005988710 0.0021679693
0.4363542487 1.0347899682 0.0321551143 0.0007578597 0.0021288279 0.0021598471
0.4560034939 1.0878353153 -0.0266246871 -0.0013751605 -0.0008148936 0.0005733518
-0.0380832508 1.0361990948 -0.2203139771 -0.0000000905 0.0022624388 0.0021587250
0.4846235961 0.6089562731 0.2171148439 0.0011838981 -0.0008737714 0.0004600531
-0.4831031030 0.7956037017 -0.2564767168 -0.0010411266 0.0007416628 0.0003192251
0.4449875467 1.0293510749 0.1402166364 0.0018250202 0.0011035474 0.0021544693
-0.4907862812 1.0366725314 -0.1529377102 -0.0017062284 0.0005287692 0.0008573608
-0.4479637705 1.0057759023 0.2625087028 -0.0022572917 0.0000539842 0.0021709489
-0.4880325528 0.7688901220 0.1721950958 -0.0014520881 0.0007842013 0.0036929896
0.4776188115 0.6072686239 0.2608312029 0.0006872307 0.0009728189 0.0040629285
0.0799973543 1.0294116948 0.4019586978 0.0000000000 -0.0022624433 0.0021616729
0.1207807045 1.7607304687 -0.3784783917 -0.0000002579 -0.0012516673 0.0003194966
0.4505773721 0.2400503909 0.4365236502 -0.0019973505 0.0004600294 0.0030723245
-0.4650318983 0.1948408623 0.4721751161 0.0006935678 0.0009689524 0.0040559420
0.0545645619 1.0294117650 -0.0760614688 0.0000000000 -0.0022624433 0.0021616729
-0.3433273568 1.6469493452 -0.2956794087 0.0001818733 0.0010750203 0.0041404443
0.3303418169 1.6086894180 -0.2871387848 0.0001421425 -0.0010170814 0.0001509513
-0.4647234436 0.4151739469 -0.4110590117 0.0007976855 0.0007856628 0.0002065396
-0.4545629194 1.3528112815 -0.1278587006 0.0015884479 0.0007282986 0.0035845710
-0.1854704829 0.9186418698 0.0926594043 0.0000044027 -0.0006984366 0.0043022180
0.3797629946 1.0361990247 0.1542804318 0.0000004864 0.0022624365 0.0021612928
0.1821888247 1.5637835658 -0.2642133542 -0.0000810339 0.0009223280 0.0042232769
0.2105830468 0.9055925675 0.0741432065 0.0000006787 -0.0022090112 0.0024033222
-0.3277016316 1.0361990247 0.2250496555 -0.0000001765 0.0022624433 0.0021613019
-0.0036446174 0.0840371097 -0.5053696094 -0.0000021855 0.0007233846 0.0042707814
0.4950388578 1.1267557199 -0.1026771095 0.0022486582 -0.0000335385 0.0022621458
0.1085834519 0.0385079589 -0.5368494217 -0.0000866176 -0.0021402736 0.0015212748
0.3164850419 1.0294116948 0.2485008576 0.0000000000 -0.0022624433 0.0021616729
0.0315154209 1.0294116948 0.3139046495 0.0000000000 -0.0022624433 0.0021616729
0.2716812191 1.6641996472 -0.3100658217 -0.0001406878 0.0011564434 0.0040991683
-0.4794970919 0.9925267856 0.0172855656 -0.0009205610 -0.0009419004 0.0003251912
-0.2011362352 1.0361990247 -0.2196860360 -0.0000001290 0.0022624410 0.0021598901
0.4479637705 0.9722865901 0.0630208747 0.0022568437 -0.0001133167 0.0021407227
-0.0339767285 1.0294116948 0.1190708822 0.0000000000 -0.0022624433 0.0021616729
-0.0125104449 0.9777867278 -0.2964808407 0.0000058891 0.0000515860 0.0044218922
0.1227436410 1.0294116948 -0.1228379996 0.0000000000 -0.0022624433 0.0021616729
-0.3552163334 1.0361990247 0.1096941837 -0.0000001787 0.0022624433 0.0021613652
0.1714764295 1.0361990247 -0.0467549459 -0.0000000452 0.0022624365 0.0021575213
-0.4846755169 1.0407085832 0.0349513087 -0.0011635542 0.0008742375 0.0038677181
0.4690457894 0.0464570534 0.4997135690 -0.0004724049 -0.0010004253 0.0002161889
-0.4469603498 1.7604286068 -0.3650313248 -0.0012074886 0.0007037104 0.0004490192
-0.4748409180 1.5639119889 -0.2288530648 -0.0002732964 0.0010021583 0.0041179782
-0.4528150643 0.4041138798 0.3558639001 0.0017048370 0.0006323823 0.0034001163
0.4724995901 1.3646570725 -0.1261775423 0.0000664366 0.0010166402 0.0041480325
0.4547035981 0.7254026453 -0.2813521155 -0.0015201130 0.0006221312 0.0006224943
0.3947413940 1.5961711360 -0.2752792720 -0.0003295679 -0.0009076560 0.0004204355
0.4552878854 1.1105550988 -0.0378229194 -0.0014176515 -0.0008003981 0.0006016300
0.1080171578 1.0361990247 0.1049661003 -0.0000000023 0.0022624274 0.0021633449
-0.4805100760 1.0207387656 -0.1236576330 -0.0010273257 -0.0007423642 0.0040306366
-0.4544021162 0.8501941233 -0.2309230126 0.0016086696 0.0005882036 0.0007106708
0.3311134210 0.9832624921 0.5564602778 -0.0000144389 0.0000047805 -0.0000999604
0.4914677155 1.6452058386 -0.3020677657 0.0021879569 -0.0001756584 0.0016838788
0.2840218676 1.0294116948 -0.2320910329 0.0000000000 -0.0022624433 0.0021616729
-0.2916261974 1.0294117650 0.0401951432 0.0000000000 -0.0022624433 0.0021616729
-0.4436767753 0.9972610138 0.4763231249 -0.0021390474 0.0000161652 0.0028689557
0.4298270093 1.6439058726 -0.2852366673 -0.0004123914 0.0010099592 0.0040866117
0.1047052847 1.7905817676 -0.3459704075 0.0000005928 0.0017910383 0.0035045665
0.4292181767 0.9147711076 0.0901388208 0.0000136041 -0.0010824637 0.0040352837
0.4790478544 1.2855212680 -0.0872443120 0.0007202986 0.0009749841 0.0040653628
0.2942532651 1.0361990247 -0.0808618237 0.0000000113 0.0022624320 0.0021592589
0.0271687719 1.0294116948 0.0879748866 0.0000000000 -0.0022624433 0.0021616729
0.1906618015 0.9819081189 0.5632475738 0.0000099050 -0.0000128824 0.0044215529
-0.1225781591 0.9147260918 0.0901088299 -0.0000048824 -0.0013163370 0.0039227905
-0.4538856638 1.0489390781 0.0269023477 0.0016451469 0.0006867466 0.0035043312
0.4671141719 0.5950825139 -0.3397651206 -0.0006216221 0.0008035791 0.0001662500
0.4768039156 1.0908013196 -0.1410539463 0.0004233348 0.0008140859 0.0001471821
0.3265946453 0.9412752777 0.0895768367 0.0000458552 0.0014946832 0.0037556298
-0.1478314198 0.9594446973 0.5588914315 -0.0000037330 -0.0015506424 0.0037855009
-0.4620101067 0.8671968303 0.1259447166 0.0010122669 0.0009174185 0.0039554941
0.2162737116 1.6129088543 -0.2967960285 0.0001069366 -0.0009949185 0.0001368631
0.4687563551 1.1998194910 -0.0914320470 -0.0002182511 -0.0009979388 0.0002155170
0.4161900713 1.0294116948 0.3079745753 -0.0000032692 -0.0022624388 0.0021606277
0.2409969180 1.6534124443 -0.3153129481 0.0001118982 -0.0009213529 0.0001003541
0.3423610808 1.0294116948 0.0821351471 0.0000000000 -0.0022624433 0.0021616729
-0.4791119290 1.2359071469 -0.0618247119 -0.0007316787 0.0009732307 0.0040620371
0.4912405594 1.1136067864 -0.1279112526 0.0015147465 0.0006348438 0.0006225260
0.4932126362 0.0498316980 0.5255371012 0.0022535926 0.0000392557 0.0022444829
-0.3118454743 1.0361990247 0.0952020128 -0.0000001674 0.0022624433 0.0021610394
0.4393974114 1.0336949253 0.2872707803 0.0009207103 0.0020473890 0.0021643290
-0.2075402642 1.0294116948 0.1141276042 0.0000000000 -0.0022624433 0.0021616729
0.1981828644 1.7538050506 -0.3706275371 -0.0000010905 -0.0019068189 0.0010378540
-0.0460083362 0.9424821713 0.0558225064 -0.0000096290 0.0015078619 0.0004992749
0.4571827721 0.4131231235 0.3185376605 -0.0014184162 -0.0007932533 0.0006183133
-0.2366406717 1.0361989546 -0.0682136006 -0.0000001425 0.0022624410 0.0021603155
0.1986287354 0.0267433647 -0.5442983330 -0.0001580746 -0.0020929229 0.0013445961
-0.4870593402 0.2441760807 -0.4389378876 -0.0012883076 -0.0006880429 0.0038748968
-0.2806631393 0.9290553374 0.0500363710 -0.0001020204 0.0002655860 -0.0000691912
0.3455730218 1.0294116948 0.2151166494 0.0000000000 -0.0022624433 0.0021616729
0.2869712317 1.0294116948 -0.0579971443 0.0000000000 -0.0022624433 0.0021616729
0.4389139974 0.9573689486 0.2948435241 -0.0011081651 -0.0008845814 0.0021525711
-0.4059516331 0.9973115545 -0.2950423024 0.0001911538 0.0000070792 0.0043783176
0.4389139974 0.9562765301 0.3454411134 -0.0004990226 -0.0014094456 0.0021514738
-0.1846264332 1.0217629691 0.5632476416 -0.0000023213 0.0001386199 0.0044192655
-0.1210257588 1.0294116948 0.3846885452 0.0000000000 -0.0022624433 0.0021616729
-0.2734595063 1.0294116948 -0.2891418480 0.0000022330 -0.0022186560 0.0024318381
-0.4537726728 1.0323500815 0.0043259103 0.0016058438 -0.0007063009 0.0007863608
-0.0806704855 0.9478791574 0.0631207480 0.0000949480 0.0020707849 0.0012771006
0.4947881587 0.8506645893 -0.2170527556 0.0022401039 0.0000555317 0.0020291526
0.1525408449 1.7577571454 -0.3755048603 -0.0000024118 -0.0015850746 0.0005759355
0.1683398506 1.0294116948 0.1539596174 0.0000000000 -0.0022624433 0.0021616729
-0.1120172571 1.0361990247 0.0491381471 -0.0000001176 0.0022624410 0.0021595621
0.4934408964 0.9261466385 -0.1919677913 0.0020773370 0.0003136289 0.0013914196
-0.3489148700 1.0218367067 -0.3032681706 -0.0000216584 0.0000695633 -0.0000994219
-0.2501569717 0.9549648266 -0.2966946009 -0.0000003620 -0.0022197985 0.0020771797
0.2918377856 1.0294116948 0.3747261793 0.0000000000 -0.0022624433 0.0021616729
0.0395780426 1.0361990247 0.4905994814 0.0000000023 0.0022624252 0.0021692838
-0.2331409910 1.0361990948 0.3789355682 -0.0000001538 0.0022624410 0.0021611345
0.4043901264 0.9966119278 -0.2957363023 -0.0001192647 -0.0000234661 0.0044004284
-0.4539530868 0.8084508433 0.1502948846 0.0015901922 0.0007095316 0.0035495937
0.1044645879 1.7777518183 -0.3808890047 0.0000022670 0.0006715972 0.0000295826
-0.3268184869 1.7549695506 -0.3461529935 0.0000081357 -0.0018634818 0.0033429896
0.3891888514 0.0378188187 -0.5212725811 0.0002081154 0.0009340158 0.0041734692
0.0137521552 1.0294116948 0.5026985281 0.0000000000 -0.0022624433 0.0021616729
-0.4548693741 0.5130073928 -0.3320611573 0.0015596605 -0.0006005248 0.0036709081
0.4487992071 1.1308546042 -0.1162121471 -0.0018836809 0.0005098054 0.0010720531
-0.4629467966 0.6317671947 -0.2799475998 0.0009199637 -0.0007607647 0.0040747090
0.2060082236 0.9919413580 -0.3032681706 0.0000114208 0.0000126697 -0.0000998269
-0.2639271993 1.0361990247 0.0694924896 -0.0000001538 0.0022624410 0.0021606684
-0.3285593691 1.0294117650 -0.2353694987 0.0000000000 -0.0022624433 0.0021616729
-0.1545809126 1.0361990247 0.2205512644 -0.0000001335 0.0022624410 0.0021600621
-0.4846138947 1.4101957866 -0.1936608093 -0.0012672352 -0.0008416447 0.0005190463
-0.3850354920 1.7787500625 -0.3369764896 0.0001124457 0.0007118190 0.0042817180
-0.0010881922 0.0947162764 -0.5343236097 -0.0000005769 0.0020896628 0.0013022431
-0.4300557536 1.5575139305 -0.2421559304 0.0012629954 0.0007475158 0.0037787181
-0.3019136605 1.0294116948 -0.1924197392 0.0000000000 -0.0022624433 0.0021616729
0.3369981355 0.9104418930 0.0584444429 0.0000051991 -0.0018133709 0.0008509106
0.1785189132 1.7924452720 -0.3705512090 0.0000083914 0.0017636560 0.0007689536
0.4932126362 0.1875269827 -0.4749854960 0.0021850994 -0.0001816176 0.0026051503
-0.3549677745 0.0475443520 -0.5362947543 -0.0002896086 0.0021145089 0.0029118969
0.3108609359 0.9815619990 0.5632476077 0.0000137670 -0.0000141991 0.0044215664
0.4566501975 0.1929239688 0.4682556798 -0.0012321786 0.0008586493 0.0038426525
0.4172446187 0.9924099621 0.5238310515 0.0016646628 -0.0000086606 0.0036847362
0.0120954901 1.0101477165 0.5564602778 -0.0000040475 -0.0000556787 -0.0000994400
0.0515482589 1.6692326989 -0.3200350925 -0.0000228507 0.0011354547 0.0041179805
-0.0035914771 1.7675397556 -0.3814653508 -0.0000018122 -0.0004843620 -0.0000084355
0.4527251344 0.6972513554 -0.2621139426 -0.0018472782 -0.0004473461 0.0032939511
0.0827652546 1.0361989546 -0.2746724259 -0.0000000588 0.0022624388 0.0021578019
0.1206686886 1.0294116948 -0.2515028709 0.0000000000 -0.0022624433 0.0021616729
-0.4528593222 0.5100782912 0.2736818988 0.0018110858 -0.0005995226 0.0009972907
-0.1264478670 1.0294116948 0.5373332837 0.0000000000 -0.0022624433 0.0021616729
0.2662290498 0.9567462382 0.5561930064 0.0000021946 -0.0019107465 0.0026375620
0.0223404487 1.0361990247 -0.1378168651 -0.0000000792 0.0022624388 0.0021583901
0.4885012610 0.8451867549 0.1327858224 0.0014766311 0.0007775588 0.0036797249
0.1422992279 1.0145889221 0.5632476077 0.0000082081 0.0001113484 0.0044196637
0.4532581208 0.5779141350 0.2674323201 -0.0016631877 0.0006612895 0.0034560552
0.2078916148 0.0622624143 -0.5509500950 0.0000820023 0.0017580429 0.0007664106
0.4932126362 0.7646193169 0.1614861870 0.0022437940 0.0000837873 0.0023277679
-0.1723637869 1.0149284130 -0.3032681706 -0.0000096267 0.0000564163 -0.0000994921
-0.4306466337 1.0361989546 -0.1865282577 -0.0001707986 0.0022546401 0.0021587091
0.3936333715 1.0294116948 0.1698138606 0.0000000000 -0.0022624433 0.0021616729
-0.3109802097 1.0294116247 0.0272343545 0.0000000000 -0.0022624433 0.0021616729
-0.0052563209 1.0361990247 0.4446059393 -0.0000000045 0.0022624252 0.0021689987
-0.0302868124 1.0294116948 0.0729141365 0.0000000000 -0.0022624433 0.0021616729
-0.4883042768 0.0742257189 0.4935660038 -0.0013511492 -0.0008288031 0.0005503495
-0.4208024375 0.9052974024 0.0710167769 -0.0001583552 -0.0022273799 0.0020307815
0.2605330004 0.0200459127 -0.5512769501 -0.0002004412 -0.0019482985 0.0010901210
-0.3335877624 1.0361990247 0.0414856069 -0.0000001697 0.0022624433 0.0021611322
-0.4683257601 0.9102739767 0.0825521494 -0.0000908597 -0.0018820632 0.0030400507
-0.3546329782 1.0361990247 -0.2484546517 -0.0000001629 0.0022624433 0.0021609512
-0.4102483613 1.0294116948 0.4355494354 0.0000031855 -0.0022624388 0.0021606548
-0.2571528332 0.9594237086 0.5499685611 0.0000033032 0.0001232172 -0.0000573948
0.4526977928 0.3499013043 -0.4281427775 -0.0017170610 0.0005142466 0.0008823223
-0.4628298351 0.6332478507 0.2021395168 0.0010782759 -0.0009068189 0.0003958450
0.4864602769 0.8746382868 -0.2230751104 0.0012594931 0.0006950000 0.0004364694
0.1425232256 0.0648017897 -0.5528319998 0.0000149706 0.0010377556 0.0001742952
-0.4479637705 0.9922724259 -0.0357362792 -0.0022570722 -0.0000130656 0.0021453177
-0.1362035156 0.0632343939 -0.5115658850 -0.0000692534 0.0006303574 0.0043165551
0.3590194326 1.0294117650 0.4307130194 0.0000000000 -0.0022624433 0.0021616729
-0.2746271827 1.0294116948 0.5346812228 0.0000000000 -0.0022624433 0.0021616729
0.3169752907 0.0528681412 -0.5418110141 0.0002279072 0.0022053709 0.0019862567
-0.4727274724 0.7266215525 0.1510465361 -0.0002252534 -0.0010092171 0.0001950871
-0.0311399662 1.0361990247 0.3920908184 -0.0000000090 0.0022624229 0.0021684716
-0.4281321112 1.7298653238 -0.3362490733 0.0016921311 -0.0012257759 0.0029540575
0.4855312521 0.2602488308 0.4345302725 0.0013354728 0.0008136787 0.0037525461
0.2471378724 1.0361990247 0.0482802377 0.0000000113 0.0022624320 0.0021614422
-0.1464885760 1.0361990247 0.2372542678 -0.0000001335 0.0022624410 0.0021600236
0.1211642791 1.0361989546 0.2651073745 0.0000000045 0.0022624274 0.0021654806
0.1437342436 1.0361990247 0.1467106224 0.0000000023 0.0022624274 0.0021636435
-0.4515688494 1.6835172726 -0.3310998542 0.0016032103 -0.0009615678 0.0009066640
-0.4999999661 1.0867379262 -0.0820217331 -0.0022580813 -0.0000435362 0.0021747340
0.4923393648 0.2408398434 0.4368231299 0.0020844071 0.0003240339 0.0027990123
-0.0126654675 0.9184800983 0.0926114881 0.0000113710 -0.0006378981 0.0043174488
-0.0071514430 1.0294116948 0.4275769585 0.0000000000 -0.0022624433 0.0021616729
0.1087883229 1.0361990948 -0.0625109743 -0.0000000611 0.0022624388 0.0021578585
0.2355274207 0.0204911706 -0.5323914740 -0.0001534593 -0.0021438799 0.0027473652
0.3777669246 1.0294116948 0.2436038760 0.0000000000 -0.0022624433 0.0021616729
0.0674467511 1.0294116948 0.0904320697 0.0000000000 -0.0022624433 0.0021616729
0.4932126362 1.6223826976 -0.2824718915 0.0022486695 0.0000537873 0.0021795824
-0.4932126362 0.7439638907 0.1645869832 -0.0022499614 -0.0000566900 0.0020525349
-0.4542432791 0.1229591636 0.4697147588 0.0016920587 -0.0006789728 0.0008430757
-0.4937858081 0.4213193379 -0.3910838411 -0.0022129003 0.0001086357 0.0018821797
-0.4718546128 0.3864052973 -0.4243563886 -0.0002899819 0.0008307963 0.0000904061
0.0254942426 0.9483372659 0.0647419628 0.0000846991 0.0021053347 0.0013960372
-0.3245839033 1.0361990948 0.2801791903 -0.0000001765 0.0022624433 0.0021613426
-0.4124343046 1.0361990247 -0.2101757900 -0.0000001787 0.0022624433 0.0021614060
-0.1940502877 1.0361990247 0.3145242196 -0.0000001471 0.0022624410 0.0021604512
0.2338300181 0.0410450312 -0.5157504186 0.0000737941 0.0000399751 0.0044061841
-0.4932126362 0.3064563254 0.3857072600 -0.0021669501 -0.0002261968 0.0017252227
-0.4531608380 1.5375333413 -0.2535906672 0.0016031990 -0.0006946063 0.0008074649
0.4843590531 0.7753446578 -0.2639712343 0.0011237850 0.0007246266 0.0003611142
-0.4801112050 0.6560121659 0.1901563276 -0.0009335361 -0.0009391741 0.0003320599
-0.3381704386 1.0294116948 0.1419409236 0.0000000000 -0.0022624433 0.0021616729
-0.0858949625 1.0294116948 0.4972401959 0.0000000000 -0.0022624433 0.0021616729
0.3409227506 1.0361990247 0.4354462815 0.0000000339 0.0022624342 0.0021661073
-0.4647910024 0.0633444165 -0.5074616861 -0.0008377782 -0.0011757624 0.0038701932
-0.3626507469 0.0093882166 -0.5614123409 0.0001442149 0.0017521922 0.0035456457
-0.3333046109 1.0294116948 0.3164165498 0.0000000000 -0.0022624433 0.0021616729
0.2926780887 1.0294116948 -0.1576616352 0.0000000000 -0.0022624433 0.0021616729
-0.1784930897 1.7538115393 -0.3706371705 0.0000032692 -0.0018822125 0.0009573404
0.2585294033 0.0581811974 -0.5481324323 0.0001369480 0.0019960315 0.0011232409
0.4844054852 0.2799772525 0.3856347284 0.0011471244 -0.0008825248 0.0004444513
-0.3327122806 1.0294116948 0.1001329649 0.0000000000 -0.0022624433 0.0021616729
-0.2643879323 1.5836753631 -0.2693453810 0.0001426968 0.0009683529 0.0041972407
0.4774844857 1.1648319888 -0.0249799044 0.0006073054 0.0009869841 0.0040893651
-0.1665028937 0.0626985161 -0.5146563418 -0.0000998552 0.0011286560 0.0040678877
0.4838582387 0.3084687596 0.4108604393 0.0012026063 0.0008562375 0.0038353221
-0.4594419349 1.2295730229 -0.0614470580 0.0012167940 0.0008562918 0.0038356638
-0.4489427501 0.5016422872 0.2961563317 0.0021413121 0.0000552081 0.0023355281
-0.3261808625 0.9085289519 0.0816632128 0.0000190430 -0.0020141333 0.0031682045
-0.4737135629 0.9723516286 -0.1897464136 -0.0000701176 0.0008339004 0.0000972523
-0.0511565531 0.0512736798 -0.5430985163 0.0000384434 -0.0015827488 0.0005758291
0.4560151976 1.1334766289 -0.0827296200 -0.0012899230 -0.0006775814 0.0038772384
0.3946798058 1.0294116948 0.4999555713 -0.0000014615 -0.0022624410 0.0021612046
0.4434388839 0.9853521164 0.1732740663 -0.0022607148 0.0000313869 0.0021662453
-0.4896393536 0.9638357762 -0.1842515226 -0.0015657216 0.0005925565 0.0006942681
