-0.2940607442 0.2943627038 0.0898707596 -0.0002206248 -0.0013949974 -0.0002403981
0.2646676140 0.4715383596 0.2728052549 -0.0002049078 -0.0013950727 -0.0002371057
-0.4225505778 0.5667445772 0.1774635454 -0.0011808011 0.0009795610 -0.0002427488
-0.4824189978 0.4749147794 -0.2369849396 -0.0015921207 -0.0000735879 -0.0003128071
0.3734696608 0.7706029998 0.1011977584 -0.0008414762 0.0010601605 -0.0003161065
-0.1668754926 0.4882793665 0.1071667797 -0.0002079561 -0.0013950839 -0.0002397591
-0.3230568656 0.7587679478 -0.3153900781 0.0011848162 -0.0000038965 -0.0003112669
0.4896519065 0.6985465423 -0.1450660238 0.0011469452 0.0002405962 -0.0003078267
-0.1070713274 0.2943627038 0.0004383954 -0.0002124469 -0.0013950211 -0.0002447549
-0.2366193740 0.4882793665 0.4732846197 -0.0002080524 -0.0013950783 -0.0002424098
0.0421238686 0.4715383596 -0.0973334024 -0.0002074497 -0.0013950797 -0.0002420750
0.4476139772 0.4026422554 -0.0600547321 0.0011850812 0.0000478388 -0.0002477850
0.3315445965 0.3806324310 0.2616202743 -0.0016027135 -0.0000034919 -0.0002146504
0.4139698394 0.5679534816 0.4963897175 0.0006654041 0.0009488384 0.0002333194
0.4778800770 0.5229967242 0.2397990122 0.0011860606 -0.0000020815 -0.0002029247
0.2211336985 0.4882794097 0.2812151834 -0.0002089843 -0.0013950741 -0.0002431478
0.0331072321 0.6090834234 0.0401397782 -0.0002014662 0.0013944547 -0.0002536807
-0.3322954223 0.3895724119 0.3099796985 0.0011866493 0.0000078697 -0.0002136139
-0.4731875937 0.4304046721 0.3233101619 -0.0015939413 -0.0000033998 -0.0001297916
0.1703614013 0.5990795460 -0.1680368951 -0.0001633022 0.0013923802 -0.0002981252
0.4248939658 0.7481983820 -0.3742306407 -0.0001907868 -0.0003681473 -0.0015847539
-0.2516035196 0.5362540238 -0.3249020698 -0.0002243916 0.0004644723 -0.0015439742
0.4685933257 1.1569877678 -0.4552177558 -0.0008344353 0.0007368931 -0.0001667056
0.4230790551 0.5625975996 -0.0480960589 0.0007833459 0.0009645066 -0.0002568168
0.0785110943 0.2943627247 0.4470199763 -0.0002043777 -0.0013949221 -0.0002217388
-0.2151812828 0.3151076796 -0.3223228582 -0.0002130370 -0.0006508025 -0.0014702831
-0.1071919951 0.4715383596 0.0267836020 -0.0002124497 0.0013950476 -0.0002416648
0.4476139772 0.3561906182 -0.2780968723 0.0011859992 -0.0000408829 -0.0002554971
0.4507444869 0.9986941094 -0.4644449021 0.0009288280 -0.0001711740 -0.0008887870
-0.4577954334 0.4061377567 0.4289323786 -0.0015987961 0.0000737093 -0.0002223094
0.4664267060 0.7943164463 0.3205052215 -0.0001766309 0.0013934586 -0.0001833391
0.3399999085 0.6413343927 0.3824982399 -0.0002860445 -0.0000390219 0.0011511172
-0.0067099943 0.2943627038 -0.2578309879 -0.0002080579 -0.0013949639 -0.0002573344
0.3886094810 0.2867049418 0.1102748299 -0.0002145018 -0.0013949542 -0.0002282943
-0.1042262170 0.5990073392 0.4337076295 -0.0002486939 0.0013921975 -0.0001676096
-0.3434490693 0.4917725255 -0.3009828387 -0.0001906626 -0.0012866957 -0.0007251367
0.1108234460 0.4682007679 0.5061359341 -0.0002058411 0.0012983906 0.0001561029
-0.3324232734 0.3479279562 0.0785431206 0.0011717442 -0.0000178152 -0.0003426661
-0.3547548125 0.2348648962 -0.2094672849 -0.0000375884 0.0000043722 0.0008937396
0.3343373829 0.3868602404 0.3031662329 -0.0016014705 -0.0000534233 -0.0002143295
-0.2204272810 0.5965736056 0.3558970033 -0.0002687204 0.0013917078 -0.0001798570
0.4213003315 1.1455965129 -0.4205476565 0.0006374438 0.0009210860 0.0003110214
0.3416921843 0.1613998141 -0.2147147940 -0.0003948164 -0.0000543580 0.0008966637
0.3345605810 0.3369452265 0.2614234949 -0.0016013254 -0.0000589535 -0.0002199168
0.1452501254 0.2943627038 0.4630416430 -0.0002016140 -0.0013948356 -0.0002176582
-0.3281340767 0.3596138709 -0.0755565529 0.0011852417 0.0000395102 -0.0002176359
0.3220470174 0.8140696904 -0.2556058486 -0.0015003911 0.0003548675 0.0001448892
0.2403131641 0.8124433407 -0.2983424276 -0.0001032006 0.0006268656 0.0009977389
-0.4054483251 0.2858553440 -0.0064940793 -0.0002094614 -0.0013950421 -0.0002318546
0.2631428473 0.2973451170 0.5048040307 -0.0001993721 -0.0012827517 0.0001685261
0.1466189524 0.6060520274 0.1875825646 -0.0001761761 0.0013937544 -0.0002321434
-0.4477216498 0.2856023456 -0.0676017900 -0.0002258508 -0.0013948370 -0.0002335398
-0.2926587630 0.4715383596 0.3011209715 -0.0002203863 0.0013948746 -0.0002267988
0.3258025204 0.3290009798 -0.2747716061 -0.0016024806 -0.0000315359 -0.0002352404
0.1657838143 0.4882793665 0.3815372462 -0.0002091252 -0.0013950644 -0.0002457050
-0.3316359633 0.3238959465 0.0490930110 0.0011728980 -0.0000762706 -0.0002841814
0.4038773644 0.4715383596 -0.1235085219 -0.0001904799 0.0013947156 -0.0002602069
-0.1184241812 0.6004818676 0.3179708410 -0.0002531945 0.0013926369 -0.0001914502
0.0572610507 0.7572516967 -0.2658445674 -0.0001234447 0.0007516963 0.0009157080
0.1826950451 0.2943627038 -0.0640753960 -0.0001997251 -0.0013950155 -0.0002439360
-0.2087760006 0.6010428727 -0.0869243173 -0.0002618579 0.0013929745 -0.0002632537
-0.3799390834 0.6470835795 0.3983645097 -0.0000574879 -0.0000398073 0.0011440190
-0.3191572252 0.4882793665 0.3261916951 -0.0002114745 0.0013950658 -0.0002353897
-0.2555362611 0.4715383596 0.0876824952 -0.0002189396 0.0013950114 -0.0002401414
-0.2081831932 0.4715383596 -0.2657670384 -0.0002168623 0.0013949514 -0.0002531701
0.4476139772 0.3500724805 -0.0720260601 0.0011850994 -0.0000610391 -0.0002460272
0.1549496262 0.5149964063 -0.2074191706 -0.0001316771 -0.0006142024 0.0009887378
0.1212055348 0.9911541510 -0.3589911543 -0.0001104634 0.0005076264 0.0010436706
0.4769969958 0.7638888181 -0.1617739184 -0.0001867145 0.0013593419 0.0000699914
0.3192662580 0.0730597545 -0.2271461244 -0.0010045378 -0.0000931023 0.0006276650
0.4017410152 0.4715383596 -0.0557629476 -0.0001904185 0.0013947937 -0.0002539848
0.1744110536 0.8142327506 -0.4023936836 -0.0001100491 -0.0003456097 -0.0015759286
0.1572357111 0.6054231585 0.2404235815 -0.0001743304 0.0013936274 -0.0002240672
0.4318953562 0.7810305377 0.2127471872 -0.0002119990 0.0013884628 -0.0003748046
-0.3189542517 0.7183697778 -0.0457344413 0.0011805026 -0.0001114226 -0.0001941929
0.4604071282 0.5145852639 -0.3377221278 -0.0002144432 -0.0000178724 -0.0016343296
-0.4577954767 0.3706695105 0.1491505965 -0.0016020997 -0.0000260044 -0.0002381171
-0.0923761259 0.4882793665 -0.1184112160 -0.0002089926 0.0013950783 -0.0002420805
0.0036008922 0.6044598238 -0.1531639544 -0.0001999106 0.0013937418 -0.0002890712
-0.4737157306 0.5533046751 0.3763615407 -0.0016025280 0.0000067438 -0.0002074908
0.3368279118 0.3159630460 -0.3435039470 -0.0002622109 -0.0000566613 -0.0016323877
0.1556782911 1.0942215939 -0.5340125788 -0.0002067312 0.0002129916 -0.0016165367
0.2853635219 0.2943627038 0.0902010737 -0.0001951994 -0.0013950002 -0.0002400786
-0.4775358623 0.5132178543 0.1999027557 -0.0016027010 0.0000010045 -0.0002160497
-0.0358944172 0.4882793665 0.0713057824 -0.0002079868 -0.0013950769 -0.0002409952
0.1086224458 0.4715383596 0.2167312315 -0.0002066796 -0.0013950797 -0.0002383040
0.4783218317 0.5230518579 -0.2986968821 0.0011786025 0.0000301394 -0.0002374949
0.3276218173 0.6255128689 0.0952525595 -0.0016024555 -0.0000273130 -0.0002150675
-0.3096413384 0.2943627038 0.1391637280 -0.0002213056 -0.0013949946 -0.0002388607
-0.0565102431 0.8200098656 -0.3021256900 -0.0002300096 0.0006129273 0.0010050491
-0.3686248455 0.4798409992 0.5353367324 -0.0002137722 -0.0012495013 0.0003795103
0.2158878928 0.5987929343 -0.0682553464 -0.0001499136 0.0013924053 -0.0002803198
-0.4430430015 0.5428863350 0.4742187483 -0.0013475429 0.0008001894 -0.0002264793
0.4237074985 0.4097267077 -0.3446070761 -0.0001919517 -0.0000279142 -0.0016340409
0.0683689083 0.2943626829 -0.0800802394 -0.0002047544 -0.0013950197 -0.0002470401
0.0286375228 0.4723708634 0.4963200233 -0.0002076282 -0.0013918529 -0.0001642976
-0.3363553550 0.6945467447 0.3798009708 0.0011826524 0.0000021819 -0.0001309761
-0.3420035126 0.4622513112 -0.3460959097 -0.0002416850 -0.0008927993 -0.0011825903
-0.4722407349 0.2953981602 0.1174052209 -0.0002346733 -0.0013943473 -0.0002278521
0.0682813054 0.8557702160 -0.3171184140 -0.0001766992 0.0004886309 0.0010589259
0.3090194504 0.4875996635 0.5119206271 -0.0002020688 -0.0012697454 0.0001362523
-0.4754440038 0.6623386909 0.3163407036 -0.0016016128 -0.0000208635 -0.0001961879
-0.2302808702 0.4882793665 -0.1146578306 -0.0002105663 0.0013950783 -0.0002412240
0.1984391892 0.5410833006 0.5293922994 -0.0001981305 0.0004956426 0.0010571681
0.4677732967 1.1441064028 -0.4180643653 0.0004403603 0.0009670108 0.0003782882
0.4700726657 0.3537091588 0.3767209115 -0.0001951129 -0.0000714199 0.0011522096
-0.3282294433 0.9443037193 -0.3480674534 0.0011780807 0.0001210710 -0.0001945598
-0.3560125085 0.7544135045 -0.1581787927 0.0004039207 0.0010132076 -0.0000786158
-0.1699943254 0.8323178371 -0.4068617579 -0.0003120391 -0.0003681027 -0.0015730003
0.0649944738 0.4358823602 0.5338200558 -0.0002041112 0.0002971138 0.0010956598
0.1942823567 0.4882793665 0.2416463237 -0.0002056891 0.0013950797 -0.0002388425
0.3787664930 0.2647156809 -0.2416179700 0.0008237391 0.0001076293 -0.0001449157
-0.0649596971 0.4715383596 0.0683971134 -0.0002086801 -0.0013950825 -0.0002402028
-0.4804168850 0.4089717330 -0.2593307198 -0.0015915989 -0.0001148866 -0.0003005318
-0.3280899265 0.6138237622 0.0878186010 0.0011864428 -0.0000265847 -0.0002144565
0.4580023886 0.2947260562 0.0571000183 -0.0001770410 -0.0013943445 -0.0002282622
0.4466974740 0.4776848524 0.1543945398 0.0003082654 -0.0012797663 -0.0002388844
0.0429694820 0.5763326708 -0.3080234184 -0.0002062332 0.0008841079 -0.0012811167
0.4347366134 0.3079918923 0.0957575994 0.0007594090 -0.0009388817 -0.0002398191
-0.3130512638 0.7622536138 -0.0228942420 0.0011331339 -0.0000160769 -0.0002236836
0.2572686623 0.4882793665 -0.2059775314 -0.0002081151 -0.0013950700 -0.0002438760
0.4795862116 0.7928014731 -0.2764970473 0.0011753854 -0.0000283746 -0.0004136647
-0.4924136356 0.6822450329 -0.0342902263 -0.0014368716 0.0005671170 -0.0002887893
-0.0024100751 0.6056235149 0.3298524706 -0.0002252816 0.0013936260 -0.0001930922
-0.1746433839 0.4715383596 0.1425063853 -0.0002099329 -0.0013950797 -0.0002394982
-0.1762794616 0.2973800708 -0.2975470916 -0.0002151143 -0.0012939640 -0.0006321418
-0.4403263170 0.7886710565 0.2095116472 -0.0002336926 0.0013867859 -0.0003854547
0.3894403232 0.7177261363 -0.3666125144 -0.0002132002 -0.0003132242 -0.0015991010
-0.4572951396 0.7708942961 0.1049119656 -0.0012094338 0.0007235393 -0.0002766689
-0.2271422718 0.4882793665 0.4029733786 -0.0002080133 -0.0013950797 -0.0002413439
0.1643182703 0.5394856045 0.5298744139 -0.0002020451 0.0004684510 0.0010677358
0.0587909472 0.4877845651 0.5214271474 -0.0002078361 -0.0011481638 0.0004509706
-0.1267291296 0.5989578249 0.3608299070 -0.0002565915 0.0013923077 -0.0001821533
0.3319375177 1.0622612819 -0.4139090019 -0.0010428106 0.0007078488 0.0004166000
-0.2364246593 0.4699117127 -0.2923318760 -0.0002147153 0.0013561611 -0.0004240943
0.0333417889 1.0853752775 -0.4568562818 -0.0001831627 0.0013894492 -0.0002867093
-0.4730790282 0.5878495209 0.2729762768 -0.0015836999 -0.0000345283 -0.0000431193
0.2551301201 0.2943627038 0.1893168618 -0.0001965304 -0.0013949821 -0.0002355753
-0.0632586657 0.5067677620 -0.3194297458 -0.0002054784 -0.0009190785 -0.0012679666
-0.0951373960 0.4882793665 0.0978205727 -0.0002090247 0.0013950825 -0.0002397940
-0.4780384985 0.6579866736 0.1975161089 -0.0015982995 -0.0000603820 -0.0001675105
0.4737065342 1.0981282375 -0.4820857227 -0.0016026410 -0.0000048326 -0.0002110748
-0.4023598367 0.5834539938 0.4576625998 -0.0007407400 0.0012397009 -0.0002039501
-0.0930063146 0.8102513458 -0.2972464078 -0.0002455899 0.0006335857 0.0009942958
0.4708731104 0.2874500603 -0.3255453291 -0.0001536678 -0.0012906158 -0.0007051340
0.4918910316 0.7057799212 -0.0552472367 0.0011635481 0.0001906759 -0.0002492080
0.0627855984 0.9901126065 -0.4660957314 -0.0001706669 -0.0006158458 -0.0014710644
0.4214698635 0.5662219732 0.1948471083 0.0007791997 0.0009677934 -0.0002437281
-0.3277566312 0.5270210446 -0.2220341728 0.0011850310 -0.0000285057 -0.0002972756
0.3717229962 0.2943627038 -0.1736324720 0.0002285810 -0.0010184754 -0.0002403199
0.4687077672 0.8154959391 -0.3452896321 0.0006090497 -0.0000024679 -0.0009387087
0.4446237083 0.4408993916 0.0694178391 0.0010843059 0.0004320645 -0.0002418183
-0.4743904099 0.6037073183 -0.3456068979 -0.0012885309 -0.0000596189 -0.0010839258
-0.3248112575 0.6983392886 0.0278651813 0.0011847436 -0.0000573686 -0.0002083000
-0.3763743134 0.4720530005 -0.2825739295 -0.0002108272 -0.0013926341 -0.0002951481
0.4934213326 0.6838829619 0.0217432518 0.0011843181 -0.0000613488 -0.0001898444
0.2678449329 0.2943627038 -0.1717085257 -0.0001959793 -0.0013949779 -0.0002470150
-0.0563927268 0.9623905078 -0.4526818434 -0.0002378904 -0.0005841328 -0.0014870506
0.4004386151 0.5849563652 0.1022747464 0.0004844506 0.0011654615 -0.0002471391
-0.4720105767 0.4154605249 0.3771807605 -0.0011506673 -0.0000137904 0.0002955276
0.1693873384 1.0223763060 -0.5045013687 -0.0002076101 -0.0011355662 -0.0010471235
-0.2753322924 0.4882793665 -0.1493926548 -0.0002077817 -0.0013949988 -0.0002521921
0.0634374415 0.2943627247 0.3985952635 -0.0002049692 -0.0013949667 -0.0002254302
0.3392653703 0.4882793665 0.3835908320 -0.0002107198 -0.0013950421 -0.0002485719
0.4417246779 0.5345373731 -0.2251050357 0.0009489061 0.0007680076 -0.0002675032
-0.0267074674 0.2943627038 0.3138830219 -0.0002089313 -0.0013950128 -0.0002300382
0.1406692823 0.6811016500 -0.2158331420 -0.0001052472 0.0007402524 0.0009120933
-0.3302366649 0.4064314358 0.0948812872 0.0011867107 -0.0000017397 -0.0002185664
-0.4421962777 0.4606308794 -0.1550165435 -0.0011504287 0.0009869898 -0.0002419913
-0.4300453215 0.6379347267 0.3852376169 -0.0011054387 -0.0000203961 0.0003571540
0.3570523064 0.2943627038 0.4632243739 -0.0001927329 -0.0013946179 -0.0002092654
-0.2092637150 0.5981198301 0.2504219665 -0.0002720365 0.0013922156 -0.0002024518
0.3853203810 0.2857963362 -0.0208115031 -0.0002153193 -0.0013949625 -0.0002322257
-0.4297816143 0.4818873892 0.5212025668 -0.0005305190 0.0012673305 0.0001991873
-0.1825392868 0.2943627038 -0.0717586490 -0.0002157476 -0.0013949765 -0.0002482705
-0.4736252594 0.8437832574 -0.3097320642 -0.0014290842 0.0002973663 -0.0003175281
-0.0473402854 1.0313093045 -0.4062143273 -0.0001840513 -0.0009265087 0.0007983005
0.4794504406 0.7200257591 -0.2758435481 0.0011803407 0.0000049651 -0.0003698493
-0.0548841975 0.2943627038 -0.2778168804 -0.0002100780 -0.0013949123 -0.0002599557
-0.1620375397 0.2943627038 0.2531436329 -0.0002148464 -0.0013950267 -0.0002360189
0.3343372769 0.0054083343 0.4585992410 -0.0015840264 -0.0001472874 -0.0001461295
-0.2108884241 0.4882793665 0.1590286765 -0.0002079561 -0.0013950839 -0.0002397591
-0.2622812671 0.4882793665 0.0035233625 -0.0002109332 0.0013950783 -0.0002404204
0.1375297576 0.8745223604 -0.3233690861 -0.0001828097 0.0004282908 0.0010451146
-0.3078505445 0.7122601557 -0.3794080928 -0.0003605866 -0.0002356883 -0.0016037717
-0.1244907496 0.4882793665 0.4355001463 -0.0002093065 0.0013950713 -0.0002347731
0.4783925903 0.2850044056 -0.2101821120 -0.0001777163 -0.0013947323 -0.0002364332
-0.0391516396 1.1447793369 -0.4191858230 -0.0002073618 0.0011731275 0.0005139517
-0.3950167010 0.2554006596 -0.2268077203 -0.0013003696 0.0001890687 -0.0000963933
0.4756218365 0.5755976206 0.2848429623 0.0011842079 -0.0000219544 -0.0001936097
-0.0616084698 0.4715383596 0.4517325571 -0.0002086411 -0.0013950755 -0.0002356464
0.1175334661 0.4882793665 0.4446154920 -0.0002065777 0.0013950755 -0.0002361012
-0.4516512412 0.8066192239 -0.2358338085 -0.0002326002 0.0009354958 0.0007929490
0.2016932071 0.2943627038 -0.2439096325 -0.0001988894 -0.0013949583 -0.0002520205
-0.4819323702 0.4919636003 0.0359354794 -0.0016016393 -0.0000208830 -0.0002093728
-0.2973685118 0.4715383596 0.3477862045 -0.0002113322 -0.0013950769 -0.0002381422
0.2763537184 0.7997895795 -0.2917281255 -0.0000865712 0.0006555234 0.0009826343
-0.1648149565 0.4715383596 -0.2052691119 -0.0002097544 -0.0013950700 -0.0002446224
0.3192662580 0.1404581649 -0.2564999146 -0.0013123966 0.0000518483 -0.0007300237
0.2295633172 0.2952092784 0.4967945597 -0.0001981459 -0.0013663982 -0.0001086533
0.4022678324 0.5832591299 0.4635672269 0.0005436454 0.0011238810 -0.0002274126
0.2233032562 0.6025744502 0.2850140708 -0.0001577652 0.0013930415 -0.0002191565
-0.4275275466 0.8446834549 -0.2668163745 -0.0002240177 0.0007619446 0.0009283656
-0.0686388263 1.1563214757 -0.4702060099 -0.0002065415 0.0013798761 -0.0004448685
0.0495041275 0.8080802130 -0.2961608623 -0.0001836886 0.0006371069 0.0009924041
-0.1573505042 0.5766302241 -0.3049924494 -0.0002275961 0.0009861011 -0.0011955381
-0.2729848991 0.5954909340 -0.2275841961 -0.0002735585 0.0013919980 -0.0002850142
-0.3568850317 0.3937438690 0.5354724601 -0.0002224203 0.0000160072 0.0011548170
-0.3340427049 1.0307740568 -0.4248040491 0.0011766577 0.0000808451 -0.0003056141
-0.3320527684 0.4235579546 0.3212474020 0.0011866005 0.0000042383 -0.0002126345
-0.3420035336 0.9806377184 -0.3729041015 -0.0004556700 0.0002927863 0.0006111723
-0.3221187986 0.7515312905 -0.0975745776 0.0008146279 0.0008312426 -0.0003135130
-0.2575083154 0.4715383596 -0.1017046105 -0.0002108272 -0.0013950713 -0.0002431213
0.4731139374 0.3926849543 -0.3281605575 0.0009166392 -0.0000476282 -0.0010134155
0.4320714451 0.2877193240 0.2339111178 -0.0001956403 -0.0013947993 -0.0002231074
-0.4533500516 0.2970273406 0.2630941428 -0.0002608200 -0.0013935200 -0.0002176722
0.1887714600 0.3990415104 -0.3280844557 -0.0002010490 0.0000241308 -0.0016341818
-0.3420035126 0.8112012696 -0.3147311716 -0.0003584466 0.0004763681 0.0006422869
0.4733138683 0.3209740953 0.3437440242 0.0011853156 0.0000179505 -0.0001936321
-0.3260099666 0.3617702730 -0.2256389413 0.0011833276 0.0000680466 -0.0002191733
-0.4346668354 1.1361057013 -0.5131232327 -0.0002079407 0.0010317106 -0.0011774341
-0.1236124689 0.2943627038 -0.2180070650 -0.0002130719 -0.0013949095 -0.0002572604
-0.1744204956 1.1533429576 -0.4343316031 -0.0002071009 0.0013059101 0.0002477097
0.0061387856 1.0356656214 -0.3813543046 -0.0002433689 0.0006559991 0.0009387840
-0.3735742251 0.1174072647 0.4709084039 -0.0008330290 0.0001014519 0.0009386794
0.4549446813 1.1500349137 -0.4918947362 -0.0001572420 0.0012308365 -0.0008777575
0.4901988617 0.7494214646 0.1249531941 0.0011843167 -0.0000617199 -0.0001826430
0.3442125582 0.7634752483 -0.0561292227 -0.0002202663 0.0013884294 -0.0003750055
-0.1394412192 0.4882793233 0.2510120507 -0.0002079700 -0.0013950825 -0.0002401246
-0.4577954767 0.4138303443 -0.1252395085 -0.0016015654 0.0000504323 -0.0002479929
-0.1208634909 0.7413808288 -0.3843844227 -0.0003103566 -0.0003033191 -0.0015591653
-0.1575139048 1.0572023993 -0.4913093367 -0.0002230425 0.0000805633 -0.0016302881
-0.1575507853 0.5983703383 -0.2325068389 -0.0002410335 0.0013925923 -0.0002935856
0.1871540723 0.4715383596 0.1510609603 -0.0002057700 -0.0013950797 -0.0002391439
-0.4824925661 0.3683456188 -0.1278725871 -0.0015947225 -0.0001241904 -0.0002110232
0.2417349639 1.0185769498 -0.4986162839 -0.0001742258 -0.0012244107 -0.0009043617
-0.2499312743 1.0412921077 -0.3974179927 -0.0002080161 -0.0007919208 0.0009085749
-0.2914859829 0.9583850908 -0.4507437203 -0.0003925829 -0.0005866579 -0.0014865819
-0.3276726960 0.6941057154 0.1321937367 0.0011863201 -0.0000345367 -0.0002117054
-0.3325389063 1.0803848559 -0.5354725034 -0.0002076687 -0.0000335169 -0.0016333084
-0.1476182636 0.8576996114 -0.4131325693 -0.0002999563 -0.0003801813 -0.0015700344
0.3280413051 0.3947849462 -0.0493538930 -0.0016021248 0.0000079729 -0.0002199545
0.1606525660 0.2943627038 0.4184792116 -0.0002008705 -0.0013948691 -0.0002210594
-0.0543180738 0.4882793665 -0.0106049186 -0.0002085574 0.0013950811 -0.0002409142
-0.3955327900 0.3954464266 0.3764244659 -0.0001828264 -0.0000546357 0.0011536102
-0.4742996415 0.4910041398 0.3566300097 -0.0016025099 0.0000122000 -0.0002093505
-0.4577954767 0.3417564523 0.4793716776 -0.0016013896 -0.0000623630 -0.0002259562
0.3163644807 0.7181530738 -0.0590217715 -0.0015950057 -0.0001249228 -0.0001996351
-0.0251156348 0.5585692349 -0.3689114578 -0.0002307169 -0.0000892045 -0.0015778999
0.3401925375 0.8523394717 -0.3245587048 -0.0000671670 0.0003844223 0.0008607723
0.4476139772 0.4101670576 -0.1982944792 0.0011823176 0.0000853205 -0.0002562392
0.0067418622 0.4882794097 0.3016101745 -0.0002081179 -0.0013950755 -0.0002432036
0.4757024305 0.4642942525 0.3298521512 0.0011859825 0.0000130747 -0.0001999490
-0.4839733947 0.3254636483 -0.0819674810 -0.0016028977 0.0000048856 -0.0002316495
-0.1740857215 0.5476401699 -0.3229044269 -0.0002211731 0.0005577992 -0.0015091543
-0.3131843730 0.2943627038 0.3764146725 -0.0002214535 -0.0013949737 -0.0002329706
0.0764887695 1.1557195570 -0.4474168581 -0.0002068205 0.0013782773 -0.0000245228
0.4441005518 0.5603177730 0.3951660524 -0.0001148091 -0.0000448798 0.0011486967
-0.3687940789 0.5933680376 0.2700056144 -0.0002933548 0.0013910354 -0.0001926611
-0.4439442620 0.4588829802 0.0652367657 -0.0011509477 0.0009661933 -0.0002400744
0.4716774293 0.6627712060 0.3742886692 0.0007507135 -0.0000174023 0.0005398138
-0.2589497635 0.4882793665 -0.2520709668 -0.0002108927 0.0013950755 -0.0002428269
-0.4811382257 0.8245185996 -0.2694824803 -0.0015888255 0.0000130189 -0.0004372890
-0.3997293670 0.4886567897 0.5069245429 -0.0002176826 -0.0013776175 -0.0001467168
-0.2081908355 0.5960411690 0.4721697621 -0.0002590985 0.0013913758 -0.0001558099
0.0470960662 0.4460616443 -0.3237176017 -0.0002066866 0.0005576401 -0.0014945506
0.2722047626 0.9389654628 -0.3429851125 0.0000039306 0.0003806486 0.0010696443
-0.0794533131 0.4882793665 0.3675567755 -0.0002080789 -0.0013950755 -0.0002431115
0.4871153552 0.6520259349 0.0484622266 0.0011605319 0.0001234175 -0.0002199796
-0.1766054760 0.4882793665 0.2347582881 -0.0002099552 0.0013950783 -0.0002380794
0.4760931796 0.8342555766 -0.3101529568 0.0011726036 0.0000059640 -0.0004397876
-0.4745970679 0.5564079793 0.2025033804 -0.0015847602 -0.0000511256 -0.0000650123
-0.4246596796 0.4882793665 -0.1727714652 -0.0002989658 -0.0013914957 -0.0002444117
-0.1231173467 0.4882793665 0.3223526600 -0.0002093442 0.0013950769 -0.0002369634
-0.4199995511 0.4873092614 -0.2288038719 -0.0003069945 0.0013901369 -0.0002410663
0.1856719031 0.2943627038 0.3279977094 -0.0001996219 -0.0013949444 -0.0002282134
-0.3163184806 0.7314239964 -0.1330277304 0.0011855556 -0.0000625346 -0.0002455780
0.3869884968 0.9263290705 -0.4357646207 -0.0002079561 -0.0005591761 -0.0015178750
0.2314576723 0.8839436899 -0.3265095580 0.0000872199 0.0004186005 0.0010160424
-0.4881045771 0.5810365226 0.0340190275 -0.0015990333 -0.0000568873 -0.0001816692
-0.3618937610 0.4598039964 -0.3133122247 -0.0002164787 0.0010664733 -0.0010700140
-0.4818483694 0.4604991542 0.0183223066 -0.0016023857 -0.0000095452 -0.0002193742
0.4931803179 0.7523688179 0.0179102016 0.0011511333 0.0002958317 -0.0002326023
0.0236257103 1.0091746940 -0.4490727111 -0.0002060211 -0.0013775742 -0.0000384792
0.4900550886 0.5545112385 -0.0447315867 0.0011853714 -0.0000380174 -0.0002082414
0.4277316474 0.5001122059 -0.3084064415 0.0004867427 -0.0008161673 -0.0010485897
0.4144972536 1.1186633216 -0.5260237563 -0.0002034667 0.0006074725 -0.0014917409
-0.4772549985 0.7658133601 0.3097046884 -0.0015976313 -0.0000141531 -0.0001506091
-0.2790980982 0.2943627038 0.0565829974 -0.0002199706 -0.0013949904 -0.0002420192
-0.2298367746 0.6003503125 -0.0459829867 -0.0002675764 0.0013928155 -0.0002560858
-0.1937962621 0.5397795822 0.5293686276 -0.0002197948 0.0004466166 0.0010777888
0.0992218836 0.4882793665 0.0192048534 -0.0002067884 0.0013950797 -0.0002408389
0.0287521052 0.4646394047 -0.3506597341 -0.0002026548 -0.0008448154 -0.0013386918
-0.3231104675 1.0853752775 -0.4522569915 -0.0003728118 0.0013744464 -0.0001878773
-0.3317594938 0.8146186462 -0.2426598982 -0.0001677763 0.0009317305 0.0007976588
0.2921495908 1.0750170516 -0.5345568945 -0.0001694225 -0.0001295573 -0.0016272273
-0.1866783459 0.6010946010 -0.1157131586 -0.0002548114 0.0013930108 -0.0002696655
-0.0228094370 0.6013568600 0.4431692768 -0.0002361075 0.0013927388 -0.0001685080
0.3272232767 0.8185620754 -0.3690525915 -0.0015995718 0.0000024107 -0.0003379089
0.3625558371 0.7729098618 0.0379830510 -0.0002224440 0.0013886651 -0.0003715862
0.3547767586 0.5974277373 0.2343223467 -0.0001223133 0.0013919715 -0.0002316272
-0.1018639674 0.5788850173 -0.3043666873 -0.0002218595 0.0009897772 -0.0011962468
0.2016784987 0.5983798751 -0.2278335129 -0.0001624345 0.0013919673 -0.0003113213
-0.0234643326 0.4715383596 0.0167388905 -0.0002087890 0.0013950546 -0.0002435398
-0.1328815515 0.4715383596 0.0815796463 -0.0002135755 0.0013950462 -0.0002402948
-0.3436952988 0.1913440512 0.4386840863 0.0008241744 -0.0002143393 -0.0011278695
0.1150452266 0.7627444141 -0.2694432268 -0.0000978031 0.0007453459 0.0009199239
0.0352661495 0.6040078096 0.3652195161 -0.0002159555 0.0013932954 -0.0001887939
-0.2571403439 0.5058664150 -0.3658457470 -0.0004466452 -0.0001985581 -0.0015837523
0.2111439979 0.4715383596 0.4530001304 -0.0001984723 0.0013949570 -0.0002276623
0.3296042817 0.3152338063 0.1004251902 -0.0016015975 0.0000334276 -0.0002170067
-0.4906112402 0.6175678982 0.0414042432 -0.0015981865 -0.0000680048 -0.0001729695
0.0307637213 0.5412768881 -0.1955582328 -0.0001744239 -0.0005306132 0.0009982383
-0.4927627469 0.7145206952 -0.0929989591 -0.0013755158 0.0007092872 -0.0003236818
0.3251825926 0.3791809355 -0.2402175430 -0.0016007883 0.0000446804 -0.0002220722
-0.1232125862 0.5942368582 -0.3699369938 -0.0003976526 0.0000000000 -0.0015384413
-0.3820937821 0.5802063612 -0.3385841990 -0.0003790422 -0.0000528458 -0.0013187589
0.0838390955 0.7696081181 -0.3913687833 -0.0001107243 -0.0003344184 -0.0015699563
0.4857963522 0.4121061168 -0.2293022293 0.0011852807 0.0000020257 -0.0002785383
0.0866539298 0.4715383596 0.1742903754 -0.0002039494 0.0013950518 -0.0002379888
0.1970533017 0.6277779648 -0.3699369938 -0.0000918600 -0.0000339438 -0.0016054751
-0.3373183284 0.9287873269 -0.3160569868 -0.0001801632 0.0006395637 0.0009997115
0.1819654023 0.2943627038 0.2074458641 -0.0001997516 -0.0013949960 -0.0002346964
0.3353353743 0.0554072737 -0.2680958687 -0.0006969651 -0.0000733019 -0.0011768621
-0.4577954767 0.3691046811 0.2685989723 -0.0016024555 -0.0000216503 -0.0002332594
0.0789624598 0.7059583510 -0.3781388162 -0.0001643500 -0.0002233739 -0.0016054207
0.0009594655 0.4715383596 0.4552772324 -0.0002079268 -0.0013950755 -0.0002352502
-0.1375878726 0.4715383596 0.1504486203 -0.0002137820 0.0013950309 -0.0002374642
-0.0255858716 0.4572458171 -0.3429178444 -0.0002046009 -0.0011462191 -0.0010196836
-0.2054368980 1.0109734705 -0.4405973894 -0.0002083565 -0.0013396014 0.0001455100
0.3073156372 0.4715383596 0.4281633958 -0.0001942410 0.0013949597 -0.0002310203
0.2531680699 0.3230175472 0.5319530750 -0.0001999511 -0.0004162707 0.0010699387
0.3339977441 1.0286109276 -0.4526250495 -0.0015972058 0.0000004729 -0.0003664648
0.3210523686 0.2943627038 0.2956388973 -0.0001938741 -0.0013948412 -0.0002257720
0.4867970682 0.5536431001 0.0004753665 0.0011857272 -0.0000303445 -0.0002097564
0.2185776913 1.1405108935 -0.5074900192 -0.0002078236 0.0010939425 -0.0011051436
-0.2605711091 0.4715383596 0.0331775311 -0.0002191586 0.0013950058 -0.0002415044
-0.4779294225 0.6248290783 -0.2941883825 -0.0015974694 0.0000039146 -0.0003442439
-0.1627576569 0.5974053434 0.4460538318 -0.0002551992 0.0013917678 -0.0001629263
-0.1608365329 0.4882793665 0.0603770578 -0.0002097753 0.0013950811 -0.0002400423
0.0962123709 0.4715383596 0.3876764161 -0.0002068233 -0.0013950755 -0.0002361054
-0.0306496551 1.0951237500 -0.5338622055 -0.0002075683 0.0002583960 -0.0016072106
0.2425391335 0.2943627038 0.0252912710 -0.0001970870 -0.0013950072 -0.0002417025
0.0413664050 0.5947049228 0.4879092438 -0.0002205788 0.0012480142 0.0001929527
0.2732363435 0.4882793665 -0.1601235564 -0.0002048869 0.0013950658 -0.0002446963
-0.4859410643 0.4154907536 -0.2050611775 -0.0015763520 -0.0000142229 -0.0002571223
0.3838719519 0.5913422111 -0.0663086979 0.0001123370 0.0013125856 -0.0002655668
0.0986311395 0.4729917288 -0.3006201462 -0.0002075278 -0.0013898021 -0.0003584766
-0.2852901460 0.4715383596 0.4665481710 -0.0002111941 -0.0013950755 -0.0002367639
0.0176483492 0.4882793665 -0.0075111094 -0.0002080510 -0.0013950658 -0.0002434394
-0.1681627240 0.4222267335 -0.3280844766 -0.0002162457 0.0001096215 -0.0016294524
-0.4549087495 0.6939061682 0.3988209100 -0.0003243005 -0.0000419781 0.0011469947
-0.0224479889 0.4715383596 0.4295573734 -0.0002081946 -0.0013950769 -0.0002357008
-0.3275061857 0.4369963668 -0.2762406629 0.0011590880 -0.0000068722 -0.0004849214
-0.3341665967 0.7635680619 -0.3786533301 -0.0001663505 -0.0004068999 -0.0015731092
-0.2447663598 0.6430924245 -0.3711725080 -0.0005408873 -0.0001385500 -0.0015390859
-0.3420035126 0.5909759849 -0.1886428856 -0.0005512011 -0.0000712330 0.0010589942
-0.4577954767 0.4137947096 0.4699531579 -0.0015964845 0.0001073810 -0.0002190296
0.4103446985 0.7905556628 -0.3881918675 -0.0001997725 -0.0004639937 -0.0015551865
0.3519471462 0.4250216264 -0.3447870392 -0.0002466446 -0.0000174316 -0.0016338874
-0.2953155231 0.2943627038 0.3132524705 -0.0002206737 -0.0013949835 -0.0002345387
0.3401925166 0.6087873168 -0.3280319392 0.0002757265 0.0000923462 -0.0009356339
-0.4959304245 0.7613535015 -0.0598284048 -0.0007457805 0.0012429877 -0.0003651493
0.3554910108 0.2943627038 -0.2798511791 -0.0007275690 -0.0008838010 -0.0002398679
0.0628471132 0.4882793665 0.1993964156 -0.0002072111 0.0013950811 -0.0002389067
-0.3344118050 0.6477080205 0.3396519041 0.0011808430 0.0000089439 -0.0001428524
0.4902155511 0.4723065752 -0.1418054603 0.0011861959 -0.0000219809 -0.0002296755
0.2315864400 0.4867844030 -0.2285553642 -0.0000587393 -0.0008961363 0.0007970617
-0.2693886463 0.7253474964 -0.2447803672 -0.0004152195 0.0007533132 0.0009040004
-0.3932635646 0.7735542705 -0.2082112072 0.0000677320 0.0009193673 0.0002278828
-0.2406125505 0.2943627038 0.3911392194 -0.0002182811 -0.0013949765 -0.0002310943
-0.2984649362 0.7965601263 -0.3980275327 -0.0003769552 -0.0003562221 -0.0015750400
-0.2562381459 0.5982328221 0.1706874164 -0.0002795058 0.0013922812 -0.0002175508
0.3273028062 0.6909873402 -0.3459006412 -0.0011417708 -0.0001554361 -0.0012021368
0.3401925166 0.7904262367 -0.3317953203 0.0000071965 0.0002697702 0.0000604225
-0.4946369236 0.6782223726 0.0100306937 -0.0016013003 -0.0000502495 -0.0002085692
0.3438101212 0.7256406649 -0.3685912107 -0.0002403890 -0.0003275908 -0.0015952994
0.2565733762 0.5797512388 0.5073178896 -0.0001892243 0.0010271696 0.0006847044
-0.2210059116 1.0739922815 -0.4184537528 -0.0002845183 0.0011682502 0.0005120251
0.2531443339 1.1305584891 -0.5186704449 -0.0002011104 0.0008624841 -0.0013327153
-0.0484831465 0.5970365614 -0.3699369938 -0.0002781442 0.0000000000 -0.0015360488
0.0937455040 0.4715384029 -0.2611596608 -0.0002068526 -0.0013950755 -0.0002438746
0.4156966645 0.4262655711 0.5328230870 0.0001535562 0.0001373111 0.0010474960
-0.4802608058 0.5113758218 -0.2783486794 -0.0015993988 0.0000026814 -0.0003077653
-0.2237695128 0.7335444667 -0.2502450280 -0.0003738176 0.0007565303 0.0009032164
-0.3232810416 0.4715383596 0.1820410570 -0.0002219027 0.0013949681 -0.0002359352
0.3605340131 0.1483769095 0.4571285017 0.0005027276 -0.0011379741 -0.0003631389
0.3244298737 0.4607755482 -0.3373357412 -0.0015702095 0.0000070717 -0.0000445381
-0.3271479631 0.6165980931 -0.0162507827 0.0011864791 -0.0000305956 -0.0002169634
0.3143867637 0.4882793665 -0.0425655780 -0.0002043498 0.0013950713 -0.0002423610
-0.3320856366 0.3667546930 0.2599828978 0.0011866981 0.0000088072 -0.0002153172
-0.3572378903 0.0745506695 0.4685940072 0.0009239438 -0.0000721440 0.0005468785
0.2182556571 0.4882793665 0.0383421233 -0.0002054101 0.0013950783 -0.0002405920
-0.4285415452 0.5569442481 -0.1536280597 -0.0013010350 0.0008467085 -0.0002557245
0.3432401973 1.1460767538 -0.4213481431 0.0004994784 0.0009682901 0.0003344030
-0.4086280924 0.2943627038 0.3992508274 -0.0002256262 -0.0013949444 -0.0002324042
0.3287276919 0.6395668661 0.0627223906 -0.0016023146 -0.0000182086 -0.0002376498
0.2815861773 0.4715384029 0.2244272677 -0.0001953696 0.0013949918 -0.0002367443
0.4110901797 0.2957836944 0.0079900487 -0.0000169245 -0.0013474223 -0.0002421349
-0.4486298508 0.3231312856 0.3867867348 -0.0003445753 -0.0000699662 0.0011437637
0.1410956130 0.5857923162 0.5035912508 -0.0002007170 0.0010735408 0.0006316368
-0.4577954767 0.3457623367 0.3306647722 -0.0016009571 -0.0000656806 -0.0002316621
-0.3773769867 0.4230836749 0.5354724601 -0.0002209625 0.0000625277 0.0011536214
-0.4740702925 0.6474522751 0.2794773734 -0.0015875601 -0.0000379337 -0.0000688027
-0.3536501934 0.7589256439 -0.1123606338 -0.0001864578 0.0013947533 -0.0002425953
0.3207257362 0.6177031586 -0.2030913790 -0.0015990277 -0.0000737455 -0.0002131242
-0.1762575351 0.6194362420 -0.3699369938 -0.0003994774 -0.0000000767 -0.0015843494
0.1242068835 0.4882793665 -0.2646818975 -0.0002065847 0.0013950672 -0.0002456617
-0.3525211799 0.5949032772 0.0126065139 -0.0002984510 0.0013917259 -0.0002425842
-0.1496512217 0.4506121011 -0.3191519455 -0.0002487902 -0.0013851328 -0.0003539272
-0.1590062512 0.4928814665 -0.3630542162 -0.0002117828 -0.0003734695 -0.0015819024
-0.2430315744 0.2943627038 0.2124329864 -0.0002183899 -0.0013950072 -0.0002370429
-0.0637254747 0.8533928507 -0.4120685444 -0.0002586855 -0.0003734863 -0.0015724730
-0.4234428134 0.5616379688 -0.2621838352 -0.0012713546 0.0008779765 -0.0002590029
-0.3754256242 0.4882793665 -0.1040754928 -0.0002122250 0.0013950755 -0.0002411375
0.1282016030 0.5339372847 -0.1987037703 -0.0001584306 -0.0005580824 0.0010107913
0.1434439200 0.5992974427 -0.2146385638 -0.0001704144 0.0013924081 -0.0003061972
0.4168164188 0.7750397824 0.1481310204 -0.0003788929 0.0012855628 -0.0003522615
0.4739835239 0.4828211342 0.3828494802 0.0011383752 0.0000133802 -0.0005639585
0.4908746488 0.5178199529 -0.1544839577 0.0011866660 -0.0000162416 -0.0002442708
-0.3278605775 0.4165960325 -0.1207868248 0.0011868153 0.0000013993 -0.0002197913
0.4396663251 0.3715567224 -0.3441580419 -0.0001781515 -0.0000539005 -0.0016325411
0.0829747518 0.4715383596 0.0560364566 -0.0002041098 0.0013950434 -0.0002420512
-0.3463741557 0.5946060211 0.1797077568 -0.0002968118 0.0013915041 -0.0002124727
0.0654036895 0.4882793665 0.3627219211 -0.0002083760 -0.0013950727 -0.0002442820
0.1947435464 0.5983312550 -0.2666296007 -0.0001660073 0.0013918850 -0.0003187083
0.2026728699 0.4715383596 -0.0022379727 -0.0002055914 -0.0013950797 -0.0002404595
-0.4661437564 1.0780417204 -0.3919427738 -0.0016029172 -0.0000009514 -0.0002581826
-0.3360360887 0.4907254885 0.3570805757 0.0011820776 0.0000022545 -0.0001574575
-0.2232109561 1.0874002097 -0.3852829167 -0.0002079561 0.0000943342 0.0011497612
-0.2005374582 0.4715383596 0.1178812794 -0.0002102287 -0.0013950797 -0.0002396615
0.3529683392 0.1647502741 0.4879218888 0.0002129170 -0.0002652110 0.0010455387
-0.4204679993 0.5689484499 0.1362924123 -0.0011647688 0.0009955347 -0.0002451414
-0.4831472776 0.3333623413 -0.1698248248 -0.0015945900 -0.0001325971 -0.0002191133
-0.4916987653 0.5154379908 -0.1093380088 -0.0016024568 -0.0000243386 -0.0002295792
0.0696399455 0.4882793665 0.1406557744 -0.0002071316 0.0013950825 -0.0002395108
-0.0841130007 0.4882793665 0.1738789777 -0.0002079561 -0.0013950839 -0.0002397591
-0.4786752859 0.3260501569 0.1698542960 -0.0016026145 0.0000190485 -0.0002203200
0.1414281103 0.2943627038 -0.0285610575 -0.0002015401 -0.0013950309 -0.0002430487
0.0704068999 0.4882793665 0.3288955212 -0.0002083732 -0.0013950741 -0.0002436960
-0.2536628308 0.5470583027 -0.3685419099 -0.0004673580 -0.0000281123 -0.0015871339
-0.4721166715 0.6377951681 -0.3358728576 -0.0006696340 -0.0002266788 -0.0014052736
-0.4722162972 0.5300743225 0.3400158327 -0.0015880526 -0.0000093457 -0.0000721593
-0.1081135541 0.4882793665 0.0604006543 -0.0002091726 0.0013950811 -0.0002400423
-0.1441141951 1.0274368905 -0.3772400250 -0.0002803275 0.0006571027 0.0009804608
-0.3692971406 0.4715383596 0.4426769434 -0.0002121525 -0.0013950755 -0.0002375144
0.4789088495 0.4949534856 0.1850073779 0.0011861875 -0.0000015388 -0.0002077838
0.2878688233 0.4715383596 0.4841602543 -0.0001950976 0.0013949430 -0.0002278758
0.1039994642 0.2943627038 -0.1047418490 -0.0002031877 -0.0013950100 -0.0002474391
0.0422298504 0.4100171949 -0.3280844766 -0.0002064382 0.0000613516 -0.0016324142
-0.0292120839 0.2943627038 0.0095019332 -0.0002090415 -0.0013950462 -0.0002443127
-0.1872841178 0.2943627038 0.4266525520 -0.0002159499 -0.0013949681 -0.0002281757
-0.3558545990 0.7515521526 0.3828898832 0.0001748773 0.0002710871 0.0008191096
0.0256157096 0.2943627038 0.0131297847 -0.0002066363 -0.0013950532 -0.0002434617
-0.4756668391 0.4956554123 0.1666143280 -0.0015880345 -0.0000547835 -0.0001016054
0.0596614851 0.5292571465 -0.3684447548 -0.0001559069 -0.0000869556 -0.0015991010
-0.0744730672 0.6499316057 -0.3719323795 -0.0004286639 -0.0001220308 -0.0015672484
0.3290889587 0.3400301169 0.0517806108 -0.0016017509 0.0000257756 -0.0002179498
-0.3239260893 0.6637115930 -0.1007894271 0.0011601357 0.0001403775 -0.0002653924
-0.2016444391 0.5732172755 -0.3699369938 -0.0004413690 -0.0000281486 -0.0015401852
-0.2367728764 0.4882793665 0.1321710652 -0.0002079561 -0.0013950839 -0.0002397591
0.2025592807 0.6038051541 0.1812371636 -0.0001613631 0.0013932884 -0.0002350200
0.3209532339 0.9201257838 -0.3164367942 -0.0015575686 0.0000378193 -0.0002323331
0.3768637074 0.2990162545 0.3313546719 -0.0011290770 -0.0005065954 -0.0002099992
-0.1790198389 0.6028922698 -0.1857859184 -0.0003432248 0.0001464726 0.0011242702
-0.2093326642 0.7821112506 -0.3944578241 -0.0003335081 -0.0003439482 -0.0015789769
-0.3234270092 0.7870723811 0.2544749182 0.0011079987 -0.0002307525 -0.0001031372
-0.3958957810 0.9688750433 -0.4543784830 -0.0006516625 -0.0002757049 -0.0009966996
-0.1421671950 0.6035931335 -0.0711255446 -0.0002445115 0.0013934684 -0.0002642177
0.1717822650 0.4882793665 0.4402828468 -0.0002059500 0.0013950755 -0.0002364723
-0.0890903462 0.5896120239 0.4953434896 -0.0002304727 0.0011468817 0.0004253806
0.1451838157 0.9199728561 -0.3378257965 -0.0001564887 0.0003772237 0.0010977790
-0.1990611204 0.8550973670 -0.4124896505 -0.0003254752 -0.0003815471 -0.0015692545
-0.4910721536 0.5553114712 -0.1748925299 -0.0016018109 -0.0000083970 -0.0002826356
0.4747164884 0.3697491332 0.2812842819 0.0011838187 -0.0000104603 -0.0001981954
-0.2618392362 1.1370104969 -0.5121501477 -0.0002078612 0.0010564775 -0.0011507266
-0.3578781263 0.8354630775 -0.2701742327 0.0006295825 0.0004371021 0.0002939539
-0.1236857066 1.0393797421 -0.4899202544 -0.0002366683 -0.0002796376 -0.0016039070
-0.3263539050 0.8369348798 -0.3300781589 0.0011598511 0.0000571691 -0.0003296039
-0.0535771001 0.2943627038 0.0335900602 -0.0002101073 -0.0013950476 -0.0002431394
-0.2735796666 0.2943627038 -0.2007500320 -0.0002193553 -0.0013947742 -0.0002616410
-0.3344789881 0.3460069703 0.2229146577 0.0011863229 -0.0000190192 -0.0002309394
0.1103022161 0.6058990146 0.0384459943 -0.0001811007 0.0013937976 -0.0002565727
0.3373141557 0.1544407966 0.4316410163 -0.0005972905 -0.0002865740 -0.0015274941
0.4317915173 0.9521703952 -0.4566613746 -0.0001809598 -0.0005572244 -0.0015182740
-0.1218218773 0.6791195051 -0.2145645909 -0.0003528997 0.0007308956 0.0009050760
-0.0107959049 0.2943627038 -0.1636798974 -0.0002082365 -0.0013949932 -0.0002527487
0.4051463425 0.2883114297 0.3056620827 -0.0002067270 -0.0013949179 -0.0002205976
-0.4763416454 0.7626556881 -0.2830401010 -0.0014976540 -0.0000366377 -0.0005885538
-0.4881119850 0.5020049009 -0.1750396471 -0.0015115881 0.0002388300 -0.0002822045
-0.1334139573 0.2943626829 -0.0310549946 -0.0002135992 -0.0013950030 -0.0002462881
0.0329518002 0.2943627038 -0.0827721458 -0.0002063127 -0.0013950197 -0.0002479678
-0.4790450041 0.4252969141 0.0099322664 -0.0015904187 -0.0000916347 -0.0001505407
0.3316664459 0.7176971004 0.3140206009 -0.0015983553 0.0000251813 -0.0001719022
-0.3314281140 1.0472556143 -0.3871540702 -0.0001673340 0.0009187618 0.0008092533
-0.1929059851 0.4715383596 0.2703955767 -0.0002101394 -0.0013950797 -0.0002386528
0.4764299012 0.6357912668 -0.2818491611 0.0011690559 -0.0000548282 -0.0003929100
-0.3045691941 0.5740720880 0.5092169280 -0.0002263712 0.0008864531 0.0008174257
-0.2924917003 0.2943627038 0.2445039717 -0.0002205523 -0.0013949904 -0.0002362463
-0.3950167010 0.0122277528 -0.2661692621 -0.0014914430 -0.0000614018 -0.0007270312
0.0267379068 1.1570717253 -0.4555300830 -0.0001960770 0.0013851091 -0.0000938054
0.3980505216 0.4881068546 0.2393449766 -0.0001892103 0.0013944464 -0.0002388579
0.0438390280 0.2943627038 -0.2634701402 -0.0002058342 -0.0013949597 -0.0002565238
0.4866344335 0.3675190343 -0.2233329959 0.0011859922 0.0000016057 -0.0002653254
-0.2503124447 0.6357165921 -0.1930791352 -0.0003604527 0.0004353959 0.0010664300
0.2692548117 1.1561177139 -0.4714287521 -0.0002030147 0.0013764958 -0.0004665091
-0.2648569227 1.1324499927 -0.4044558687 -0.0002084499 0.0009433641 0.0007867143
-0.3183056702 0.7516695726 0.0125936261 0.0011797367 -0.0001214030 -0.0001895110
-0.4540726702 0.4787450436 -0.0374501722 -0.0007524155 -0.0012771770 -0.0002422703
-0.3426594588 0.9561194424 -0.4583890940 -0.0001731194 -0.0005577169 -0.0015179810
-0.1133275672 0.6443384981 -0.3713109184 -0.0003723570 -0.0001426738 -0.0015307642
-0.4577954767 0.3976923220 0.0045853088 -0.0016022964 0.0000243358 -0.0002433096
0.3371789386 0.5995070806 0.3767625924 -0.0011440504 0.0000164969 0.0004440678
0.0282771112 1.1515387319 -0.4893884554 -0.0001319533 0.0012504304 -0.0008188571
-0.2689623895 0.2943627038 0.2736469760 -0.0002195227 -0.0013949946 -0.0002355222
0.3269693616 0.7392638504 0.1449894630 -0.0015644478 0.0001102535 -0.0002324670
0.0713473190 0.8750258476 -0.4185938234 -0.0001883440 -0.0003958997 -0.0015660403
-0.4531765604 0.4470068848 -0.0776157469 -0.0014726764 0.0005491552 -0.0002446949
0.0983399506 0.7906338308 -0.2866416119 -0.0001557130 0.0006808275 0.0009673930
-0.3466388631 0.3856486965 -0.3351000020 0.0003704094 -0.0000292926 -0.0010391896
-0.4457630482 0.4753997887 0.3031710655 -0.0005504576 -0.0013500352 -0.0002377293
-0.1480901493 0.2943626829 -0.1441909993 -0.0002142409 -0.0013949611 -0.0002517987
-0.4210840963 0.5693294501 0.3708748264 -0.0011156284 0.0010387320 -0.0002323122
-0.2368036366 0.6775102284 -0.2135346478 -0.0004691242 0.0007252665 0.0009002825
0.3214784328 0.6574949373 -0.1296445515 -0.0014309536 0.0004677647 -0.0002863214
-0.3675587782 0.0000000000 0.4584534659 -0.0000675674 -0.0012555462 -0.0003053936
-0.4785960549 0.4504214950 -0.2766273035 -0.0011759337 -0.0001777853 -0.0007822194
0.1002997017 0.4715384029 0.2804811335 -0.0002033495 0.0013950197 -0.0002335217
0.4663448773 0.5980214822 0.3946409372 -0.0000357665 -0.0000392046 0.0011433020
0.4621783588 0.9839350355 -0.4024701900 0.0011626120 -0.0000336578 -0.0004958449
0.2560546687 0.5865776048 -0.3699369938 0.0002082337 0.0000000000 -0.0015132587
-0.1154458012 0.2943627038 0.4864092565 -0.0002128096 -0.0013949514 -0.0002236668
0.2992913071 0.4882793665 0.1885233353 -0.0002091391 -0.0013950797 -0.0002413342
-0.3789935862 0.4882793233 -0.1751481483 -0.0002074287 -0.0013949625 -0.0002555543
0.1636064650 0.5988842984 -0.2436127587 -0.0001692369 0.0013921738 -0.0003128071
-0.2709257804 0.6843739323 -0.2179274295 -0.0004789191 0.0007304743 0.0009018311
0.3635362881 0.7030749023 0.3977386639 -0.0003726011 -0.0000400501 0.0011389870
-0.3660866340 0.8629956331 -0.4164822523 -0.0001949581 -0.0005295334 -0.0015302173
0.2647886110 0.7031073869 -0.3777824671 -0.0000722214 -0.0001967738 -0.0016095334
0.4480115817 1.0710343702 -0.4852077600 0.0011644507 -0.0000033119 -0.0004897470
0.0340756575 0.6105550555 0.0903144828 -0.0002036285 0.0013946961 -0.0002442708
-0.3269452658 0.6740275423 -0.0117485624 0.0011779007 0.0000314689 -0.0002562895
0.1354904239 0.6036910976 -0.3699369938 0.0000119175 0.0000000000 -0.0015300360
-0.2971875276 0.4715383596 -0.2313930234 -0.0002111522 -0.0013950588 -0.0002465378
-0.4134293992 0.4876377256 0.2572711100 -0.0002595630 0.0013931894 -0.0002391202
-0.2820318704 0.5943456775 0.4431419862 -0.0002704042 0.0013909921 -0.0001592949
0.4758668955 0.9161119377 -0.3192644283 0.0011577250 -0.0000566795 -0.0005188470
-0.3370883195 1.1313034597 -0.4033094208 -0.0002086522 0.0009275690 0.0008013641
-0.0004336569 0.2943627038 -0.0151345064 -0.0002077817 -0.0013950448 -0.0002454246
0.3863372758 0.7943692391 0.3219091182 -0.0002215665 0.0013938716 -0.0001889641
-0.2450731527 1.0853752775 -0.4485740774 -0.0004480849 0.0013350674 -0.0000543818
0.2652857966 0.4715383596 0.1443997834 -0.0002048646 -0.0013950783 -0.0002392290
-0.3151940848 0.2895074128 0.0566759170 0.0008967997 -0.0007843064 -0.0002072341
-0.3657695384 0.5929661767 -0.1528690392 -0.0002994555 0.0013914483 -0.0002681030
-0.4934448774 0.7290026943 -0.0367032094 -0.0014024911 0.0006802108 -0.0003047700
-0.1602180518 0.6038956253 -0.0213578822 -0.0002508410 0.0013934879 -0.0002546614
-0.1017999666 0.7060094404 -0.2318883368 -0.0002911966 0.0007485030 0.0009047747
-0.3201139612 0.4601867837 -0.3129294584 -0.0002156458 0.0010727498 -0.0010666128
-0.2930902568 0.5950981411 0.3008796164 -0.0002816849 0.0013914246 -0.0001888553
-0.2445678143 0.4394538573 0.5328676627 -0.0002155398 0.0003336817 0.0010912625
-0.0958522119 0.4715383596 -0.0751547171 -0.0002090331 -0.0013950783 -0.0002420457
-0.3974250176 0.2943627038 -0.1557121281 -0.0002246120 -0.0013946975 -0.0002624683
-0.4876931794 0.7512783980 0.1713411387 -0.0015809265 0.0002005112 -0.0001798793
0.3857501715 0.4918019017 -0.3053111200 -0.0002173478 -0.0012807693 -0.0006796347
-0.3243658003 0.5950416877 -0.1424261331 -0.0002894457 0.0013918431 -0.0002679147
0.3381460205 0.2864911954 -0.3217099755 -0.0003738134 -0.0013141649 -0.0005973972
-0.4037874052 1.1459910942 -0.4208180475 -0.0002078710 0.0011624885 0.0005303593
-0.3230553966 0.6872081639 -0.2628506588 0.0009738864 0.0004672485 0.0000526393
0.2900916426 1.0363237396 -0.4890531386 -0.0001445160 -0.0004134024 -0.0015617992
0.3882438072 1.0687717018 -0.4198476871 0.0002008537 0.0008705505 0.0004779557
0.3260138603 0.1361438708 0.4700334966 -0.0011419829 0.0008550079 0.0003161595
0.3299300631 0.4915020075 -0.0066171020 -0.0016018709 -0.0000354854 -0.0002479999
0.3310848982 0.5170969088 0.1427988521 -0.0016019142 -0.0000346929 -0.0002305125
-0.0399353154 0.4882793665 0.2075477234 -0.0002083941 0.0013950811 -0.0002384268
-0.4435119604 0.7831141374 0.1501588474 -0.0002252007 0.0013887614 -0.0003698437
-0.2829260647 0.6493591483 -0.1976266554 -0.0005144644 0.0004728177 0.0010238032
-0.3290360194 0.5771333709 -0.3468428376 -0.0001806194 -0.0000593943 -0.0016329820
0.3277056897 0.3122765982 -0.1512158788 -0.0016022615 -0.0000381876 -0.0002274405
0.0230898349 1.0314066311 -0.5150984372 -0.0002076352 -0.0009402098 -0.0012684507
0.4562956583 0.7634945772 -0.3704928482 -0.0000415868 -0.0003832226 -0.0014847250
-0.4766001586 0.5769755897 0.2361694447 -0.0016027010 -0.0000036719 -0.0002134241
0.1399969230 1.0789114339 -0.4279881175 -0.0001538366 0.0012213346 0.0004208354
-0.3297644694 0.8888585858 -0.2947165627 -0.0001684529 0.0006914733 0.0009706199
0.3420542184 0.5968230075 -0.0922374065 -0.0001323272 0.0013914651 -0.0002905081
-0.2460113899 0.2943627038 -0.2266596879 -0.0002181500 -0.0013947742 -0.0002628952
-0.3470535824 0.7868092710 0.2829956313 0.0010237788 0.0001547371 -0.0002156423
0.0849098099 0.6044019654 0.3277685306 -0.0001994154 0.0013933931 -0.0002007693
-0.3185708463 1.1047395597 -0.3884824816 -0.0002073423 0.0004148003 0.0010915946
-0.4214868082 0.9963813728 -0.4752007325 -0.0002329978 -0.0004979836 -0.0015423559
0.2025773959 0.4882793665 0.3887004203 -0.0002095060 -0.0013950588 -0.0002465434
