0.0127678828 1.8062201005 -0.4167286268 -0.4999999593 0.0550238349 0.5971133732
-0.1508100598 1.7583732105 -0.1788028565 -0.4998223828 0.0502614761 0.5971830718
-0.0264776124 2.3384672512 -0.5102036029 -0.5000063900 0.0525270502 0.5995063158
-0.0644332656 2.4325187775 -0.5172249833 -0.5000078373 0.0529782273 0.5994734785
0.4321065646 0.6068527416 0.5134012321 -0.5005225837 0.0531277751 0.5989194306
-0.3660287081 2.0415236244 -0.5509638445 -0.4979457656 0.0525931794 0.5964318445
0.3802178493 0.5603475670 0.5132574498 -0.5001925885 0.0524278541 0.5991346388
-0.3331223636 1.8062201005 0.1719282225 -0.5000013062 0.0550239043 0.5971283349
-0.2831952392 0.5560975933 -0.5087200694 -0.4989334258 0.0524987919 0.5990370646
-0.1882251938 1.8062201005 0.0531641770 -0.4999999809 0.0550238828 0.5971234833
-0.1357171459 0.5720715000 -0.5076007033 -0.4996413780 0.0528726818 0.5989082440
0.2114722153 2.3873331938 -0.5401149904 -0.4999927536 0.0524461005 0.5947775550
-0.4116198254 1.7071524498 -0.2989794713 -0.5020974330 0.0519625694 0.5969783541
0.4273204904 1.0668781818 0.5032274163 -0.5020301866 0.0526556890 0.5979486699
-0.4094294856 2.3394238086 -0.5119552249 -0.5000149928 0.0524535742 0.5995144952
0.0418227344 1.8062201005 -0.0531708206 -0.4999999761 0.0550238708 0.5971211770
0.2566509330 1.7583732105 0.3128755383 -0.5000446603 0.0502457967 0.5970065885
0.4308592871 0.4933973660 0.4903346531 -0.5008142177 0.0513466818 0.5972146316
0.4251730885 1.6945370072 0.4197615478 -0.5019203636 0.0512540287 0.5971979474
-0.0130576531 0.5815425000 0.4570793995 -0.4995723660 0.0524353230 0.5953846483
0.2641822775 1.7583732105 -0.1625201938 -0.5001342033 0.0502483971 0.5971275120
-0.4358410311 1.6460629737 0.5110088876 -0.5011647608 0.0526837823 0.5991478349
-0.3660287081 2.3409967057 -0.5778174163 -0.4982958684 0.0527469809 0.5961368995
-0.3680421842 1.3854825742 -0.5561300766 -0.4981160167 0.0526489402 0.5959069067
0.4546730742 1.6689438565 -0.5156079880 -0.4979612464 0.0526249617 0.5969505311
-0.1040837057 1.7583732105 -0.2536247297 -0.4998708301 0.0502612823 0.5972508636
0.4127787895 1.6913877105 -0.4042306555 -0.5017036722 0.0512612967 0.5978492632
0.3730330766 1.8052362368 -0.5418585813 -0.4999212632 0.0546843014 0.5961197368
-0.1637549880 1.8062201005 -0.3789999211 -0.5000032727 0.0550238612 0.5971199330
-0.3760896531 1.7039713206 0.0826413469 -0.4982126675 0.0514872871 0.5974575287
0.2019913230 2.3519457990 -0.5103974402 -0.5000008900 0.0524940144 0.5995161100
0.0272092321 1.8062199545 0.4019150622 -0.4999999952 0.0550239163 0.5971309474
0.4356398158 1.4691351986 -0.4759143301 -0.4997658828 0.0528171292 0.5983185167
0.4641446196 1.5076948158 0.5139323230 -0.4988020981 0.0526987464 0.5985396938
-0.2497701148 1.8062201005 -0.4789764545 -0.5000070191 0.0550238780 0.5971242871
0.4275924474 1.1654073947 0.5134267488 -0.5017730287 0.0526553804 0.5985380144
-0.1245139091 1.7583732105 0.0328590359 -0.4998499019 0.0502570144 0.5970925167
-0.3289297727 1.8062201005 -0.1364375933 -0.5000050383 0.0550238995 0.5971281938
-0.2250767751 0.5476620742 0.4564558134 -0.4995500718 0.0518642153 0.5952583828
-0.0565990837 1.7583732105 0.0751802727 -0.4999204689 0.0502541411 0.5971144306
-0.0747436459 1.8062201005 0.3092989569 -0.4999999904 0.0550239067 0.5971289689
-0.4100424019 0.5826567560 -0.4731971699 -0.5022158158 0.0520066746 0.5971686172
-0.3515270813 0.5530576986 -0.5090569306 -0.4987766268 0.0524464474 0.5990060742
0.4164615622 0.4569828876 -0.5104213158 -0.5001997679 0.0513754450 0.5989932297
-0.4076622679 1.7111347727 -0.4372042416 -0.5020741531 0.0519119785 0.5969570789
0.3744322847 1.8062202464 -0.3316596364 -0.4999925000 0.0550238923 0.5971260311
-0.3815008565 1.3689252536 0.5110088876 -0.4982236483 0.0527021938 0.5985566077
0.0784283134 2.4152471411 -0.5152108230 -0.5000085215 0.0528956459 0.5994794378
-0.0119145957 1.8062201005 0.4521965694 -0.4999999976 0.0550239211 0.5971320311
0.2429275144 1.8062201005 -0.4888177895 -0.4999943206 0.0550238636 0.5971200048
-0.4054172010 1.4861564139 0.4512858780 -0.5002414689 0.0528066053 0.5954309139
0.4659087249 0.5894301603 0.0104964761 -0.4980617512 0.0514212416 0.5970110048
0.1686020263 1.7351488947 0.5110088876 -0.5000043517 0.0521387895 0.5993634402
-0.3661311029 1.9837081435 -0.5655964402 -0.4980052919 0.0525690431 0.5958355478
0.4624136603 0.6136334856 -0.1906051268 -0.4979387584 0.0525043971 0.5972050167
0.3397413182 1.7583732105 0.0104417201 -0.5001077895 0.0502473780 0.5970835359
-0.2844869450 1.7583732105 0.0049313254 -0.4998065311 0.0502567608 0.5971339258
0.3176422847 1.8062201005 0.1482659306 -0.4999999833 0.0550238923 0.5971255024
-0.3680664402 2.1652915311 -0.5020015287 -0.4979667703 0.0527515000 0.5982003971
0.4547709043 1.6242516675 -0.5370457847 -0.4979332057 0.0526259115 0.5962815478
-0.3795591938 1.7200980359 0.2230040263 -0.4981647656 0.0515732656 0.5971981411
0.2255745478 1.6955034952 0.5110088876 -0.5000025144 0.0511559665 0.5989606675
0.4170082488 1.6275452297 -0.5468519306 -0.5015431292 0.0526544306 0.5958941746
-0.4324330191 1.2664115981 0.5110088876 -0.5013415359 0.0526615335 0.5988367201
-0.4053275096 0.0000000048 -0.5794084187 -0.5020078038 0.0524723660 0.5969759785
0.1236343756 1.7583732105 0.3684766483 -0.5000247823 0.0502455550 0.5969910478
-0.4366918445 1.2409537321 0.5065741005 -0.5017032823 0.0526632871 0.5984993158
0.2017136722 0.5191387608 0.4923438373 -0.5003243517 0.0511220885 0.5973837464
-0.3684210526 0.6088481029 -0.5331131053 -0.4981932488 0.0529111890 0.5979613134
-0.4206805981 0.6353054545 -0.0833075861 -0.5019232129 0.0535100550 0.5968456890
0.4629612967 1.6913877105 0.2713119641 -0.4998701196 0.0502663876 0.5970997225
-0.3931785287 2.1685906411 -0.5793411770 -0.5007169856 0.0525940311 0.5956415502
-0.4053701555 2.4500615646 -0.5467384737 -0.4999898612 0.0527763373 0.5947499258
0.4727492632 1.7959770000 -0.0256482727 -0.4982159067 0.0519256316 0.5972935191
-0.4377265096 1.7200051675 0.4728320359 -0.5018015981 0.0527175431 0.5972594450
0.4579161148 1.7286128780 -0.2209306938 -0.4976136651 0.0526343086 0.5969759976
0.3423706483 0.5193520191 -0.5777131579 -0.5012502297 0.0514973182 0.5955463158
0.4545455287 2.4336550813 -0.5904959354 -0.4981281627 0.0527745431 0.5958196292
-0.1220595813 2.1152281005 -0.5373502297 -0.5000518062 0.0522312249 0.5948338397
0.3425011148 0.5291366986 0.5131437847 -0.5003448876 0.0513847368 0.5988690167
-0.4036322321 1.2239244139 -0.5607258182 -0.5015865670 0.0526433421 0.5959346316
0.4462094833 1.7535885215 0.4946829426 -0.5001601292 0.0527172632 0.5978066340
-0.2415765096 2.3797148971 -0.5408014187 -0.5000151722 0.0524404737 0.5947749761
0.4279645718 0.7670683852 0.4684398038 -0.5020617488 0.0529787871 0.5964050813
-0.3848037990 1.0107983349 -0.4933176005 -0.4995691435 0.0529233876 0.5982044163
-0.2188986100 1.7323839163 -0.5440150359 -0.5002109306 0.0525289617 0.5947795072
0.2222014809 1.7583732105 0.1687743254 -0.5000695383 0.0502465813 0.5970423756
-0.1911907297 1.8062201005 -0.1607062967 -0.5000013421 0.0550238708 0.5971212632
0.1011123301 1.7583733565 0.2204060526 -0.5000445718 0.0502467727 0.5970371196
-0.4278456579 0.1452696005 0.5063321866 -0.5015458182 0.0525436053 0.5987244689
-0.4356076005 0.7387462464 0.5008857584 -0.5021392249 0.0526794880 0.5977723756
-0.0226785407 1.7579015742 0.5107730694 -0.5000264474 0.0525133469 0.5994528397
0.2690253732 1.9247329976 -0.4864357392 -0.4999487416 0.0530000478 0.5993497081
-0.4284657392 0.6417790502 0.3123101603 -0.5016588612 0.0532888900 0.5960851603
0.4529382440 0.5789644569 -0.3439047775 -0.4985490407 0.0513831077 0.5968372823
0.3498092727 1.8062201005 0.3243523565 -0.4999999928 0.0550239091 0.5971292823
-0.2363092344 1.7583732105 -0.4615967679 -0.4997333158 0.0502690287 0.5972718900
-0.0510947129 1.7583732105 -0.3182533660 -0.4999257919 0.0502607153 0.5973174856
-0.1711919330 1.7583732105 -0.3639602297 -0.4998010335 0.0502652967 0.5972639617
-0.3488192584 1.8062201005 -0.5228500000 -0.5000586555 0.0549889689 0.5968108732
-0.4266711100 0.9494582967 0.4526654569 -0.5014104258 0.0530299450 0.5956731770
0.4107772608 1.3005609139 -0.5561534402 -0.5020167105 0.0526612608 0.5958777201
-0.3743242057 2.2620837967 -0.5862432608 -0.4991678421 0.0526565024 0.5954565718
0.1167301746 1.7583732105 -0.2622971244 -0.5000532488 0.0502545766 0.5972733995
0.4640034211 1.7804832679 0.0694722440 -0.4977379737 0.0520802990 0.5973190718
0.3731065957 1.8062201005 -0.0554055383 -0.4999959234 0.0550238971 0.5971270096
0.4545454545 1.7707928421 -0.5447958612 -0.4979174641 0.0526153206 0.5960215191
0.3881274498 1.8062201005 0.1487987464 -0.4999979976 0.0550239043 0.5971283947
0.3397968780 1.8062201005 0.3948032440 -0.4999999952 0.0550239163 0.5971307943
0.4549207919 1.5557344474 -0.5154837297 -0.4979728493 0.0526306244 0.5970498469
-0.3887055598 1.8062201005 0.3939635718 -0.5000001459 0.0550239187 0.5971310837
0.4649752392 1.5952395263 0.5137432416 -0.4986848062 0.0527073062 0.5984401651
0.4356707703 2.0717751579 -0.5697941388 -0.4998244211 0.0525456124 0.5959552488
-0.4263405144 0.6122319761 0.1381503756 -0.5019122871 0.0522770359 0.5964524282
0.0359192249 1.7583733565 0.0736993660 -0.5000087990 0.0502512632 0.5971539761
-0.1977572464 2.3856515167 -0.5410965909 -0.4999949330 0.0524390885 0.5947779211
0.4660042943 0.6792526651 0.4559080048 -0.4985469139 0.0533715263 0.5964673660
0.4744345933 0.9924937033 0.4934085502 -0.4980952871 0.0529574163 0.5978998469
-0.1044679115 0.5909091316 0.4761240191 -0.4996867488 0.0532761292 0.5965248493
-0.0281816316 1.7583732105 0.2075028493 -0.4999501100 0.0502509737 0.5970654689
-0.3477507512 1.7583732105 0.3143990263 -0.4999189522 0.0502450694 0.5971239856
0.4101727488 1.1274176100 -0.5327527344 -0.5020436699 0.0529671699 0.5967436268
0.4130086938 1.7562198971 -0.1982486124 -0.5009452081 0.0510437010 0.5972111770
0.4602907895 0.1553407919 -0.5718426124 -0.4978724785 0.0525044737 0.5964906244
0.4266791100 1.3852910000 0.5134036699 -0.5016303349 0.0526680718 0.5987474809
-0.3707360909 0.6326962751 -0.3533565407 -0.4978914163 0.0530900263 0.5979080526
-0.3656008517 0.5568777990 0.4560425120 -0.4988022560 0.0520033756 0.5955224522
0.4548399713 1.7774820335 -0.3495844067 -0.4977045167 0.0521688971 0.5970319617
0.4556051005 1.2429833708 -0.5209573995 -0.4979960694 0.0526459163 0.5971324928
-0.1208649785 1.9752041077 -0.5218640191 -0.4999295167 0.0526538923 0.5994574689
-0.4000982799 2.0864684234 -0.5732783995 -0.5011722751 0.0525402751 0.5958203254
-0.4085572990 0.4033453230 -0.5552839809 -0.5020275120 0.0525963445 0.5965865000
0.2385594115 1.8062201005 -0.0087113828 -0.4999999761 0.0550238756 0.5971221316
-0.3606080598 1.7501014856 -0.5200717321 -0.4994426483 0.0504546603 0.5973866459
0.1260289091 1.8062202464 0.4366294450 -0.4999999976 0.0550239211 0.5971316914
0.1822498086 1.8062201005 -0.4101319378 -0.4999970144 0.0550238541 0.5971177871
-0.2591432990 0.5191387608 0.5064590670 -0.4995163421 0.0517948828 0.5988636675
-0.0344925646 1.8062201005 -0.0169498876 -0.4999999761 0.0550238756 0.5971219617
0.4323686675 1.3085296531 -0.4811743038 -0.5000283995 0.0529368086 0.5982853301
-0.3894602129 0.5906626196 0.4394296172 -0.4982828230 0.0523867751 0.5960829258
0.4545454545 2.0884617033 -0.5647688134 -0.4979815813 0.0525535909 0.5960304043
-0.4368225000 1.7918660335 0.3439598636 -0.5012445718 0.0508476938 0.5978804856
0.3326397775 1.7066434330 0.4631619976 -0.4999998804 0.0514653541 0.5953562105
-0.2695723182 1.8062201005 0.1136411459 -0.5000001890 0.0550238900 0.5971251483
-0.3880302751 1.6913875646 0.1924437751 -0.4988292033 0.0510849139 0.5971406962
-0.0604616746 1.7369228565 -0.5106920311 -0.4996363325 0.0507887584 0.5979101938
0.1966736722 1.7583732105 -0.2732207368 -0.5000971531 0.0502523421 0.5972274856
-0.2575057536 2.4694044545 -0.5209289258 -0.5000071603 0.0531548158 0.5994606938
-0.2085152775 1.7583732105 0.0375418421 -0.4998238923 0.0502567033 0.5971010167
-0.0825379282 1.7583733565 -0.4699509187 -0.4998929880 0.0502643110 0.5973743397
-0.4090909091 2.1307863708 -0.5214394761 -0.5021181531 0.0526883182 0.5976458421
-0.1448890287 1.8062201005 0.3982142584 -0.4999999952 0.0550239163 0.5971308876
0.4602623158 1.7130697919 -0.1206717608 -0.4976457321 0.0525528971 0.5969949545
-0.2008222727 2.4764413110 -0.5435847967 -0.4999934378 0.0528987895 0.5954680550
0.1184740574 1.7750147823 0.5110088876 -0.4996049569 0.0523535000 0.5993031077
-0.0814198038 1.8062201005 0.1378000789 -0.4999999833 0.0550238900 0.5971252895
-0.4311217440 1.7489761316 0.3825666244 -0.5023908182 0.0525894785 0.5970629258
0.4747378708 1.1334096411 0.5047020072 -0.4981546077 0.0528113732 0.5982470861
-0.0573697990 1.7583732105 -0.3633347656 -0.4999192297 0.0502616866 0.5973363421
-0.1073103900 2.4032132871 -0.5420004378 -0.4999944354 0.0525183876 0.5947726579
0.4279330311 0.7830179067 0.4995148756 -0.5021976483 0.0526933230 0.5975531770
0.4552689689 1.3959473278 -0.4792301603 -0.4979752967 0.0528260526 0.5982901411
-0.2791094976 2.3337053421 -0.5109241986 -0.5000124761 0.0524447249 0.5995147584
-0.0910780335 1.7583732105 -0.2254253923 -0.4998843636 0.0502603876 0.5972448684
0.4095445837 0.6652470694 -0.5742257584 -0.5019870718 0.0526724641 0.5958517105
0.1172410885 0.5191387608 0.4723698014 -0.5003466268 0.0513854258 0.5961077105
0.4070967536 0.1269784402 -0.5816829258 -0.5013434904 0.0522912201 0.5954256100
0.4392020478 0.5840709689 -0.0009148708 -0.4998699115 0.0520193421 0.5960787799
0.4589757608 0.2543798254 -0.5836083086 -0.4982000167 0.0525634067 0.5957176435
-0.2071165239 2.1823676483 -0.5446264091 -0.4997661986 0.0527602368 0.5948578278
0.4254877560 0.6172343756 0.3189627368 -0.5017045191 0.0529251914 0.5959314139
0.0021439689 1.7583732105 0.0099035742 -0.4999814043 0.0502534043 0.5971850550
-0.2807643110 1.8062201005 -0.2154055502 -0.5000046268 0.0550238876 0.5971257871
0.4336639115 1.4487189378 0.5137785048 -0.5010278301 0.0526723301 0.5989899330
0.4062023995 0.1733808804 -0.5518027129 -0.5018155120 0.0521216148 0.5968476555
0.4316398230 0.4087081675 0.5070685072 -0.5008980335 0.0513519522 0.5982868182
-0.0660340885 0.5906496244 0.4569235885 -0.4991600694 0.0525798589 0.5955460478
0.4610155455 1.8062201005 0.3795528876 -0.4999987488 0.0550239234 0.5971322727
-0.3732471005 0.6088511675 -0.2290629713 -0.4980769019 0.0528968182 0.5977220742
0.4352489282 0.3637712512 0.5126852560 -0.5008171651 0.0515376196 0.5986736603
-0.1980985072 1.7583732105 -0.3503815861 -0.4997731077 0.0502659139 0.5972398900
0.4076646148 0.3643917153 -0.5327289354 -0.5012394450 0.0516415072 0.5977759569
-0.3808237560 1.5490258373 0.5016437416 -0.4978848014 0.0528800024 0.5979276005
0.3617079163 1.7805403612 0.5110088876 -0.4984730694 0.0521545144 0.5984155096
0.4114832536 1.9961353708 -0.5407942632 -0.5021475263 0.0525850431 0.5967631268
-0.3747417871 0.8941313876 -0.4971386483 -0.4985500837 0.0529175813 0.5981944833
-0.2399996890 1.8062201005 0.1203780096 -0.4999999833 0.0550238876 0.5971249330
0.0293744091 1.7583732105 0.0146075167 -0.5000052177 0.0502524761 0.5971883493
0.4342599522 0.6425537440 0.3768334641 -0.5012887727 0.0532176818 0.5961994976
-0.0113906507 1.7583732105 -0.3727671794 -0.4999669665 0.0502603947 0.5973704904
0.4741646794 0.8664806364 0.4610956172 -0.4979001914 0.0532989617 0.5966133565
-0.4359339928 0.8892531746 0.4776299211 -0.5020635909 0.0528310287 0.5968725120
-0.1657834952 0.5371948373 0.5116540000 -0.4995106818 0.0523581746 0.5993380981
-0.1682683038 1.8062201005 0.4014080550 -0.4999999952 0.0550239163 0.5971309569
0.4236112177 1.7492066938 0.3385063062 -0.5022595766 0.0524331675 0.5972381962
-0.2207829234 2.2080722105 -0.5457438062 -0.4995500646 0.0531568110 0.5949539043
-0.4090909091 2.2125028086 -0.5702048134 -0.5020496292 0.0526920789 0.5962302105
0.2158560144 1.7166244330 0.5110088876 -0.5000032679 0.0516982584 0.5991926124
0.3837140096 1.7203801388 -0.5171281746 -0.5011322344 0.0508790885 0.5976430263
-0.4383444904 1.8062202464 0.3989437775 -0.5015981292 0.0541809617 0.5974261172
-0.2578394043 1.7583732105 -0.0852391722 -0.4997743230 0.0502602847 0.5971336555
0.4300690431 2.0280450742 -0.5665218230 -0.5003550766 0.0525591148 0.5960114976
0.4587968900 0.3174265670 -0.5234695502 -0.4980544067 0.0525466746 0.5981190526
0.0532060837 1.7140025502 0.5110088876 -0.5000051292 0.0515009976 0.5990480048
0.4323178517 0.5861434617 0.1382854402 -0.5005226244 0.0523228254 0.5958200096
0.0568978349 1.8062201005 -0.3314735383 -0.4999999617 0.0550238421 0.5971152010
-0.4360855287 0.9593367919 0.4718816100 -0.5020534402 0.0528548660 0.5966658014
0.3533298923 1.8062201005 -0.1142478828 -0.4999957656 0.0550238923 0.5971259713
0.4122467033 0.5909090957 0.4933997608 -0.5004098971 0.0531622536 0.5977708278
-0.4059129378 0.6319631220 -0.4749226555 -0.5015789426 0.0538341794 0.5977206770
-0.4071222344 0.0919361077 -0.5538276053 -0.5019971292 0.0524922297 0.5976823469
-0.2214718325 1.7583733565 -0.0290699641 -0.4997979211 0.0502588421 0.5971134019
0.4166359067 1.6913875646 -0.0258558349 -0.5018666986 0.0512599474 0.5975514856
0.4590001459 0.5834909522 -0.0398748660 -0.4984835502 0.0513833086 0.5967931148
-0.2138772273 1.7792145263 -0.5440150359 -0.5002966292 0.0526315837 0.5947809019
0.2384332536 1.6913875646 0.4758154952 -0.4999977727 0.0512269187 0.5962717010
0.4573754115 0.4716632656 -0.5140948876 -0.4978179258 0.0526001411 0.5979605335
0.2818918923 1.8062201005 0.3371519617 -0.4999999928 0.0550239115 0.5971295574
-0.1729913014 1.7275478278 0.4620115191 -0.5000564761 0.0507350000 0.5961137225
-0.3854787464 1.6008347560 0.5110088876 -0.4982697105 0.0527223158 0.5984153254
0.4759915742 1.7141576196 0.4746990191 -0.4983482656 0.0527245837 0.5962116100
-0.4105141842 1.7917928780 -0.3341067368 -0.5020211818 0.0514287297 0.5969121411
0.4649998421 0.5859334522 0.1241793828 -0.4982700431 0.0513002392 0.5968862392
-0.0741026675 1.8062201005 0.2166671388 -0.4999999880 0.0550238971 0.5971269809
-0.2249916842 0.5191387967 0.4631679306 -0.4998221340 0.0513551029 0.5955687201
0.0504399713 1.8062202464 0.3413957656 -0.4999999928 0.0550239115 0.5971296483
-0.3775606292 0.5809290813 -0.2143374354 -0.4987998804 0.0527687153 0.5982457153
-0.0532019211 2.4552466340 -0.5188129187 -0.5000083301 0.0530872967 0.5994655335
0.4229231100 1.7317909402 0.3041442990 -0.5022121962 0.0521465144 0.5972945598
-0.4063397632 1.6913875646 -0.2809033565 -0.5011008971 0.0506658756 0.5970466722
0.4082426962 0.3421107081 -0.5807450574 -0.5013658230 0.0518762153 0.5954336722
-0.2397512033 1.7583732105 0.1579978612 -0.4998672105 0.0502520574 0.5970996962
0.1234232344 2.4684401555 -0.5188275215 -0.5000098062 0.0531509522 0.5994608325
-0.4140133565 0.6312480048 -0.3264035311 -0.5019440957 0.0536589067 0.5973381746
0.4215750813 1.7206004809 0.2361626148 -0.5021202656 0.0518978612 0.5973471651
0.4217126292 0.5844391507 0.0238151364 -0.5013565359 0.0526221531 0.5963776986
-0.2068423038 1.8062201005 0.4942340383 -0.5000000000 0.0550239258 0.5971329545
-0.1918067010 2.3111635096 -0.5349321866 -0.4999988636 0.0512754522 0.5962735335
0.1657546914 0.5191387967 -0.5567096172 -0.5005113708 0.0512751675 0.5965808923
-0.2997868373 0.5282562512 0.5112600096 -0.4993886866 0.0522268660 0.5993254402
-0.3206708636 0.5909090957 0.4788695526 -0.4989832273 0.0533801842 0.5969385167
0.1007898493 1.6957406268 0.4631619976 -0.4999964163 0.0510290311 0.5954734593
0.4032621986 1.8062201005 -0.4409132225 -0.4999903373 0.0550238971 0.5971268158
-0.4090909091 1.3838062967 -0.5525994545 -0.5020899689 0.0526321172 0.5960792727
-0.1825802823 2.3468311124 -0.5385250837 -0.4999948876 0.0522634904 0.5947896292
-0.2285370167 1.7583732105 0.2428090957 -0.4998999234 0.0502492608 0.5970859641
-0.1374807033 1.8062201005 0.3034339617 -0.4999999904 0.0550239067 0.5971288517
-0.2496015000 1.8062201005 -0.0643483589 -0.5000018325 0.0550238828 0.5971241842
0.4744744545 1.0117388325 0.5131227775 -0.4983780789 0.0526883852 0.5987082943
0.0292579976 1.8062201005 -0.2056483230 -0.4999999689 0.0550238565 0.5971179043
0.0881972249 1.6913875646 0.4828810431 -0.4999983325 0.0509369976 0.5968978158
0.1602429115 2.1259167010 -0.5523642943 -0.4999756699 0.0524342990 0.5947924282
0.3118259856 1.8062201005 0.0493134856 -0.4999989545 0.0550238876 0.5971248660
-0.1541621005 1.7583732105 0.1759378900 -0.4998796818 0.0502526483 0.5970647081
0.1665995478 1.7175618636 -0.5431249880 -0.4998518612 0.0521834019 0.5948537392
-0.4293334545 1.7918660335 0.2624333206 -0.5018195694 0.0514247703 0.5975471722
0.1843137608 1.8062201005 0.2659730311 -0.4999999880 0.0550239043 0.5971280287
0.3185685455 1.6913875646 -0.5181892799 -0.5014469976 0.0514018469 0.5979845933
0.1636997943 1.7419843947 -0.5431428014 -0.4998547895 0.0525541794 0.5947698995
-0.4292055431 0.6159100000 0.2498300718 -0.5018300478 0.0522390742 0.5963878278
0.4749144043 1.4581533971 0.5140393182 -0.4980759976 0.0527031411 0.5983594234
0.4456304522 1.6913875646 -0.1574697536 -0.4994128158 0.0504537225 0.5970381459
0.4082213780 1.8062201005 0.0602763780 -0.4999963397 0.0550239067 0.5971288947
0.0876371029 1.8062201005 -0.3361268110 -0.4999999617 0.0550238421 0.5971151029
-0.3808503852 0.5919991507 0.2076527727 -0.4980755263 0.0526883517 0.5966641770
-0.2936474378 2.2377823134 -0.5520372153 -0.4996537344 0.0529874306 0.5949257967
0.3013330478 1.7583732105 -0.0729209498 -0.5001208828 0.0502478397 0.5971040191
-0.4081497919 1.8062201005 -0.1752322990 -0.5000016842 0.0550233852 0.5970957679
0.1034384187 1.7583732105 0.1334598660 -0.5000458660 0.0502481938 0.5970799928
0.2516407943 1.8062201005 -0.2257209306 -0.4999972967 0.0550238708 0.5971213493
0.4754822656 1.4777998541 0.4678720263 -0.4982690144 0.0528821220 0.5961749856
0.4087769713 0.4850758134 -0.5631773014 -0.5013204761 0.0515315933 0.5962677895
-0.3763120287 0.6367181699 0.0175005526 -0.4979019880 0.0533052751 0.5972399234
-0.3815910478 1.1929508971 0.4736834163 -0.4980186938 0.0531669904 0.5968851627
-0.4113655813 1.3798101005 0.4514868708 -0.5005736196 0.0528525861 0.5955100813
0.0600219426 1.8062201005 -0.1159950502 -0.4999999713 0.0550238636 0.5971198278
-0.3518924067 1.7652303206 -0.5440150359 -0.5003746603 0.0526315837 0.5947799474
-0.3231107344 1.7295987847 -0.5440149617 -0.5003051531 0.0526144474 0.5947669115
0.3658778732 1.8062201005 0.2514760144 -0.4999998900 0.0550239019 0.5971278589
0.0534059067 1.8062201005 0.5023795407 -0.5000000000 0.0550239282 0.5971331053
-0.4240434904 0.6029577703 0.0608185766 -0.5019045431 0.0519868684 0.5966641603
0.4545454545 1.7666354426 -0.4852194163 -0.4979833828 0.0526330718 0.5979581268
0.4556481770 1.2233185885 -0.5423690574 -0.4979655455 0.0526456196 0.5964433206
0.2098344856 1.8062201005 -0.0588798708 -0.4999999737 0.0550238708 0.5971210550
0.1069310383 1.7583732105 -0.0543248660 -0.5000478230 0.0502513062 0.5971735766
-0.4090909091 1.6395015502 -0.5250545670 -0.5020869641 0.0526193421 0.5966966244
-0.4072141699 1.6913875646 0.0896156699 -0.5001117536 0.0502475000 0.5971002632
-0.1986077775 1.7583730646 0.1012799211 -0.4998485766 0.0502546196 0.5970901268
-0.4315871914 1.7766107488 0.4554223612 -0.5020965813 0.0523060383 0.5979882416
-0.1569385431 1.8062201005 -0.4911765502 -0.5000044761 0.0550238589 0.5971196148
0.2822317464 0.5778244282 -0.5442102608 -0.5004852967 0.0536957943 0.5969335383
0.4371077990 1.8062201005 0.0564923445 -0.4999954713 0.0550239139 0.5971300766
-0.3808323517 1.8062201005 0.2868560359 -0.5000012560 0.0550239139 0.5971307129
0.0039789306 1.7669619378 0.5109286794 -0.5000682225 0.0524826579 0.5994779115
-0.1007382703 1.8062201005 -0.2206522392 -0.4999999689 0.0550238541 0.5971175957
0.4555118684 1.2848367703 -0.4868951818 -0.4979640694 0.0528602488 0.5981169856
-0.1170952895 1.7583732105 -0.4304863589 -0.4998571435 0.0502647273 0.5973322536
0.3613909115 2.3784798852 -0.5391240455 -0.4999918182 0.0526067967 0.5947495502
-0.3681540048 0.7549682368 -0.5341003278 -0.4977909019 0.0528046053 0.5973960574
-0.0665584354 1.8062201005 -0.4158939928 -0.5000009115 0.0550238397 0.5971150455
0.3267635359 1.8062201005 0.2504583110 -0.4999999880 0.0550239019 0.5971276962
0.4107349880 1.1160750742 -0.5614013684 -0.5019814234 0.0526645144 0.5958702297
-0.1039519234 2.3518349737 -0.5110467799 -0.5000105478 0.0524960981 0.5995162560
-0.4126609187 1.7719428732 -0.2508657368 -0.5022861675 0.0522611100 0.5971131148
-0.1506011818 1.7583730646 0.0833008325 -0.4998450048 0.0502559306 0.5970736124
0.4546256172 1.7142348636 -0.3623036651 -0.4978050789 0.0521842608 0.5969773995
-0.0193893206 2.3651315837 -0.5120989785 -0.5000069258 0.0526549976 0.5994969952
-0.3835068301 1.7510657847 0.3816617392 -0.4977580024 0.0523004617 0.5971941603
0.0902983373 1.7711184617 -0.5435931914 -0.4999250718 0.0526315837 0.5947465167
-0.1837238876 1.8062201005 -0.0090675167 -0.4999999761 0.0550238756 0.5971221459
-0.2049777201 0.5838904904 0.5115388565 -0.4998589354 0.0540479402 0.5988274354
-0.0315598852 1.7115669856 -0.5097889880 -0.4997679976 0.0515809402 0.5987516268
0.4109133493 0.6264372871 -0.4122715263 -0.5020539785 0.0533368373 0.5978716292
0.1891286029 1.8062201005 -0.0942686531 -0.4999999737 0.0550238660 0.5971202943
0.1711044665 1.8062202464 -0.3871001459 -0.4999976148 0.0550238541 0.5971174139
0.4356635431 2.4363442799 -0.5153620239 -0.4999918206 0.0526908684 0.5995190263
0.4642852344 0.6430669952 0.4179980072 -0.4986021699 0.0534021722 0.5965874689
-0.3660287081 1.8290649163 -0.5458515670 -0.4980513445 0.0526355837 0.5959781411
0.2720361005 1.8062201005 -0.2714413732 -0.4999961555 0.0550238756 0.5971220215
0.2918956699 2.4036025694 -0.5409989067 -0.4999925502 0.0526699737 0.5947499665
0.2266827440 1.7583732105 -0.0084534785 -0.5001034258 0.0502475263 0.5970869426
-0.3660287081 2.2265963804 -0.5442936364 -0.4978666029 0.0528111699 0.5972541699
-0.4074875861 0.1712170431 -0.5488988708 -0.5020909139 0.0525131172 0.5975865096
0.4628069569 1.8008812775 0.5206836579 -0.4984532919 0.0530071938 0.5981771077
0.4577395789 0.4321332919 -0.5738315861 -0.4983743158 0.0526374522 0.5956181579
0.1807902943 2.1506127225 -0.5357323612 -0.4998028158 0.0524962033 0.5994196603
0.3658769952 0.5216887679 0.4581876866 -0.5009072249 0.0517575861 0.5951456388
0.4495031914 1.3314997536 -0.4804220239 -0.4984817560 0.0528902895 0.5983009043
0.2714326842 1.8062201005 -0.0425142727 -0.4999989785 0.0550238780 0.5971228517
0.4164391483 1.6553549187 -0.5460608086 -0.5015903301 0.0526534833 0.5958960311
-0.3858399187 0.1201538708 -0.5252313206 -0.4996679354 0.0521876172 0.5987237943
-0.4044122464 1.6913875646 0.3883045694 -0.4989122727 0.0510152679 0.5971569378
0.4569331268 0.6353123541 -0.5523889713 -0.4979351866 0.0528751244 0.5965112273
0.1020657488 0.5191387608 -0.5343699474 -0.5000443278 0.0511527823 0.5976835383
0.4551811411 1.7160635813 -0.3383592679 -0.4977491292 0.0523144641 0.5969743421
0.4742542608 0.9080735407 0.4577040885 -0.4979832967 0.0532672799 0.5963947775
0.4318053325 2.4373215718 -0.5564336459 -0.4998708852 0.0529576292 0.5972538230
0.1506242536 1.8062201005 -0.1538906555 -0.4999999713 0.0550238612 0.5971190144
0.2681733636 1.8062202464 -0.4490379809 -0.4999940885 0.0550238708 0.5971211962
0.4272307608 1.1072793660 0.4602449689 -0.5020987488 0.0529119306 0.5962485885
-0.2770781627 1.8062201005 0.4152063421 -0.4999999952 0.0550239187 0.5971312656
0.1555250239 2.3769726962 -0.5395887464 -0.4999930598 0.0523993254 0.5947806579
-0.3730892560 2.4043447727 -0.5431358660 -0.4999940335 0.0526627536 0.5947495191
0.1003061699 0.5191387608 -0.5781620167 -0.5006417679 0.0513367751 0.5955178373
0.2150659139 1.7583732105 -0.0622298684 -0.5001072105 0.0502481651 0.5971079641
0.4433517823 0.2843873660 0.4605409163 -0.5003422488 0.0520830191 0.5952210191
-0.4226882703 0.6246763589 -0.0106207751 -0.5019834713 0.0530184258 0.5965785909
-0.2433000048 1.6913875646 0.4838286675 -0.5000876842 0.0511703923 0.5969374282
0.1852409689 1.8062201005 -0.0660668325 -0.4999999737 0.0550238684 0.5971208995
-0.4184880144 0.5823502656 -0.1188825407 -0.5018731699 0.0513651411 0.5971452632
-0.0920062273 1.7583732105 0.0509417225 -0.4998836770 0.0502556770 0.5971041100
0.1904407847 1.7583732105 -0.2146808684 -0.5000937177 0.0502515263 0.5972016244
0.4577316938 0.5800768876 -0.4601317775 -0.4980958445 0.0512846507 0.5971502847
-0.4268942201 0.9262423780 0.5110088876 -0.5013444115 0.0526417010 0.5986095144
-0.4340993254 0.6158287416 0.5101771555 -0.5019253349 0.0526107081 0.5984604785
0.1421684737 0.5787530981 -0.5725003469 -0.4999041555 0.0542976196 0.5958214474
0.4114831794 2.1433698349 -0.5271626890 -0.5020769354 0.0527110670 0.5976055335
-0.3394638325 1.8062199545 -0.3424426364 -0.5000079187 0.0550238995 0.5971287727
0.1148143565 1.8062201005 -0.3443853206 -0.4999997416 0.0550238421 0.5971152440
0.4358958565 0.0000000048 0.4927378565 -0.5019066842 0.0524787679 0.5974743565
0.0240525598 1.8062201005 0.3039165837 -0.4999999904 0.0550239067 0.5971288421
0.2073111651 1.7216133995 0.4631619976 -0.4999993589 0.0510316699 0.5958751029
-0.3660287081 2.0697826077 -0.5516756053 -0.4979317632 0.0525874689 0.5964912536
-0.4267206196 0.0638916483 0.4653521268 -0.5022321196 0.0524749402 0.5965216746
0.4295379785 1.6913875646 -0.1207584952 -0.5012580885 0.0509895478 0.5976149211
-0.4090909091 0.9624420646 -0.5389664211 -0.5020784952 0.0527544689 0.5968310359
-0.1136171627 1.7498484402 0.4623670526 -0.5001217344 0.0508270407 0.5962937057
-0.3899638445 0.7561141794 0.5110088876 -0.4992082656 0.0526331483 0.5992044904
-0.3894778708 0.2073523278 0.4920279498 -0.4985759306 0.0522869641 0.5977885526
0.4726477799 0.4551794665 0.4683625885 -0.4978200048 0.0525827632 0.5966376196
0.0228517512 0.5568097177 -0.5077486172 -0.4998837584 0.0523885311 0.5989302105
-0.1107329593 0.5254774378 0.5118142990 -0.4996740598 0.0518724856 0.5991848684
0.4095666340 0.8508792919 -0.5531768804 -0.5020311722 0.0528377823 0.5963452488
0.4234677536 1.6913875646 0.0617459306 -0.5016613493 0.0511437057 0.5974777249
0.4137787153 1.8062199545 -0.3439841388 -0.4999912273 0.0550238995 0.5971276148
-0.1622345837 1.8062201005 0.3479294115 -0.4999999928 0.0550239115 0.5971298086
0.4109467871 1.4815746890 -0.5152396603 -0.5020814498 0.0528227823 0.5969530048
0.1352950837 1.7583730646 0.2218784904 -0.5000533732 0.0502463325 0.5970280072
0.4545454545 1.9781632895 -0.5528100861 -0.4979523493 0.0525816268 0.5961616100
-0.3639401603 1.8062201005 0.3539587871 -0.4999999928 0.0550239115 0.5971299617
-0.3275897919 1.8062201005 -0.2032667105 -0.5000058349 0.0550238995 0.5971281435
0.4700748134 2.4782660861 -0.5201333517 -0.5000113517 0.0531722823 0.5990583278
-0.3932339617 2.4095923373 -0.5971332895 -0.5007163421 0.0527333397 0.5954064474
-0.3702541890 0.1213492943 -0.5575068708 -0.4981175957 0.0522667799 0.5971949761
-0.0690072895 1.8062201005 -0.0946477871 -0.4999999737 0.0550238660 0.5971202967
-0.3530272344 1.7822499306 0.5090397560 -0.5017385407 0.0521985646 0.5982265383
0.4717597057 0.4673375455 0.4914199234 -0.4981843421 0.0525899258 0.5978402919
0.1889609737 1.7583732105 0.2570830359 -0.5000504737 0.0502461244 0.5970198014
0.4697667177 0.2357747440 0.4820296555 -0.4978528804 0.0525353445 0.5968487584
0.0864400167 2.4616439354 -0.5185319091 -0.5000094234 0.0531182703 0.5994632273
-0.3805832751 1.7243612967 0.2643075239 -0.4980685359 0.0517189234 0.5971970000
-0.3023648971 1.8062201005 -0.4766068900 -0.5000085167 0.0550238900 0.5971269354
-0.0670701890 1.7583732105 0.0502864354 -0.4999095694 0.0502548995 0.5971203684
0.3725556005 1.7583732105 0.2469142919 -0.5000652990 0.0502461029 0.5970245287
-0.4297590574 0.6075403373 0.2889303182 -0.5017083852 0.0517715024 0.5966049498
-0.1417026053 1.8062201005 0.1347363493 -0.4999999833 0.0550238900 0.5971252297
-0.4289972321 0.2285668278 0.4675507057 -0.5019889354 0.0525202464 0.5963257129
-0.3673715000 1.1136158541 -0.5434494378 -0.4977914378 0.0526425885 0.5967483804
0.1499498732 1.8062201005 0.0329644593 -0.4999999785 0.0550238804 0.5971230263
-0.2310899976 1.7583732105 -0.1450702727 -0.4997535574 0.0502627512 0.5971299785
-0.4017376411 0.1506564258 0.4593811124 -0.4989657967 0.0524931292 0.5955017321
-0.2172075670 0.5594112321 0.5115028900 -0.4996587751 0.0532066292 0.5990760598
0.4329238230 1.5477109522 0.4524039952 -0.5016942703 0.0527971292 0.5959954785
-0.3293865885 1.7583732105 -0.0330400981 -0.4997892249 0.0502574474 0.5971554498
-0.2687456053 1.7583732105 0.3480772536 -0.4999369187 0.0502450167 0.5970897895
-0.1368166172 1.7583732105 0.2081476962 -0.4998929809 0.0502517727 0.5970544474
0.4272307608 1.1084151603 0.4937196388 -0.5021280909 0.0526637464 0.5975432584
0.3555958589 1.8062201005 0.4909933182 -0.5000000000 0.0550239258 0.5971328589
-0.1526729091 1.8062201005 0.4958807105 -0.5000000000 0.0550239258 0.5971329833
-0.2189760718 1.7583732105 -0.3653535263 -0.4997514115 0.0502668301 0.5972341483
-0.3660287081 2.0982321459 -0.5496257440 -0.4979176866 0.0525999234 0.5966125909
-0.3523263612 1.8062201005 -0.0550142871 -0.5000047010 0.0550239043 0.5971293541
-0.3925241268 1.7442162656 -0.5476752464 -0.5005485981 0.0526244641 0.5958631459
-0.4090909091 0.8720485598 -0.5456747392 -0.5020747967 0.0527963445 0.5966920239
-0.4362091627 1.0174756268 0.4979824641 -0.5020365287 0.0526567632 0.5978516699
0.4262262368 0.6316014019 -0.5015458110 -0.5005473062 0.0533970933 0.5980103876
0.1565190359 2.4610946196 -0.5181183876 -0.5000099043 0.0531157751 0.5994633828
0.4114832536 1.9221933230 -0.5090456866 -0.5021105622 0.0526240574 0.5975136770
0.1525645287 1.7288638804 0.4631619976 -0.4999991794 0.0508354833 0.5961172943
0.1322497512 2.3356010813 -0.5094359904 -0.5000030574 0.0524568086 0.5995156364
0.4280943804 1.9726184354 -0.5623742057 -0.5005320383 0.0525736531 0.5960475550
-0.1108491531 1.8062201005 -0.3210506172 -0.5000010120 0.0550238517 0.5971172536
-0.4090909091 2.2398401340 -0.5535041053 -0.5021571962 0.0527348636 0.5970224856
0.4270168469 0.6140387177 0.3961882512 -0.5015376100 0.0528703182 0.5955991890
-0.2412323469 0.5191387608 0.4852403971 -0.4996619928 0.0515237656 0.5972236962
0.1012523230 0.5254285574 -0.5088149809 -0.4997715885 0.0515005407 0.5989573612
0.4582572105 1.7742925813 -0.1926932440 -0.4976971053 0.0522435742 0.5971553517
-0.1500769426 1.7583732105 -0.3277013325 -0.4998229976 0.0502640072 0.5972590574
-0.2427879402 1.8062201005 0.1984593158 -0.4999999856 0.0550238971 0.5971266100
-0.2311166100 2.4775232967 -0.5318461148 -0.5000009306 0.0531320263 0.5974953852
-0.3862580670 0.4402520622 0.5067965120 -0.4991126651 0.0520876507 0.5989804354
-0.0839701029 0.5707066053 0.4568708493 -0.4995534330 0.0522524139 0.5953478612
-0.3660287081 1.9420703397 -0.4866081124 -0.4978254928 0.0526772177 0.5980851699
0.4078606411 0.3856546914 -0.5548715550 -0.5014867153 0.0517025526 0.5966801699
-0.4294459880 0.2610272919 0.4813432273 -0.5021477105 0.0525295742 0.5970145407
-0.0391273684 1.8062201005 0.0099225933 -0.4999999785 0.0550238780 0.5971225383
0.0731519115 1.8062201005 0.3719133445 -0.4999999928 0.0550239139 0.5971303038
-0.4073305813 2.3836118014 -0.5145258565 -0.5000174498 0.0525619593 0.5995164641
0.4545454545 1.9644925837 -0.4913470263 -0.4978830144 0.0526789761 0.5980329928
0.2070274545 1.7583732105 0.4090064378 -0.5000229641 0.0502453062 0.5969818565
0.3118848301 1.8062201005 0.1776754569 -0.4999999856 0.0550238947 0.5971261340
0.0314266077 0.5324207703 0.5122318732 -0.4998454402 0.0519227177 0.5991405383
-0.3127353971 1.8826901435 -0.5130120957 -0.5002206483 0.0531312416 0.5993347799
0.3575751938 0.5909090957 0.4899426244 -0.5004557129 0.0531879713 0.5974519282
-0.3031567297 2.4328858636 -0.5182349091 -0.4999871483 0.0530522632 0.5994440311
-0.1027093182 1.7583732105 0.3085482297 -0.4999330981 0.0502487536 0.5970301603
-0.4373001077 1.5224496986 0.4585794689 -0.5021341053 0.0527439450 0.5963790598
0.4273862703 1.8062201005 -0.3916780024 -0.4999932632 0.0550238421 0.5971200622
-0.1111733469 1.6963520000 0.5102285718 -0.5000916196 0.0513147321 0.5990181316
0.1059020550 1.6913875646 -0.5255438708 -0.5004403636 0.0515220622 0.5972807967
-0.2815082679 1.8062201005 -0.1226800072 -0.5000034880 0.0550238900 0.5971258038
-0.3869352943 1.8062201005 -0.3528771651 -0.5000058852 0.0550236029 0.5971101483
0.3044021818 1.8062201005 0.3284880167 -0.4999999928 0.0550239091 0.5971293708
0.4096513947 0.8882650766 -0.5056678014 -0.5020614211 0.0532539211 0.5977656914
-0.3874990646 0.6368183756 -0.0855355885 -0.4991734282 0.0535469952 0.5972958493
-0.4073833852 2.0318241435 -0.4921861124 -0.5019414785 0.0526984402 0.5982425742
0.4327607225 1.0017746962 -0.5646528038 -0.5000959426 0.0526665670 0.5958699067
-0.4003742344 0.2859722536 0.5099343852 -0.4998677871 0.0522331459 0.5992088301
0.2968052033 1.8062201005 -0.5257796890 -0.4999576675 0.0549344593 0.5966929019
-0.4180759258 1.7834814378 -0.0496978756 -0.5022015694 0.0519401196 0.5971974139
0.3087075694 0.5219238182 -0.5083226842 -0.5002358995 0.0513148732 0.5989837249
0.2721988373 1.7689950789 -0.5424771842 -0.4997288014 0.0526315837 0.5947644904
0.1399024354 1.8062201005 0.3189162656 -0.4999999904 0.0550239091 0.5971291651
0.0871797033 0.5705163086 -0.5069796196 -0.5005657703 0.0527402727 0.5986599139
0.0560076411 1.7583732105 0.0176311292 -0.5000198421 0.0502516172 0.5971696531
-0.3714599880 1.8062201005 -0.2593859809 -0.5000078086 0.0550239067 0.5971303636
0.4277066316 0.8876848038 0.4895455024 -0.5021772656 0.0527395981 0.5972314737
0.4627299330 0.6363693732 -0.1191520885 -0.4979108230 0.0533722512 0.5974116914
-0.2305734258 1.8062201005 0.0523002656 -0.4999999809 0.0550238828 0.5971234689
0.1998251603 1.8062201005 -0.1221758110 -0.4999999713 0.0550238636 0.5971196962
-0.3163353230 1.7583732105 -0.0637983110 -0.4997785024 0.0502587057 0.5971538278
-0.0259729043 1.8062201005 -0.3850004211 -0.4999999593 0.0550238373 0.5971140574
0.1794105048 1.8062201005 -0.1867437033 -0.4999998325 0.0550238589 0.5971185072
0.2539954665 1.8062201005 0.4330361651 -0.4999999976 0.0550239211 0.5971316148
-0.2523334258 1.7415485335 -0.5440150359 -0.5002337512 0.0526315837 0.5947575024
-0.3682588182 0.7077964569 -0.5608816196 -0.4977302584 0.0526929019 0.5968006818
0.2315058373 0.5909090957 0.4889277129 -0.5004382536 0.0533496579 0.5972741699
-0.4205166938 1.6977981531 0.0117332775 -0.5021414737 0.0520567895 0.5970274737
-0.3660287081 2.1493572656 -0.5192620670 -0.4978606603 0.0526939163 0.5975983923
0.4589524713 0.6281698182 -0.3881425622 -0.4978655478 0.0531432105 0.5977004139
-0.1645459617 1.7583730646 -0.4069201459 -0.4998078923 0.0502658230 0.5972899928
0.4150715502 1.8062201005 0.3825368923 -0.4999999952 0.0550239163 0.5971305311
0.4325168732 0.3135535742 0.4635198301 -0.5014026172 0.0520091675 0.5956054474
-0.3306227871 1.7583732105 -0.4514070359 -0.4996353900 0.0502718349 0.5972064856
0.0044022703 1.8062201005 0.1318959139 -0.4999999833 0.0550238900 0.5971251507
0.4355250455 0.0617792871 0.4625925957 -0.5018044785 0.0522937440 0.5957406148
0.0311204474 1.7583732105 0.0459714450 -0.5000061699 0.0502518852 0.5971712177
0.1834740167 0.5909090957 0.4663356890 -0.5004081722 0.0529168373 0.5956782105
-0.4369891005 1.3779670718 0.4550055167 -0.5020789378 0.0528366651 0.5961606651
-0.4090102153 0.6889069522 0.5110088876 -0.5004691411 0.0526284234 0.5987418110
0.4357260383 1.3663433804 -0.4792808278 -0.4997237895 0.0528937512 0.5983158900
0.4120088421 1.7026986340 -0.2486394856 -0.5019575646 0.0515712321 0.5977301675
-0.4315878947 1.7216966292 0.3988817943 -0.5023911053 0.0526115789 0.5970643254
0.4183732895 1.8062199545 0.4184097225 -0.4999999952 0.0550239187 0.5971313014
0.0306951340 1.7583733565 0.2264120287 -0.5000058995 0.0502488038 0.5970794067
-0.3672097847 1.1874333469 -0.5204695574 -0.4977471388 0.0526510837 0.5973182919
0.3937912344 1.7583732105 0.0994589402 -0.5000947249 0.0502468804 0.5970618182
-0.3876342416 1.1119196459 0.5110088876 -0.4987827847 0.0526702392 0.5989026077
-0.3998205383 0.4563486986 -0.5813469402 -0.5009134833 0.0524679976 0.5954324258
0.1583484856 1.7583732105 -0.0319800861 -0.5000760574 0.0502493660 0.5971290574
-0.4156574904 0.6335506220 -0.2663996938 -0.5019316364 0.0536712895 0.5972297799
0.4095188852 0.8280239617 -0.5236595191 -0.5020435407 0.0531607321 0.5972741196
0.4557109641 1.1946235239 -0.5390902440 -0.4979734163 0.0526472488 0.5965755263
-0.4014663517 0.6356119809 -0.1822872632 -0.5006770167 0.0537843971 0.5972934737
0.4723352321 0.6238293493 0.3791666340 -0.4979010311 0.0526634952 0.5967625981
0.4323957536 0.9829212584 0.4547553349 -0.5017068062 0.0530100048 0.5958819545
-0.0847150455 1.8062201005 0.4186888158 -0.4999999952 0.0550239187 0.5971313182
-0.4245300933 1.3468109617 0.5110088876 -0.5007644091 0.0526665909 0.5990815120
-0.1687993325 1.6913875646 0.4822864067 -0.5000482273 0.0510368517 0.5967483373
-0.2094497321 1.8062201005 0.2582842081 -0.4999999880 0.0550239019 0.5971278900
-0.4175213900 0.6364250789 -0.1170787177 -0.5017484713 0.0536131914 0.5969618971
-0.3660287081 2.0975427990 -0.5164045861 -0.4978730120 0.0526711555 0.5975968636
0.0746544641 1.7985403301 -0.5436891268 -0.4999833828 0.0537173900 0.5957175981
-0.2345157967 1.8062201005 0.0221353565 -0.5000003158 0.0550238804 0.5971234043
-0.3692575311 0.3376242033 -0.5658196268 -0.4987302177 0.0517136483 0.5964938493
0.3474722679 1.8636679091 -0.4968982321 -0.5001609330 0.0519443182 0.5950055957
0.2690632656 1.8062201005 0.3813808373 -0.4999999952 0.0550239139 0.5971305072
-0.3943806244 2.1387837297 -0.5000482584 -0.5003173325 0.0527876603 0.5984896459
0.4481138373 0.4019892608 -0.5802071316 -0.4990080431 0.0526486986 0.5952384426
-0.0742737990 1.7583732105 0.0939783708 -0.4999021340 0.0502543780 0.5970936077
0.4549982536 1.5203562512 -0.5390132201 -0.4979406938 0.0526309833 0.5963040909
-0.4092694067 1.7165214904 -0.3806050861 -0.5022280239 0.0522722225 0.5969432225
-0.1450291675 1.7583732105 0.0219908708 -0.4998285885 0.0502578493 0.5970849258
-0.0127545215 1.7583732105 -0.2079263349 -0.4999657153 0.0502576124 0.5972860167
0.4524041124 1.4140692225 0.5141345383 -0.4996926914 0.0526806675 0.5988745694
0.4567851388 0.7037067368 -0.5724535502 -0.4979722584 0.0526697727 0.5958888062
0.4264725670 2.4782186316 -0.5207018684 -0.5000104928 0.0531630885 0.5989649091
-0.4090909091 1.8298409976 -0.5256227201 -0.5020958110 0.0526443469 0.5968132823
0.4455310144 2.4004423206 -0.5428831100 -0.4986528947 0.0529529474 0.5978024856
-0.4193826435 1.7793453565 -0.0001644163 -0.5022657392 0.0521345622 0.5972652297
0.3723713995 1.8062201005 0.3314287823 -0.4999999928 0.0550239091 0.5971294330
-0.1907849833 0.5909091316 0.4786585766 -0.4994564354 0.0533694474 0.5967593708
-0.3920635789 0.5892797990 0.5110088876 -0.5001291699 0.0541998947 0.5986197823
-0.2436346029 1.8062201005 0.3385243565 -0.4999999928 0.0550239115 0.5971296172
0.3570213493 1.8062201005 0.1380435263 -0.4999987536 0.0550238995 0.5971270694
-0.4230182584 2.3647350024 -0.5135068038 -0.5000166483 0.0525150742 0.5995155646
0.4435826364 1.8062201005 0.3553243756 -0.4999989498 0.0550239187 0.5971314617
-0.3943379593 0.5824523684 -0.1120236053 -0.4997889139 0.0521215072 0.5982622847
0.4592996268 0.2628768349 -0.5229088445 -0.4981996005 0.0525268421 0.5983603756
0.2048776435 1.9559292632 -0.4917485000 -0.5000696077 0.0528091483 0.5994118134
-0.3681365024 1.2627893517 -0.5596202512 -0.4980517273 0.0526485550 0.5959988660
0.4411156770 0.6386513636 0.0638615718 -0.5001068756 0.0534039426 0.5971229689
0.2891909952 1.7583732105 -0.0969993182 -0.5001245933 0.0502479713 0.5971099234
-0.3983667368 1.8062201005 0.0572308995 -0.5000046340 0.0550239163 0.5971316483
0.1208787392 2.0234553182 -0.4987054856 -0.4998458325 0.0532180837 0.5993292895
-0.2626404833 0.5504082536 0.4563453349 -0.4993436268 0.0519060359 0.5953320766
-0.3662837919 1.7079683923 -0.3154767775 -0.4985076770 0.0513835407 0.5979368756
0.1984708493 1.7583732105 -0.3392443493 -0.5000981531 0.0502534187 0.5972600215
0.4099886962 1.0427784952 -0.5161647536 -0.5020528206 0.0531447033 0.5973213541
-0.3460202010 1.8062201005 -0.4951892464 -0.5000265598 0.0550119139 0.5970198828
0.1413849450 1.8062201005 0.2661504067 -0.4999999880 0.0550239043 0.5971280335
-0.4037253636 1.6913875646 0.2541922249 -0.4993593971 0.0507258469 0.5971336675
-0.0434183732 1.7583732105 -0.3418061483 -0.4999337392 0.0502608780 0.5973343325
0.4623575885 1.7371833517 -0.0309338732 -0.4976122177 0.0526433158 0.5970046770
0.4738139474 0.7039735096 0.4653018158 -0.4978984928 0.0533247512 0.5969801746
0.1079048995 1.8062201005 -0.1956794402 -0.4999999689 0.0550238565 0.5971181172
0.1919279689 1.8062201005 0.0890019976 -0.4999999809 0.0550238852 0.5971242297
-0.3155094306 1.8062201005 0.0502625598 -0.5000023158 0.0550238995 0.5971274761
0.2601359234 1.7583732105 -0.2862607967 -0.5001320072 0.0502506411 0.5971932656
0.2270664043 1.8062201005 -0.2130279545 -0.4999981531 0.0550238660 0.5971203804
-0.3854107464 1.8505706100 -0.5556336914 -0.4998451818 0.0525964665 0.5958822656
-0.2113990048 1.7123674498 -0.5154089689 -0.4989635837 0.0513154091 0.5982849665
-0.1033732225 1.7583732105 -0.0324726005 -0.4998717895 0.0502574665 0.5971391555
-0.4297338230 1.5651886172 0.4499391340 -0.5016577440 0.0528010215 0.5958876770
0.0021909498 2.0726353445 -0.5085378397 -0.5001893254 0.0526566579 0.5994877608
0.4271808971 1.1315479234 0.4981863038 -0.5020478373 0.0526624306 0.5977764785
0.0537938756 1.8062201005 0.4437746651 -0.4999999976 0.0550239211 0.5971318469
0.3835300287 1.7583732105 0.2235556411 -0.5000704952 0.0502462225 0.5970305263
0.1059830215 1.8062199545 0.4567344330 -0.4999999976 0.0550239234 0.5971321244
0.2837108254 1.8062201005 -0.3573942775 -0.4999947703 0.0550238756 0.5971221818
0.0278523995 1.7583730646 -0.1788413301 -0.5000044211 0.0502558373 0.5972880526
-0.3607184306 1.8062201005 0.1887986388 -0.5000018971 0.0550239091 0.5971297225
-0.3660287081 2.2196925455 -0.5148362153 -0.4978326699 0.0527427129 0.5978468110
0.4114832536 1.8528582608 -0.4845379545 -0.4997883780 0.0528470837 0.5966738589
-0.0551857105 1.7583732105 -0.1318581316 -0.4999217297 0.0502576483 0.5972203373
0.0530668923 2.3115713349 -0.5298702847 -0.5000012679 0.0508894115 0.5976774976
0.0715982536 1.7583732105 0.0700935096 -0.5000283947 0.0502502440 0.5971328373
0.1864571459 0.5725160120 -0.5781928254 -0.4999614689 0.0540457703 0.5955194187
0.0828137201 1.7583732105 0.3324608684 -0.5000287368 0.0502457656 0.5969996124
-0.2125666866 1.8062201005 0.0011981794 -0.4999999785 0.0550238756 0.5971223708
-0.1150528038 2.4439368780 -0.5183227392 -0.5000076938 0.0530329091 0.5994695167
0.4105316603 1.2914675526 -0.5271713780 -0.5020491435 0.0529666651 0.5967773756
0.0298046507 1.7125549354 0.4631619976 -0.4999966627 0.0507043636 0.5959493397
0.4560951340 1.0190869976 -0.5390410359 -0.4979911890 0.0526560191 0.5967247895
-0.4206119976 0.5867965239 -0.0502541292 -0.5018661029 0.0514364737 0.5970387943
-0.3387576938 1.8062201005 -0.3932858708 -0.5000085335 0.0550238995 0.5971287488
0.3503683708 1.8062201005 0.2331320287 -0.4999999880 0.0550238995 0.5971273230
0.2676528134 1.8062202464 -0.4976564258 -0.4999935072 0.0550238684 0.5971209928
0.0870578158 1.8062201005 -0.2078942847 -0.4999999689 0.0550238541 0.5971178541
0.1122922033 0.5779047368 -0.5471424306 -0.4996757464 0.0538189689 0.5970506005
-0.3211214904 2.3975825742 -0.5423506603 -0.4999953062 0.0526466722 0.5947495215
0.4749078349 1.2113126962 0.4803289928 -0.4978761770 0.0530771172 0.5971211196
-0.3758795335 1.0978841866 -0.4904655191 -0.4986882895 0.0528458254 0.5981743469
-0.4163488182 2.4763468373 -0.5457773158 -0.4999897010 0.0528813995 0.5952817440
0.3926902656 1.7583732105 -0.1175683134 -0.5001357608 0.0502480407 0.5971163158
-0.1783549115 1.8062201005 0.1662064330 -0.4999999856 0.0550238923 0.5971259091
0.5000000000 2.3752514474 -0.5369148062 -0.4976076555 0.0526315837 0.5971332895
0.0705589761 2.0224838660 -0.5028945718 -0.5002824904 0.0524650239 0.5994522703
-0.1036470048 1.8062201005 0.0050126220 -0.4999999785 0.0550238780 0.5971224402
