0.4904636152 0.6852546673 0.2231359861 0.0759645980 0.4374623313 -0.7616666869
0.3584433281 0.6709007751 -0.1546244680 0.0759703406 0.4373446572 -0.7617146803
0.3591618045 0.0893806948 -0.1280673438 0.0728163727 0.4372871118 -0.7616934586
0.3954248314 0.8469062963 -0.2283926745 0.0744444502 0.4389006570 -0.7618628788
-0.0134073496 0.7423022807 -0.0168756852 0.0743923775 0.4357567255 -0.7617134021
0.4767005063 0.6721039893 -0.2319558702 0.0759365292 0.4373785239 -0.7620308723
-0.3895380378 0.7829286568 0.1116231584 0.0745620422 0.4388992225 -0.7616907665
-0.2865029289 0.8818546950 0.1866232098 0.0744009416 0.4389061360 -0.7618531311
-0.3690727661 0.1737178035 0.1354450266 0.0759704006 0.4373446304 -0.7616904256
-0.1083284578 0.7579804336 0.2551058795 0.0743882777 0.4357665915 -0.7615368902
-0.1776860350 0.2928031504 0.0445328929 0.0743196480 0.4372693035 -0.7601421347
-0.1546887359 0.3979849285 0.0444805930 0.0743335933 0.4373347376 -0.7601400138
0.3479282187 0.5805925352 -0.1011207633 0.0728158440 0.4373120499 -0.7617241076
-0.1579908643 0.8551229479 0.6858691916 0.0743789924 0.4358260558 -0.7612531888
0.4611679607 0.7434772509 -0.1007341458 0.0744613859 0.4357594445 -0.7617562448
0.4424211734 0.1031425508 -0.6563489497 0.0751931447 0.4384802344 -0.7618023508
0.3856584417 0.0241693325 -0.0771548517 0.0741445295 0.4358047284 -0.7617248904
0.3915143401 0.7829286568 0.2017049930 0.0743765748 0.4389092132 -0.7616952324
0.4843483096 0.6408050398 -0.1286572370 0.0759669241 0.4373614493 -0.7618278806
-0.3712786631 0.6498409614 0.2641206614 0.0759675364 0.4373613325 -0.7616194131
-0.2114785344 0.7434772509 -0.0920329252 0.0743929235 0.4357577386 -0.7617740847
-0.4869191526 0.3276296711 0.3310319216 0.0736123269 0.4373461090 -0.7603538546
-0.3403231317 0.5308445759 -0.2425359451 0.0743161384 0.4373515691 -0.7632922000
0.4152494516 0.9268810185 0.6931385187 0.0744920001 0.4388989322 -0.7618876148
0.4465795599 0.8995389597 0.5094564909 0.0746538772 0.4388734750 -0.7618844887
0.1829397614 0.8696547138 0.7343588798 0.0744173423 0.4358306764 -0.7612385255
-0.2447459371 0.7566412193 0.2352870381 0.0743841242 0.4357652975 -0.7615509696
0.0825809823 0.6906365666 0.0373190945 0.0744290389 0.4375143125 -0.7601500250
0.4506141068 0.7537879516 -0.6891037366 0.0755166557 0.4380499190 -0.7618259917
-0.4108085204 0.7159509856 -0.6730686322 0.0756132186 0.4367267299 -0.7618419585
0.3636878560 0.3894449238 0.3212554656 0.0730562877 0.4373020876 -0.7612585384
0.4055529635 0.7921627759 0.4431133073 0.0744224300 0.4357977739 -0.7613622246
0.3584433281 0.6987315690 -0.0356077351 0.0759687357 0.4373431723 -0.7616380026
0.4813122083 0.7962186077 0.1459370207 0.0759580128 0.4371862283 -0.7617284220
-0.1269411830 0.8413167374 -0.1983771470 0.0743931207 0.4389115708 -0.7617561027
0.3487616722 0.5357789873 -0.1147437788 0.0728158472 0.4373099100 -0.7617231577
0.0047909543 0.0056012143 -0.1985147346 0.0743946546 0.4357660503 -0.7618691026
0.4816755637 0.4747160477 -0.1964669415 0.0759485855 0.4372936813 -0.7619431245
-0.1821412460 0.7636983846 0.2956512539 0.0743851216 0.4357710432 -0.7615059287
-0.0061482152 0.1446570900 0.0360510332 0.0743882461 0.4370638705 -0.7601632538
0.0792921458 0.8545684505 -0.1334203489 0.0743818550 0.4389066725 -0.7618499371
0.1659387020 0.8524102787 -0.1640800437 0.0743737106 0.4389063695 -0.7618527129
-0.3982019373 0.1304557391 0.3327004194 0.0748997841 0.4372909307 -0.7602369127
0.1108816566 0.4584589660 0.0451870303 0.0744429620 0.4373590996 -0.7601397739
0.4829114058 0.7566679957 -0.1278332944 0.0759669367 0.4373619227 -0.7618274609
0.2678525072 0.1498807165 -0.2425359451 0.0744368029 0.4373104339 -0.7632932305
-0.3576323398 0.9202831669 0.6478716900 0.0742444347 0.4388912975 -0.7618485279
-0.1857326148 0.7454139425 0.0844435857 0.0743884702 0.4357581158 -0.7616508858
0.3516308325 0.0294358932 -0.0462541719 0.0749687309 0.4362057961 -0.7616092394
-0.3011370555 0.9233220124 0.6544917432 0.0743461641 0.4389049603 -0.7618538917
0.2999201153 0.8839286870 0.1855345388 0.0744042681 0.4389052807 -0.7618564166
-0.4979883728 0.1453533884 0.2882261821 0.0728169629 0.4373223404 -0.7616934902
0.4935279858 0.4470622470 0.0344619495 0.0759707067 0.4373454620 -0.7617484286
-0.0949852791 0.8518553489 0.6767964287 0.0743832247 0.4358251327 -0.7612560735
0.4747298139 0.7722942100 -0.0967051616 0.0759315141 0.4369875305 -0.7617335286
-0.2304612727 0.0177556859 -0.2319322720 0.0742946768 0.4358557091 -0.7622511595
0.2658505724 0.8413167374 -0.1772592797 0.0744333059 0.4389110769 -0.7617443967
-0.3797171326 0.9062194524 0.5181920485 0.0741787733 0.4388791307 -0.7618385877
0.3515575839 0.5212839301 0.0282195062 0.0728158740 0.4373097948 -0.7616989298
-0.3691277630 0.5231181901 0.1386518026 0.0759692486 0.4373587808 -0.7616575121
-0.4837962203 0.7660983841 -0.0756764355 0.0728154290 0.4373502578 -0.7617410654
-0.4869860448 0.8089005351 0.3155104509 0.0728433085 0.4370791714 -0.7616977399
-0.1906008078 0.1938737051 -0.2425359451 0.0743922733 0.4373245039 -0.7632943967
-0.3919342104 0.0396000240 -0.2428743072 0.0747069851 0.4370726335 -0.7629711145
-0.1980445638 0.0068934010 -0.1056967792 0.0742906417 0.4357630377 -0.7616644066
-0.1022481519 0.8234090642 0.5792331794 0.0743828618 0.4358138338 -0.7612953766
0.3531535069 0.3507734564 -0.1155058852 0.0728158740 0.4373012970 -0.7617102286
0.4793078055 0.8203915997 -0.1069167287 0.0759503229 0.4375625032 -0.7617735403
0.3951973545 0.0601774323 -0.4313634872 0.0731499091 0.4368145155 -0.7617291590
0.4982731346 0.1344455718 0.0623606234 0.0759704937 0.4373565700 -0.7617427997
-0.4666886042 0.7662798937 -0.3143453530 0.0734961299 0.4384720490 -0.7616410056
-0.1257962637 0.8540718898 0.6832701772 0.0743812174 0.4358258002 -0.7612539589
-0.4309169856 0.7434772509 -0.0187075844 0.0742701428 0.4357646915 -0.7617124427
-0.0015461329 0.7525369396 -0.2159481436 0.0743927325 0.4357815483 -0.7619825222
-0.2494356551 0.2179051124 0.0348199110 0.0742534359 0.4371632581 -0.7601590609
-0.1129925924 0.5700513247 0.0435683281 0.0743492981 0.4373898922 -0.7601403136
-0.1799318079 0.8612898780 -0.0534632520 0.0743994803 0.4389067609 -0.7618494384
-0.4936310929 0.0490365273 0.2239059434 0.0728168556 0.4373188923 -0.7617881294
-0.2489184819 0.8986876630 0.3929910473 0.0744089897 0.4389065321 -0.7618501233
0.3531011833 0.6633501074 0.3155753690 0.0728164216 0.4373153164 -0.7616618991
0.4069040732 0.9315697265 0.7227674303 0.0744824261 0.4389005007 -0.7618798902
-0.3658844834 0.7989552854 -0.0322506098 0.0728158440 0.4373539520 -0.7616825653
-0.2240662629 0.9218413333 0.6667071357 0.0744013818 0.4389065384 -0.7618480324
0.4944254185 0.2197830987 0.2611922419 0.0759629963 0.4373501331 -0.7615929301
-0.4826878063 0.6668115201 -0.1399631562 0.0728153233 0.4373489117 -0.7617334545
0.4875360621 0.2660172128 -0.1500892417 0.0759639968 0.4373378574 -0.7618494053
0.4375032322 0.7640271379 0.2815231042 0.0745367522 0.4357810970 -0.7615020388
-0.3678907642 0.1218530981 0.0664913671 0.0759702554 0.4373349364 -0.7617088652
-0.4720117035 0.1027987002 -0.4184014469 0.0732570701 0.4382439757 -0.7616828888
0.4016614958 0.1058532459 -0.5750288494 0.0732888285 0.4381953921 -0.7617222629
0.0881968015 0.8814636953 0.1961785202 0.0743806746 0.4389069534 -0.7618464465
-0.3666061380 0.0466081623 -0.2373600674 0.0756047176 0.4373091699 -0.7621487058
0.4950596646 0.4955424906 0.1031372541 0.0759695736 0.4373925118 -0.7617323909
0.3560491548 0.3215652215 0.0128394293 0.0728161360 0.4372994349 -0.7616871480
0.3349069192 0.0278789782 -0.0187982185 0.0745705763 0.4358705507 -0.7612257149
0.1349756922 0.7525924904 -0.2165589854 0.0743937630 0.4357865366 -0.7620072393
0.4170789427 0.7674929565 -0.2779533106 0.0739191310 0.4385189047 -0.7616054962
-0.2555136366 0.7462851053 0.1163029078 0.0743893018 0.4357585419 -0.7616355992
-0.3429876434 0.8199709357 -0.2425359451 0.0743153525 0.4373682413 -0.7632920517
0.3605416884 0.1719076721 0.0670475972 0.0728172532 0.4372880524 -0.7616669268
0.4815912387 0.5594855044 -0.1814372183 0.0759535832 0.4373111725 -0.7619130499
0.4984616745 0.0752564950 0.0399472935 0.0759707051 0.4373520788 -0.7617524890
0.4476207219 0.6375190075 0.3372764353 0.0747321251 0.4373407342 -0.7601816918
0.3456833121 0.6854493237 -0.0864404281 0.0728158298 0.4373169876 -0.7617291227
-0.0705247573 0.7695812520 0.3413828107 0.0743876038 0.4357762303 -0.7614703073
0.4670218613 0.7101088352 -0.3031762040 0.0755043311 0.4368186848 -0.7616763872
-0.0999917714 0.2609771189 0.0444955230 0.0743508840 0.4372289636 -0.7601453365
0.4162393962 0.0293016275 -0.2108802854 0.0744350891 0.4357811254 -0.7619186646
-0.4852765160 0.6617193646 0.0101813229 0.0728160192 0.4373425426 -0.7617647095
0.4713231581 0.9237078582 0.6664196296 0.0744466579 0.4388901219 -0.7619714885
0.3964576376 0.7555296270 -0.4539126483 0.0732630999 0.4382975917 -0.7616960640
-0.4583984641 0.1880353358 -0.2456920576 0.0741959173 0.4373091399 -0.7632754521
-0.0446503397 0.1102414447 -0.2425359451 0.0743928619 0.4373187266 -0.7632943730
0.3582395458 0.7323324702 0.3236693598 0.0732152832 0.4373287978 -0.7610261854
-0.4027206445 0.6911385463 -0.2891816936 0.0754245288 0.4362013208 -0.7616906213
-0.4995547262 0.1688075680 0.3109381907 0.0728173164 0.4373351352 -0.7616575831
0.2768844331 0.7983712437 -0.2425359451 0.0744385940 0.4373460712 -0.7632934025
-0.4765618582 0.4530751763 -0.2407444994 0.0735528042 0.4373246191 -0.7626498822
0.4831817678 0.5828212729 -0.1534967906 0.0759628922 0.4373314615 -0.7618556008
-0.0344097568 0.8596782565 -0.0710672867 0.0743950744 0.4389068130 -0.7618490345
0.4854361127 0.5555676689 -0.1289075641 0.0759669162 0.4373613168 -0.7618280542
-0.4854648160 0.3595527182 0.0211013979 0.0728158867 0.4373333331 -0.7617615975
-0.2469606475 0.7821659238 0.0164051783 0.0740326643 0.4376144480 -0.7602721160
-0.3671567818 0.5153971254 0.0236797524 0.0759702333 0.4373587682 -0.7616822245
-0.0282741890 0.8848967187 0.2374881693 0.0743963194 0.4389069929 -0.7618468331
-0.3396531506 0.8146260214 0.5385515177 0.0743618389 0.4358102532 -0.7613095207
-0.4376330683 0.0443219123 -0.4696041657 0.0744178489 0.4361050309 -0.7617404500
-0.3643025752 0.7514598515 -0.1428163529 0.0759703232 0.4373640579 -0.7616947463
-0.2186039144 0.9241834228 0.6955087813 0.0744026648 0.4389065984 -0.7618475953
-0.4791314972 0.9241985927 0.6669020808 0.0744106577 0.4388903822 -0.7619769454
0.1357669658 0.7500609457 0.1680782559 0.0743941717 0.4357611646 -0.7615991745
-0.2266820852 0.1551801702 0.0303696362 0.0742805659 0.4370416199 -0.7601721099
-0.1115372316 0.7308881006 0.0311398350 0.0743517567 0.4375710010 -0.7601614375
0.4920442232 0.5301108208 -0.0376961741 0.0759683933 0.4373527337 -0.7617786547
0.3248732731 0.7803714182 -0.2425359451 0.0744560552 0.4373421465 -0.7632930380
0.3250039030 0.2190180776 -0.2425359451 0.0744578194 0.4373089584 -0.7632926734
0.4762680668 0.8899382833 0.4563008266 0.0747580652 0.4387487943 -0.7619182701
0.2977765090 0.7481603237 -0.1678053405 0.0743932059 0.4357708255 -0.7618909382
-0.4467522560 0.4579577359 0.3381887491 0.0743664153 0.4373409977 -0.7601402568
0.1267252765 0.8413167374 -0.2235263104 0.0743929803 0.4389119906 -0.7617499325
0.0812128848 0.1439988844 0.0339640869 0.0744335142 0.4370589217 -0.7601652248
0.0657455098 0.0125058369 -0.2328114529 0.0744109748 0.4360129671 -0.7623393728
0.2642208064 0.7642407688 0.3000556325 0.0744006765 0.4357727870 -0.7614944437
0.2364323913 0.7537772366 0.2094882662 0.0743961743 0.4357640382 -0.7615663083
0.0640494986 0.3506233706 0.0473250725 0.0744243347 0.4373173032 -0.7601395719
-0.1718308105 0.7994209525 -0.2409579378 0.0743932059 0.4373312800 -0.7632933915
0.2427715962 0.0176425614 -0.0425904225 0.0745281408 0.4357819681 -0.7615084094
0.3605845247 0.7457370385 0.0949278741 0.0743970659 0.4357585939 -0.7616390536
0.2875866385 0.7460574849 0.1074259564 0.0743934332 0.4357585355 -0.7616368538
-0.4191357433 0.6927788473 -0.3493264996 0.0749354734 0.4361714939 -0.7617010491
-0.2440991203 0.8801529665 0.1720789708 0.0744089376 0.4389065668 -0.7618508303
0.2691992945 0.8469404896 -0.2280161708 0.0743764407 0.4389057683 -0.7618594765
0.1897965025 0.4532508755 0.0420310141 0.0745092278 0.4373558362 -0.7601458699
0.3558268793 0.4461830835 0.1729549735 0.0728165715 0.4373040460 -0.7616696126
-0.0546014535 0.9003462412 0.4265177120 0.0743976955 0.4389070986 -0.7618455328
-0.2650058610 0.1047766643 -0.2425359451 0.0743539897 0.4373238616 -0.7632933852
-0.4648436056 0.7456888320 -0.6334436939 0.0732528299 0.4382022598 -0.7617663049
0.0481288365 0.2403506599 0.0443012027 0.0744171214 0.4372032965 -0.7601479277
-0.0993015659 0.7723831587 0.3613978486 0.0743862783 0.4357784333 -0.7614550033
-0.3223675408 0.8533899170 0.6711256742 0.0743592067 0.4358256377 -0.7612553413
0.4298232112 0.0308024852 0.3152662877 0.0744804377 0.4358278706 -0.7615196847
-0.3690372252 0.7024165828 0.1333725764 0.0759683238 0.4373626360 -0.7616417426
-0.2700541434 0.8840476866 0.2178732301 0.0744100280 0.4389064200 -0.7618518592
-0.2318518953 0.8413167374 -0.1517496977 0.0743854103 0.4389115961 -0.7617282832
0.4382893709 0.8701936058 0.7110879442 0.0744468346 0.4358369302 -0.7612219370
0.4489288737 0.0424596718 -0.4013221474 0.0750298380 0.4362527654 -0.7616480753
0.4830687885 0.8903637146 0.5440517901 0.0759032069 0.4377525500 -0.7618170820
-0.1699717734 0.9153273239 0.5971874211 0.0744089407 0.4389069550 -0.7618462460
-0.3113269749 0.7490412373 -0.2425359451 0.0743313777 0.4373611716 -0.7632925630
0.4048991401 0.7829286568 0.2302140276 0.0744056742 0.4389083942 -0.7616935044
0.3917530133 0.7636765916 0.2847341172 0.0744365835 0.4357738017 -0.7614989743
0.0358345554 0.8607480966 -0.0576892535 0.0743882682 0.4389068177 -0.7618486226
-0.4819972615 0.8332426837 0.5640877294 0.0729889158 0.4366467745 -0.7615729835
-0.3677849602 0.2792361559 0.0603213061 0.0759704905 0.4373473810 -0.7616962060
0.4899497638 0.1134119806 -0.1437835183 0.0759660704 0.4373495918 -0.7618375478
0.1714354537 0.1155147231 0.0237308010 0.0745443443 0.4370242424 -0.7601975955
-0.0603212808 0.9190203558 0.6513428551 0.0744011672 0.4389071633 -0.7618444486
-0.0592292154 0.9230953310 0.7004390519 0.0744018537 0.4389071791 -0.7618442025
-0.3664050763 0.4340259434 -0.0201712174 0.0759706515 0.4373537563 -0.7616987136
0.0100595664 0.7640302672 0.3025076683 0.0743913501 0.4357720074 -0.7614996938
-0.2242154334 0.7434772509 -0.1141131433 0.0743931475 0.4357582783 -0.7617943690
0.4940236328 0.5056943457 0.1755670874 0.0759672176 0.4374036008 -0.7616850160
-0.1352083276 0.8413167374 -0.1226763913 0.0743926820 0.4389116402 -0.7617246836
-0.3669979062 0.1671806551 0.0144083833 0.0759702743 0.4373345577 -0.7617153289
-0.4002915804 0.3276980561 -0.2456920576 0.0744677991 0.4373354493 -0.7632886762
-0.3623372276 0.8040149330 0.4995220762 0.0743634028 0.4358051150 -0.7613283406
0.4098311687 0.8961831836 0.3136535584 0.0745253413 0.4388970606 -0.7618534388
0.2155287798 0.2083204470 0.0357011150 0.0746904486 0.4371739226 -0.7602138905
0.4954012522 0.4556535765 0.0978550422 0.0759696746 0.4373889864 -0.7617340731
-0.0479678432 0.0942625175 0.0225009791 0.0743651228 0.4369784140 -0.7601827349
0.3549139154 0.7077862742 -0.0008887636 0.0755001635 0.4373540861 -0.7610783686
-0.4236777111 0.7546775824 -0.6624146223 0.0750233127 0.4381900740 -0.7617967156
-0.4550349319 0.0430276774 -0.4221485840 0.0738568767 0.4362204058 -0.7616810898
-0.4041185404 0.0259716148 -0.1723384001 0.0747308437 0.4358484816 -0.7618814919
0.4654469343 0.8578953812 0.0880506546 0.0750995897 0.4387217306 -0.7618006923
0.4826605485 0.1679011530 -0.2349395753 0.0759015405 0.4372192822 -0.7620484818
0.4963356240 0.3672057292 0.0964091324 0.0759698972 0.4373752841 -0.7617307718
0.3576348205 0.3035395128 0.0803017672 0.0728166757 0.4372966196 -0.7616745093
0.3535579185 0.1524960828 -0.2379529936 0.0751923305 0.4373126337 -0.7625915936
-0.1835479064 0.8413167374 -0.1367693850 0.0743922891 0.4389115329 -0.7617273111
0.3475033649 0.5257985691 -0.2020061745 0.0728158346 0.4373091052 -0.7617366169
0.3556646330 0.3516596802 0.0322077971 0.0728161123 0.4373010066 -0.7616861459
-0.4546067074 0.8609029733 0.1305999979 0.0739429218 0.4388344922 -0.7618071686
0.3528580790 0.3862245086 -0.0080943278 0.0755174069 0.4371728637 -0.7608962925
0.0043077250 0.8413167374 -0.1610972049 0.0743931823 0.4389118012 -0.7617382959
-0.4588561620 0.9304634791 0.7051449986 0.0744047052 0.4388944331 -0.7619452785
-0.4908519165 0.4887194489 0.1419207019 0.0728165905 0.4373324052 -0.7617827735
0.3531438271 0.3344115129 -0.1387947366 0.0728158725 0.4373004448 -0.7617128545
-0.4099249573 0.0592796872 -0.6406726637 0.0755827463 0.4365842551 -0.7618293640
0.3959142182 0.0442309642 -0.4576498406 0.0732821123 0.4362333111 -0.7617977918
-0.2993971143 0.2180038119 0.0312693807 0.0741984217 0.4371853730 -0.7601617767
0.4952787856 0.4299079946 0.1627878570 0.0759681045 0.4373831618 -0.7616895656
0.3659409968 0.7505269741 0.1702485645 0.0744029615 0.4357622108 -0.7615864506
-0.4863765506 0.8294676876 0.2652268599 0.0728314826 0.4374759231 -0.7617396941
0.2478734789 0.7910798127 -0.2425359451 0.0744280589 0.4373475135 -0.7632936250
-0.2952461921 0.0812960460 -0.2425359451 0.0743384221 0.4373241993 -0.7632929733
0.4698915029 0.7438473730 -0.0430505758 0.0746700570 0.4357893708 -0.7617295567
0.3496520983 0.5271114882 -0.0748402125 0.0728158551 0.4373096638 -0.7617160690
0.0304336895 0.7554958187 0.2286383779 0.0743914432 0.4357647910 -0.7615565733
-0.2293078288 0.9008681343 0.4210591429 0.0744114183 0.4389067057 -0.7618489587
0.3439203282 0.7162813296 -0.1464592500 0.0728158156 0.4373181885 -0.7617410402
-0.4408958511 0.6920572164 -0.3228660771 0.0742491578 0.4362793430 -0.7616465620
-0.3658844834 0.5312882717 -0.2318583006 0.0728198081 0.4373389115 -0.7618226336
-0.3505221770 0.8548595687 -0.1375435321 0.0743667135 0.4389041966 -0.7618526230
0.0873635121 0.7661320235 0.0259853384 0.0744336752 0.4376751858 -0.7601837354
0.4432339449 0.7829286568 0.2169068821 0.0744878751 0.4389064311 -0.7616963922
-0.4914781208 0.6249274143 0.3274353516 0.0734046515 0.4373874873 -0.7606575168
0.3518332908 0.6676371244 0.2475715857 0.0728159482 0.4373172180 -0.7616736067
-0.1096399930 0.8881777075 0.2760945860 0.0743991394 0.4389069755 -0.7618469025
0.2761963691 0.1706996400 0.0289895108 0.0749010023 0.4371325886 -0.7602765109
-0.4836487604 0.4339947879 -0.0842311115 0.0728153848 0.4373411319 -0.7617402038
0.0468520627 0.3267568718 0.0479282087 0.0744157264 0.4373057282 -0.7601394962
-0.0957065250 0.5399481125 -0.2425358962 0.0743927073 0.4373410009 -0.7632943809
-0.0484132969 0.1905875166 0.0410733833 0.0743716465 0.4371292336 -0.7601542652
0.3674234828 0.4592880831 0.3260541673 0.0733737548 0.4373141502 -0.7607568854
0.0193460392 0.6544310172 0.0406649508 0.0744004950 0.4374700890 -0.7601455606
-0.0824707519 0.4652499732 0.0456078380 0.0743604692 0.4373609728 -0.7601393494
0.1346227220 0.9110607743 0.5554019675 0.0743741525 0.4389071743 -0.7618431578
0.4676071308 0.4607304344 -0.2430137253 0.0749246937 0.4373193641 -0.7629711350
-0.4936590245 0.1201892003 0.2247292611 0.0728169297 0.4373204719 -0.7617897185
-0.1274233943 0.7076471196 0.0346860792 0.0743445434 0.4375203264 -0.7601511596
-0.3981741967 0.0238836081 -0.1137734336 0.0746105485 0.4358098318 -0.7617841117
0.1493064264 0.8223685523 -0.2409578889 0.0743932059 0.4373665070 -0.7632932273
-0.4252717562 0.1076537228 -0.5210136761 0.0745522866 0.4384659167 -0.7616980981
-0.4920191321 0.2379422558 0.1763529373 0.0728167435 0.4373246775 -0.7617858617
-0.4853827539 0.1311035674 0.0163433911 0.0728157288 0.4373273349 -0.7617568634
0.2949943722 0.8413167374 -0.0226950564 0.0744451382 0.4389111305 -0.7617024551
0.4627262707 0.8765628996 0.3191913949 0.0748892805 0.4388056075 -0.7618498393
-0.3929340274 0.7618525433 -0.2456920576 0.0746058064 0.4373668510 -0.7632742386
-0.2696780026 0.8285739870 0.5902549159 0.0743672643 0.4358163745 -0.7612871612
0.4095474910 0.7017557275 -0.6784790848 0.0739123059 0.4359436652 -0.7618299621
-0.2777487803 0.7434772509 -0.0610905880 0.0743931570 0.4357574925 -0.7617554179
0.3671853872 0.8595509247 -0.0893015703 0.0744044259 0.4389049351 -0.7618654573
0.3896318500 0.2114977733 0.3341430532 0.0738564790 0.4372758871 -0.7602516928
-0.4826769224 0.8047259672 -0.2344295286 0.0728177740 0.4373076045 -0.7617356180
-0.1264678087 0.9119041728 0.5598944774 0.0744049309 0.4389070213 -0.7618458089
-0.1867025986 0.6846594529 0.0348697555 0.0743228799 0.4374943280 -0.7601487215
-0.4727308537 0.7357209941 -0.3968263631 0.0732037745 0.4377626149 -0.7616519857
-0.4253041189 0.7829286568 0.2300934388 0.0744850662 0.4389015233 -0.7616892673
-0.4574961189 0.7829286804 -0.1941442116 0.0741671715 0.4388887411 -0.7617659119
-0.3658844834 0.1697791156 -0.0560641459 0.0728182474 0.4373230221 -0.7616396690
-0.3637746128 0.0238836081 0.1647138100 0.0745417484 0.4357649756 -0.7616853932
0.4988648568 0.1447964356 0.1031935986 0.0759704526 0.4373348496 -0.7617153289
0.0581247149 0.0062797186 -0.1792335827 0.0744254851 0.4357624712 -0.7618444691
0.4745407438 0.8546946745 0.1568521342 0.0758821888 0.4378539291 -0.7617652239
-0.1398798901 0.7683948930 0.3289535947 0.0743846860 0.4357745954 -0.7614813600
0.4258060024 0.9159314717 0.6203683965 0.0745549898 0.4388899862 -0.7618838101
0.0526595543 0.1560251578 -0.2425359451 0.0743932754 0.4373207844 -0.7632943667
-0.4275228265 0.7829286804 -0.1699158850 0.0743029143 0.4388989874 -0.7617469926
-0.3306961128 0.7170142768 0.0221649763 0.0737435407 0.4374869316 -0.7603104281
-0.4997912326 0.6560427602 0.3143671696 0.0728202389 0.4374294115 -0.7616579208
-0.3658844834 0.7431269224 -0.2153975487 0.0728210437 0.4373501741 -0.7618371312
-0.1993135640 0.4837391539 -0.2425359451 0.0743882461 0.4373384492 -0.7632942704
0.0702889420 0.8797255610 0.1748776504 0.0743832973 0.4389069660 -0.7618464780
-0.1205918406 0.8566848701 -0.1076920798 0.0743966682 0.4389067767 -0.7618494353
0.4012702562 0.7474408358 -0.6127294539 0.0732556436 0.4382285739 -0.7617558723
-0.0563593939 0.8637687866 -0.0210182280 0.0743957450 0.4389068382 -0.7618487157
0.3665910644 0.7703448529 0.3347132491 0.0744155891 0.4357788009 -0.7614568054
-0.4851591054 0.5881021245 0.0033687327 0.0728158851 0.4373410025 -0.7617602120
0.3593697528 0.6574832510 -0.2456920576 0.0742933450 0.4373373808 -0.7632896436
0.2068309063 0.2961785763 0.0424040966 0.0746159722 0.4372905820 -0.7601744817
0.4778350956 0.8347069416 0.0982660264 0.0759161202 0.4377347843 -0.7617497905
-0.4241253914 0.1677859580 0.3381886528 0.0745124849 0.4373035583 -0.7601449105
0.4099626160 0.0387017723 -0.2635321648 0.0738857630 0.4362657954 -0.7616476508
0.3512726059 0.3710010664 -0.1971307572 0.0728158567 0.4373019187 -0.7617249046
0.1292355000 0.8710521757 0.0666196615 0.0743746859 0.4389067530 -0.7618483764
-0.0984662439 0.8431511899 0.6480424594 0.0743821059 0.4358220886 -0.7612660279
0.1370713982 0.8413167374 -0.0572322294 0.0743938671 0.4389120884 -0.7617030153
0.4427976534 0.8560464816 -0.1278506799 0.0746116468 0.4388866896 -0.7618451004
-0.4046264189 0.9098438105 0.5894649236 0.0742843595 0.4388976429 -0.7618871871
0.4517057383 0.8699766531 0.1322264057 0.0748747798 0.4387977772 -0.7618209608
0.4867734728 0.0469731304 -0.2033883230 0.0759463620 0.4372390206 -0.7619510053
0.0463682386 0.7448828035 -0.1317524287 0.0743923885 0.4357624460 -0.7618237666
0.4375487417 0.7459080493 -0.1423596177 0.0744981640 0.4357701911 -0.7618115383
-0.0414449130 0.8119312189 0.5397923686 0.0743887669 0.4358088361 -0.7613136757
-0.1808234870 0.7434772509 -0.0990487928 0.0743923364 0.4357578333 -0.7617788694
-0.3670841107 0.2137272701 0.0194400755 0.0759703516 0.4373387790 -0.7617102081
0.4853756747 0.3379138367 -0.1681524198 0.0759580302 0.4373043268 -0.7618837059
0.4326205431 0.0455228873 -0.5136393657 0.0744731802 0.4360686378 -0.7617336928
-0.4755868420 0.6999238520 -0.3111460428 0.0730982483 0.4368101869 -0.7615737773
-0.4935977675 0.3050676756 0.2229239932 0.0728171223 0.4373245828 -0.7617938009
-0.0216101427 0.3484163959 0.0485686202 0.0743826898 0.4373133486 -0.7601389233
-0.3242829223 0.7434772509 -0.1068592764 0.0743929629 0.4357588953 -0.7618024487
0.3535963489 0.2479612843 -0.2324694802 0.0728158693 0.4372960547 -0.7617219599
0.3334706892 0.8178933805 0.5503454255 0.0744228765 0.4358137943 -0.7612958421
0.2984910134 0.8741650889 0.0725802324 0.0744056884 0.4389051828 -0.7618580578
0.4814297151 0.4428397741 -0.2062119500 0.0759453300 0.4372896651 -0.7619635966
-0.3439793207 0.7542099885 -0.2343517052 0.0743430585 0.4358348614 -0.7621725849
0.3657694810 0.1061724409 0.2807039289 0.0728190049 0.4372785477 -0.7616262524
-0.2627344195 0.3566223135 -0.2425359451 0.0743554935 0.4373355171 -0.7632934072
0.4838582490 0.4812029855 0.3231311417 0.0755753689 0.4373590428 -0.7609561166
0.4149040356 0.8502694418 -0.1913979266 0.0745129441 0.4388949081 -0.7618556023
0.3584433281 0.3847362549 -0.0521416394 0.0759700171 0.4373306851 -0.7616741622
-0.3382406640 0.0959359515 0.0064408562 0.0742054788 0.4369796102 -0.7601957760
-0.3675056411 0.1686556280 0.0440300232 0.0759703059 0.4373370131 -0.7617092455
-0.3764351339 0.8733214490 0.0725863978 0.0743079404 0.4389019131 -0.7618481697
-0.1085303496 0.1931260457 -0.2425359451 0.0743925116 0.4373239105 -0.7632943856
-0.0161813010 0.0249689557 0.0061621147 0.0743721342 0.4368839200 -0.7602045247
0.1295934315 0.8817386810 0.1976059367 0.0743746827 0.4389068698 -0.7618469530
0.4036518366 0.0942631677 -0.7413616511 0.0729565293 0.4377184798 -0.7618287817
0.2211587448 0.0107128494 -0.1018719386 0.0745153143 0.4357651287 -0.7616196514
-0.0013745982 0.6183727952 -0.2425359451 0.0743930655 0.4373441112 -0.7632943651
-0.3908691866 0.7446783474 0.0536399943 0.0742951392 0.4357640335 -0.7616734284
0.2482249751 0.7563832355 0.2385268506 0.0743975772 0.4357659998 -0.7615441666
0.1858328561 0.8577357372 -0.1023440362 0.0743724719 0.4389063380 -0.7618528234
0.3472934171 0.8531701711 0.6690121929 0.0744341896 0.4358290210 -0.7612448267
-0.3674045082 0.4708827976 0.0381288298 0.0759703548 0.4373577930 -0.7616834001
-0.3637816446 0.8941254204 0.3093737153 0.0743069084 0.4389025475 -0.7618507908
0.3080149489 0.7456303193 0.0907665020 0.0743936951 0.4357582136 -0.7616460917
0.3584433281 0.8305039608 -0.1779473675 0.0759700913 0.4373517048 -0.7617161306
0.0025454087 0.7560313416 0.2346055971 0.0743913028 0.4357652281 -0.7615510580
0.1036125046 0.8413167374 -0.1243230251 0.0743935531 0.4389119874 -0.7617243444
-0.0848999359 0.7434772509 -0.1065445599 0.0743913170 0.4357578854 -0.7617832343
0.2119901939 0.7549717589 0.2227988770 0.0743963652 0.4357647720 -0.7615575896
0.3982353101 0.7315294274 -0.5125760509 0.0732031211 0.4377543790 -0.7616939620
0.3579514369 0.4191983614 0.2594080679 0.0728172832 0.4373001750 -0.7616531251
0.3537183342 0.5466443290 0.1894854582 0.0728161739 0.4373104323 -0.7616743247
-0.1550151063 0.0854390228 -0.2425359451 0.0743922481 0.4373191432 -0.7632943951
-0.4678121897 0.0278114595 -0.0126665406 0.0739557025 0.4360277441 -0.7617512029
0.3925367202 0.3093146494 0.3358512344 0.0739619800 0.4372728462 -0.7602156453
-0.0824973705 0.6198414227 0.0414490665 0.0743605749 0.4374356053 -0.7601434050
-0.4867818522 0.8866793052 0.5412685203 0.0729303746 0.4378892697 -0.7618410542
-0.3658308832 0.3124164389 -0.0536669633 0.0759704321 0.4373411271 -0.7617161858
-0.4874792837 0.3596631948 0.0736565740 0.0728164674 0.4373302527 -0.7617789940
0.3881664860 0.0277251114 -0.1940092231 0.0742152548 0.4357929246 -0.7618525172
-0.2845667186 0.7454751285 0.0847134665 0.0743897879 0.4357577213 -0.7616579666
-0.4887106946 0.0609353506 0.0974637064 0.0728164879 0.4373207923 -0.7617785679
0.1297388889 0.6338378600 -0.2425359451 0.0743931696 0.4373454321 -0.7632943588
0.4473428957 0.0507059656 -0.7036857795 0.0748422560 0.4359098222 -0.7618034965
0.1976237325 0.6783683929 0.0337948578 0.0745006495 0.4374989753 -0.7601532773
-0.3930150779 0.7434772746 -0.0208761604 0.0743323719 0.4357602572 -0.7617153400
-0.4826606448 0.5222301594 -0.2124872848 0.0728246386 0.4373125690 -0.7618434103
0.0854656785 0.3819159575 0.0465558852 0.0744337241 0.4373310007 -0.7601396382
-0.3708221693 0.1767819579 0.2374923101 0.0759703074 0.4373512141 -0.7616694816
0.4871822903 0.5704028698 -0.1064119322 0.0759670488 0.4373749638 -0.7618194491
0.1002787425 0.7438381745 -0.1202617254 0.0743952101 0.4357592125 -0.7618000958
-0.4040631096 0.7021541662 -0.4257365095 0.0755621527 0.4364767200 -0.7617444156
-0.2222054932 0.7953413536 0.4689152589 0.0743761629 0.4357974772 -0.7613622215
0.2134016689 0.3857833472 0.0413026165 0.0745465504 0.4373320849 -0.7601507998
0.4970340654 0.3219540166 0.1455481892 0.0759693148 0.4373546526 -0.7616954265
-0.4207853139 0.1046314421 -0.6116826093 0.0750433414 0.4382479350 -0.7617647410
-0.3656581870 0.6592367966 -0.0637401696 0.0759701733 0.4373619717 -0.7616869271
0.1849125005 0.8466148419 -0.2312644102 0.0743747190 0.4389062102 -0.7618547675
0.4890808892 0.2391551498 -0.1343989284 0.0759668625 0.4373580581 -0.7618304386
0.4351669704 0.6978735056 -0.5361304228 0.0746354202 0.4360333004 -0.7617878595
-0.2063187892 0.9111303634 0.5444035404 0.0744111453 0.4389068461 -0.7618473239
-0.4103819324 0.7901751794 0.4328077842 0.0742282880 0.4358046227 -0.7613993800
0.2192161292 0.7966983147 0.4737286966 0.0744075615 0.4357988470 -0.7613551171
0.2721929808 0.5782721534 0.0349455085 0.0746025272 0.4373927580 -0.7601577953
0.4574844887 0.0493593818 -0.5836415079 0.0752341253 0.4361855434 -0.7617265836
-0.0515728653 0.7100503225 0.0362895138 0.0743720505 0.4375260643 -0.7601516030
0.3434892364 0.7492758659 -0.1257791434 0.0728158141 0.4373198044 -0.7617400113
-0.3658844834 0.2334781588 -0.0665041288 0.0728177740 0.4373258752 -0.7616533476
-0.3658844834 0.1265774670 -0.0488205853 0.0728185709 0.4373210905 -0.7616302748
-0.3703064416 0.1880318451 0.2074069536 0.0759704921 0.4373514744 -0.7616746987
0.2554335975 0.8182429862 0.5546080269 0.0744150115 0.4358112363 -0.7613052410
-0.3814706782 0.8575741174 0.6784605916 0.0743471235 0.4358296396 -0.7612442918
-0.3883605159 0.0238836081 -0.1388363452 0.0748081621 0.4358603675 -0.7618408428
-0.1516525147 0.7567389341 0.2424900978 0.0743878989 0.4357658325 -0.7615445911
-0.0704713496 0.0837143714 -0.2425359451 0.0743927183 0.4373177703 -0.7632943793
0.0638910902 0.9188579659 0.6538196443 0.0743859958 0.4389072848 -0.7618426591
-0.4088394171 0.0238836081 0.1539704284 0.0744162629 0.4357639925 -0.7617015572
-0.4862272601 0.1090462722 0.0494500167 0.0728159876 0.4373244676 -0.7617658078
0.4829628394 0.6649884091 -0.1410778320 0.0759668531 0.4373539062 -0.7618326022
-0.3681356027 0.2626493236 0.0807755502 0.0759704842 0.4373476287 -0.7616935596
0.2297817569 0.1645519969 0.0315354568 0.0747409464 0.4371098519 -0.7602340912
-0.1787760774 0.8816855621 0.1918847128 0.0744032518 0.4389068287 -0.7618482723
-0.4844196330 0.2890168490 -0.0395156967 0.0728154669 0.4373358706 -0.7617457396
-0.0991084733 0.7552220859 0.2255883108 0.0743897184 0.4357648557 -0.7615554592
-0.4071954802 0.0277806858 -0.1990217483 0.0748642273 0.4359517196 -0.7619302775
0.0113655942 0.8541339658 -0.1387462413 0.0743918346 0.4389067877 -0.7618492333
-0.3377984248 0.7730046919 0.3514808682 0.0743711984 0.4357778715 -0.7614614260
-0.4116151249 0.9149557343 0.6259823236 0.0743287976 0.4388982220 -0.7619095845
-0.2676834721 0.7457074215 -0.1408230265 0.0743930560 0.4357663864 -0.7618586827
0.4928004072 0.6837657034 0.1546772982 0.0759679104 0.4374198043 -0.7617071088
-0.4272328161 0.0292233701 -0.2203018129 0.0747674530 0.4359547574 -0.7619444185
0.4961283006 0.3827833219 0.1528058608 0.0759687673 0.4373691818 -0.7616937064
-0.3969166358 0.0238836081 -0.0068381145 0.0744440383 0.4357674484 -0.7617158307
-0.2966792439 0.9072490805 0.4726846214 0.0743665510 0.4389053927 -0.7618536897
-0.4431365189 0.7002197139 -0.2409578889 0.0741044800 0.4367002327 -0.7615749687
0.4562192458 0.0252421583 -0.0743095058 0.0745468202 0.4357938004 -0.7617341236
-0.4752477587 0.0344697522 -0.0947390455 0.0734662005 0.4364759862 -0.7618019468
0.2888856644 0.2392917274 0.0329053232 0.0749065492 0.4372277312 -0.7602624899
0.1952808350 0.8641638782 -0.0278250884 0.0743711005 0.4389063680 -0.7618521780
-0.0228706372 0.8630964952 0.7147254490 0.0743868984 0.4358293761 -0.7612422150
0.4810146374 0.7228347557 -0.1585828043 0.0759611610 0.4373487034 -0.7618687665
0.4885538910 0.8794601603 0.6849447426 0.0759178892 0.4369592249 -0.7616255186
-0.4709208169 0.0564014010 -0.4511274280 0.0732287756 0.4369322354 -0.7616579334
0.4945508235 0.5754907977 0.1239155079 0.0759693653 0.4373937285 -0.7617220357
-0.4115647518 0.7048499565 -0.7007982585 0.0755227423 0.4363109310 -0.7618536298
-0.4321021658 0.8742331379 0.2338873606 0.0740267923 0.4388509750 -0.7618179262
-0.1765142194 0.7487425113 -0.1742091148 0.0743932059 0.4357755091 -0.7619204494
0.4599647449 0.0803871046 -0.5092335163 0.0755809094 0.4377649978 -0.7617161590
-0.3637625249 0.0238836081 -0.0430615085 0.0745891800 0.4357736754 -0.7617280370
-0.2525079712 0.6896957436 -0.2425359451 0.0743612945 0.4373521514 -0.7632934830
0.4675823774 0.1110407554 -0.2807044575 0.0755194315 0.4383340259 -0.7616352962
-0.3552144956 0.8389170741 -0.0150637721 0.0740917751 0.4385371391 -0.7613352620
0.2537825215 0.3536612188 -0.2425359451 0.0744309215 0.4373239878 -0.7632935240
-0.4826606448 0.3878744927 -0.1776118948 0.0728186120 0.4373416274 -0.7617872204
0.0494955421 0.7531758583 0.2027873061 0.0743916673 0.4357632382 -0.7615748425
-0.3200803518 0.9116187387 0.5137274717 0.0743455692 0.4389048294 -0.7618554366
-0.1802480409 0.0370893066 0.0037733589 0.0743113632 0.4368668897 -0.7602125397
0.4666587947 0.2728361137 -0.2456920576 0.0745252671 0.4373399404 -0.7632867478
-0.2796343050 0.7664444991 0.3090587589 0.0743806446 0.4357727270 -0.7614949518
-0.4980309930 0.6469201039 0.2888440558 0.0728192637 0.4373940693 -0.7617003421
-0.0767224248 0.0029446971 -0.1359504023 0.0743554036 0.4357595045 -0.7617756028
0.4053763191 0.7413351153 -0.7482294781 0.0733745769 0.4379367139 -0.7618261337
0.0812839826 0.3535888176 -0.2425359451 0.0743932107 0.4373309660 -0.7632943635
-0.3690289419 0.3998692918 0.1328895476 0.0759699619 0.4373561423 -0.7616703117
-0.3765323658 0.6495771735 -0.2443084652 0.0748198003 0.4373608481 -0.7630843921
0.0246305329 0.8875406178 0.2701579006 0.0743912870 0.4389070355 -0.7618460898
0.2560066119 0.8556605885 -0.1264008691 0.0743723030 0.4389059734 -0.7618569547
0.4819311409 0.0618897780 0.3297410827 0.0751266186 0.4373336471 -0.7603514433
0.4834580524 0.2191217622 -0.2192426153 0.0759410945 0.4372268317 -0.7619833491
-0.4831556179 0.0647784194 -0.1128318390 0.0728152475 0.4373341837 -0.7617314377
0.4854852344 0.1095673464 -0.2103728882 0.0759440581 0.4372260474 -0.7619642373
0.3380622127 0.7942862021 0.4572884594 0.0744177857 0.4357990758 -0.7613554358
0.4842279134 0.8604490313 0.4385363272 0.0759511041 0.4375612565 -0.7617740736
0.4960159477 0.1684680744 -0.0315421020 0.0759693622 0.4372807381 -0.7617587665
-0.3658844834 0.2929392940 -0.0798744091 0.0728172690 0.4373284601 -0.7616687557
0.2727786606 0.8723511527 0.0627978065 0.0743791455 0.4389058693 -0.7618554540
-0.4724630923 0.0742191140 -0.4048593131 0.0731778928 0.4375285607 -0.7616443117
-0.4713163425 0.7523383586 0.0053025838 0.0735120982 0.4362928023 -0.7617473824
0.1246774045 0.3839171758 0.0457831348 0.0744517581 0.4373316840 -0.7601399838
0.4197322817 0.7434772272 -0.0491703110 0.0744221191 0.4357573031 -0.7617272211
0.0423754154 0.5119373382 0.0458749729 0.0744112668 0.4373740911 -0.7601395104
-0.4918331455 0.1439899746 0.1708672083 0.0728168035 0.4373217549 -0.7617870689
0.1953963313 0.1174658871 -0.2425359451 0.0744099807 0.4373156052 -0.7632939769
0.4002333565 0.7092750440 -0.5785114885 0.0734468298 0.4366483178 -0.7617414079
0.1994432187 0.3070806157 -0.2425359451 0.0744110474 0.4373257931 -0.7632940053
-0.0075896402 0.8918923604 0.3230818274 0.0743962784 0.4389070465 -0.7618461908
0.2415060409 0.1524937946 -0.2425359451 0.0744270032 0.4373131750 -0.7632935130
0.2010538302 0.2647874998 0.0405776875 0.0746395090 0.4372583265 -0.7601919981
0.4907650382 0.3078080854 -0.1035229058 0.0759671340 0.4373689703 -0.7618166575
-0.4826606448 0.4555759093 -0.1486700121 0.0728159340 0.4373441680 -0.7617419097
-0.0043116150 0.3107759105 0.0490901757 0.0743901098 0.4372964650 -0.7601390606
0.0534881095 0.8307182167 0.6078963206 0.0743954057 0.4358168731 -0.7612840304
-0.4837678074 0.0842860129 -0.0773252849 0.0728153359 0.4373323973 -0.7617387331
0.1794602531 0.1527051626 -0.2425359451 0.0744039730 0.4373191495 -0.7632941600
0.4898678469 0.2701506423 -0.1205910815 0.0759669446 0.4373664297 -0.7618251364
-0.0533848873 0.7725462713 -0.2409578889 0.0743932059 0.4372781832 -0.7632933631
0.4850703982 0.1383777818 -0.2109614811 0.0759438655 0.4372249490 -0.7619653309
0.2348554428 0.9091866400 0.4941050194 0.0743617064 0.4389067120 -0.7618462287
-0.4092020024 0.0535031287 -0.6141629870 0.0755445826 0.4364066432 -0.7618191587
0.3630240151 0.1067637780 0.1213718753 0.0728179429 0.4372823682 -0.7616529799
-0.2521183697 0.0196532244 -0.0140206122 0.0741675013 0.4358320698 -0.7613357306
0.2961139841 0.7950236530 0.4624602925 0.0744135834 0.4357984241 -0.7613573279
-0.4845534648 0.8182282740 0.1148216511 0.0728349085 0.4375187878 -0.7617356148
0.2689259231 0.7958346177 0.4675283921 0.0744106356 0.4357986797 -0.7613564411
-0.2465348785 0.8766699549 0.1302157901 0.0744085147 0.4389065447 -0.7618511427
0.2366631662 0.7524668203 -0.2151765498 0.0743937614 0.4357839959 -0.7619941983
0.4758042287 0.8542510387 0.1898089865 0.0758910338 0.4378231949 -0.7617675452
0.3151358266 0.7660054870 0.3085330610 0.0744084168 0.4357741709 -0.7614850558
-0.4458031972 0.0238836081 -0.0378742641 0.0742859028 0.4357649961 -0.7617149959
0.1919475242 0.9262823134 0.7193682135 0.0743668256 0.4389070923 -0.7618426686
-0.1266267805 0.9177944334 0.6307065727 0.0744060576 0.4389070402 -0.7618454791
-0.3833064783 0.0980081855 0.3257538506 0.0753671365 0.4373057029 -0.7607689449
0.0452146148 0.8235977492 0.5814489486 0.0743938403 0.4358134866 -0.7612967164
0.4824753794 0.2517678731 -0.2274699582 0.0759383076 0.4372423392 -0.7620031411
0.4109289403 0.2495071229 -0.2456920576 0.0743345733 0.4373203425 -0.7632866200
0.4136971839 0.7642990891 -0.3737695633 0.0737643300 0.4385016423 -0.7616502436
-0.2141605262 0.0994415750 -0.2425359451 0.0743801049 0.4373212026 -0.7632940795
0.1291513186 0.8017638373 -0.2425359451 0.0743930608 0.4373539946 -0.7632943572
-0.4040034417 0.0692523398 -0.4235503319 0.0755983691 0.4371003299 -0.7617260029
-0.0056638308 0.4064583883 0.0480162422 0.0743894218 0.4373401945 -0.7601386835
-0.3657765128 0.4582551032 -0.0568388705 0.0759706546 0.4373528584 -0.7617039432
0.3584433281 0.4684693847 -0.0931007422 0.0759702506 0.4373350153 -0.7616928748
0.3657518304 0.0536607276 0.2067398619 0.0728187792 0.4372767598 -0.7616347297
-0.2567935932 0.8048182630 -0.2425359451 0.0743593345 0.4373590996 -0.7632933757
-0.2054659508 0.5132522204 -0.2425359451 0.0743851247 0.4373401203 -0.7632941852
-0.0849923879 0.0633877715 0.0135920011 0.0743476112 0.4369230842 -0.7601959401
-0.4826606448 0.1402099208 -0.1804480437 0.0728263050 0.4372526581 -0.7617857923
-0.0904483311 0.8814162605 0.1949032850 0.0743973973 0.4389069582 -0.7618472371
0.3429285530 0.7264798447 -0.1901465296 0.0728158062 0.4373184915 -0.7617488500
0.1530828680 0.8634560932 -0.0360303733 0.0743715945 0.4389065636 -0.7618500444
-0.2697916558 0.8011693693 0.4934855093 0.0743706792 0.4358028332 -0.7613377411
0.4976193349 0.1291596262 0.1899692587 0.0759697930 0.4373479049 -0.7616779179
0.3944478646 0.7503265878 -0.3875911850 0.0732428455 0.4381149901 -0.7616612079
-0.2357690569 0.7509321069 -0.1982948924 0.0743931191 0.4357842184 -0.7619855237
-0.4826605958 0.1658986280 -0.2300052602 0.0728440092 0.4371053987 -0.7618600461
0.3478472154 0.5992212128 -0.0799726510 0.0728158440 0.4373129998 -0.7617219899
0.0280119855 0.4082206289 0.0473520414 0.0744059377 0.4373419098 -0.7601389975
0.4643576873 0.7414148166 -0.3910942300 0.0754886594 0.4377480968 -0.7616735751
-0.4841450323 0.4981212917 -0.0554464174 0.0728154290 0.4373425363 -0.7617431027
-0.0121754447 0.5903712541 -0.2425359451 0.0743930655 0.4373426421 -0.7632943667
0.1481210726 0.4404009024 0.0446848329 0.0744601786 0.4373541650 -0.7601399948
-0.4246693411 0.7988076551 0.4675161590 0.0743647015 0.4357989874 -0.7613571370
-0.1693701063 0.8998677382 0.4113497243 0.0744059677 0.4389069061 -0.7618471092
0.1002755753 0.5615815891 -0.2425359451 0.0743930765 0.4373416558 -0.7632943604
0.3584433281 0.6366389003 -0.0778587847 0.0759694837 0.4373415627 -0.7616695179
-0.4700886400 0.8501511649 -0.0014516405 0.0738218659 0.4387314578 -0.7618021662
-0.4942203107 0.2535779336 0.2335887781 0.0728171049 0.4373234119 -0.7617817982
0.3584433281 0.3413849182 -0.1955461031 0.0759686473 0.4373303017 -0.7617801444
0.2175218175 0.5030143707 0.0396738021 0.0745406769 0.4373690082 -0.7601498040
0.4559897948 0.8640125647 0.0398793897 0.0748294975 0.4388180584 -0.7618248807
0.3541469674 0.2150971602 -0.2373639195 0.0752853648 0.4373176583 -0.7625015670
0.0163652061 0.7869387154 0.0238195572 0.0744040456 0.4377083850 -0.7601902859
-0.4509974246 0.7450830951 -0.1328030543 0.0742989676 0.4357690896 -0.7617953458
-0.4017647480 0.1028289200 -0.3414632347 0.0753862562 0.4381783475 -0.7616171580
0.4874517371 0.6497261767 -0.0913104043 0.0759671419 0.4373841102 -0.7618136103
0.4926417731 0.4187920781 0.2438311190 0.0759642603 0.4373970897 -0.7616280088
0.1290353772 0.8007823684 0.0194757128 0.0744466342 0.4377845294 -0.7602130920
0.2797957323 0.6476307784 -0.2425359940 0.0744398343 0.4373381793 -0.7632933852
-0.3370331874 0.1265458743 0.0141920081 0.0741893889 0.4370375754 -0.7601855107
-0.1105957948 0.0024918628 -0.1227839769 0.0743390707 0.4357582247 -0.7617333266
-0.4083629373 0.7541241707 -0.5833975719 0.0756558308 0.4380531840 -0.7617631977
-0.4923292249 0.8809251883 0.6527183567 0.0728388695 0.4371674794 -0.7617000928
-0.2911968367 0.7712187836 -0.2425359451 0.0743416998 0.4373604978 -0.7632928628
0.4643542914 0.8521085180 -0.1497012292 0.0747274619 0.4388628499 -0.7618337463
0.1058741559 0.8607176590 -0.0580617110 0.0743779793 0.4389066930 -0.7618494148
-0.2488268836 0.7717524759 -0.2409578889 0.0743932059 0.4372901764 -0.7632937860
0.0693724606 0.9155250623 0.6131082205 0.0743848375 0.4389072643 -0.7618428501
-0.2317277196 0.8693346525 0.0420509024 0.0744057152 0.4389065873 -0.7618509013
0.3584433281 0.4853948173 -0.0371781819 0.0759694837 0.4373344756 -0.7616565305
-0.4369823505 0.0727941529 -0.7617164462 0.0748255381 0.4367632145 -0.7618753280
-0.2294695448 0.8413167374 -0.0815613986 0.0743851105 0.4389116513 -0.7616959172
-0.4230499177 0.8823018940 0.3384126863 0.0740396630 0.4388523874 -0.7618240523
-0.4557862051 0.1161414340 -0.2663823742 0.0738041317 0.4385062092 -0.7616076739
-0.3658844834 0.5575612005 -0.0441766167 0.0728166662 0.4373420061 -0.7616679699
0.1111768856 0.3050423935 0.0469478949 0.0744479377 0.4372982434 -0.7601402031
-0.4851825096 0.3272658218 0.0047286305 0.0728156894 0.4373336534 -0.7617545499
0.3525440142 0.4077351147 -0.0719471904 0.0728158740 0.4373041185 -0.7617071767
-0.3012603411 0.0150413314 -0.1202632672 0.0741847794 0.4357736407 -0.7617201862
0.2241463019 0.7446744212 0.0534860802 0.0743932059 0.4357573583 -0.7616691850
-0.3658844834 0.3543266410 -0.1601997722 0.0728161360 0.4373298898 -0.7617348700
-0.1688427704 0.5218423158 0.0426579885 0.0743289601 0.4373762546 -0.7601404982
0.3538583299 0.4098924801 0.0077178746 0.0728158867 0.4373045304 -0.7616943992
0.4935380017 0.4210857987 0.0154326175 0.0759703343 0.4373266311 -0.7617507326
0.1913150471 0.7683094839 0.3284911769 0.0744001178 0.4357755154 -0.7614753255
-0.4228500600 0.6997518549 -0.6050032606 0.0750171362 0.4361170052 -0.7618150289
0.4983754716 0.2183170592 0.1210598084 0.0759702617 0.4373366817 -0.7617066575
-0.3713041882 0.1945057608 0.2656096237 0.0759699824 0.4373515565 -0.7616619480
-0.3705187233 0.2369121701 0.2197916699 0.0759701291 0.4373525286 -0.7616675170
0.3611472801 0.1156403932 0.0242247136 0.0728172517 0.4372852702 -0.7616699093
-0.3687842959 0.7663993020 0.1186168259 0.0759680997 0.4373640294 -0.7616387995
-0.3709863897 0.3471794507 0.2470734344 0.0759693101 0.4373548594 -0.7616514492
0.4126130419 0.6963331097 -0.4796499233 0.0738971376 0.4361551279 -0.7617149170
0.3584433281 0.4957827039 -0.1095690562 0.0759703658 0.4373364955 -0.7617009213
-0.3022936760 0.5713572135 0.0339812799 0.0740301694 0.4373804886 -0.7601949727
-0.2660887043 0.4359497139 -0.2425359451 0.0743538760 0.4373393818 -0.7632933583
0.0587680032 0.7427644824 -0.0606955926 0.0743945678 0.4357573378 -0.7617479300
-0.2716060260 0.8413167374 -0.0192509565 0.0743753550 0.4389101758 -0.7616428693
-0.4757342072 0.7713757813 -0.1245888597 0.0729282285 0.4367582941 -0.7617886675
0.4942756941 0.2939384261 0.2357188274 0.0759666905 0.4373852575 -0.7616475167
0.1703343050 0.3027334116 0.0450144778 0.0745093966 0.4372978694 -0.7601489298
0.2035387464 0.7574759258 -0.2383921998 0.0743932059 0.4360691507 -0.7622806344
-0.1461748748 0.7205239922 -0.2425359451 0.0743929645 0.4373492588 -0.7632943762
0.3609217064 0.1753838206 0.0940422406 0.0728174142 0.4372876452 -0.7616626660
0.3584433281 0.4428034078 -0.1205056960 0.0759706862 0.4373345687 -0.7617121144
-0.3679506735 0.5051663439 0.0699888257 0.0759699082 0.4373584857 -0.7616735262
0.4860783548 0.7732944136 -0.0452391851 0.0757822426 0.4376024769 -0.7617784086
0.1018311001 0.7432053234 0.0001632097 0.0743982620 0.4357565488 -0.7616989124
-0.0878200958 0.8308052402 0.6062133757 0.0743828302 0.4358172850 -0.7612826354
0.3953621289 0.7478184221 0.1394883144 0.0744057152 0.4357609200 -0.7616000156
0.0620127362 0.8413167374 -0.1898935530 0.0743932580 0.4389118706 -0.7617459180
0.4799355499 0.7941463989 -0.0792683819 0.0759594883 0.4371791349 -0.7617282532
0.2297890160 0.8662716785 -0.0033909817 0.0743703872 0.4389062259 -0.7618536487
-0.3242826824 0.8833154369 0.1890251597 0.0743730826 0.4389053485 -0.7618559968
0.2509531756 0.5102493529 0.0374521562 0.0745807579 0.4373673307 -0.7601545177
0.4967039392 0.3529716367 0.1453626824 0.0759692470 0.4373596330 -0.7616970519
-0.0560280147 0.1425305330 -0.2425359451 0.0743928004 0.4373205414 -0.7632943762
0.3969416543 0.8709104931 0.0356534372 0.0744651258 0.4389005418 -0.7618602529
-0.1160355204 0.7466812574 0.1304189222 0.0743913549 0.4357593246 -0.7616188260
0.0254275917 0.1776442820 0.0404283008 0.0744055164 0.4371114773 -0.7601561794
-0.3650937699 0.4115380850 -0.0966623978 0.0759705442 0.4373458834 -0.7617160738
0.4316377739 0.7705672973 0.3381887491 0.0745779774 0.4373684559 -0.7601569495
0.4930437040 0.3359815873 0.2582231765 0.0759627564 0.4373656911 -0.7615959142
-0.1051690346 0.1344815941 0.0307839912 0.0743447217 0.4370220394 -0.7601725706
-0.3687898822 0.4912048464 0.1189433399 0.0759695831 0.4373581212 -0.7616646275
0.3934088219 0.7829286331 0.3023116643 0.0743818502 0.4389087051 -0.7616870170
-0.3608130604 0.4941223757 -0.0106117157 0.0731187472 0.4374483245 -0.7610864451
0.2784702676 0.3372912919 0.0377295011 0.0747297911 0.4373088038 -0.7601914663
-0.1577000112 0.1543721676 -0.2425359451 0.0743922370 0.4373226875 -0.7632943967
-0.2132413984 0.8231550287 0.5749355184 0.0743738716 0.4358132483 -0.7612980041
-0.1870629919 0.9094975991 0.5255695387 0.0744091569 0.4389069045 -0.7618468236
-0.4329306832 0.8634682300 -0.0395611589 0.0742297572 0.4388977391 -0.7618377088
0.3189603785 0.7800113626 0.3960559481 0.0744120511 0.4357869485 -0.7614095174
-0.1108100270 0.7434772509 -0.0801277708 0.0743905879 0.4357575319 -0.7617641382
0.4599066898 0.7964517434 0.4569936327 0.0746239935 0.4358124120 -0.7613842859
-0.3719407461 0.6032518588 0.3027437408 0.0759674717 0.4373602816 -0.7616157394
