-0.1794954849 1.9058546436 -0.3929218685 -0.0003908937 0.0000054889 -0.3356349695
0.0455755776 0.3345160349 0.0198967668 0.0012636633 0.0000128481 -0.3380631868
0.2681527440 1.7854605688 -0.4055723391 0.0000399527 -0.0003040467 -0.3358177337
0.0838247228 2.0714060800 -0.4287831065 -0.0003733176 -0.0003309213 -0.3391406090
0.2204528860 1.5797527881 -0.1196597258 -0.0000315743 -0.0017170279 -0.3376531670
0.0428752135 0.3657340761 0.0131458573 0.0011918002 0.0000099161 -0.3382132019
0.1691786787 1.5494161852 -0.1211743095 -0.0000648738 -0.0017148550 -0.3376987643
-0.2085337201 0.6420520344 0.3725055371 0.0004993246 0.0002711984 -0.3388120357
0.0552681565 2.2969041051 -0.5114171774 -0.0003732309 -0.0007532371 -0.3390036862
0.1524417532 1.6356431336 -0.4281759084 -0.0003706564 0.0002347245 -0.3356569144
-0.1137145400 0.0062677526 0.4627806280 -0.0008120718 0.0002147349 -0.3357839175
0.0937119549 1.6101531112 0.4979708327 -0.0002146889 0.0013066577 -0.3362494224
0.1727118792 0.0595215407 -0.2916437402 -0.0000562211 0.0016249893 -0.3380224450
-0.1167515515 1.5782366933 0.5130120187 -0.0006472977 0.0003629539 -0.3357287475
-0.0559830972 0.1723921338 0.1164105239 -0.0008344997 0.0015806501 -0.3367596416
-0.2314589439 0.6522095413 0.3620932064 0.0003834248 0.0010637194 -0.3384883391
0.2813265667 1.5823899188 0.0724857839 0.0000149732 -0.0017234033 -0.3373525283
0.0626244452 0.6536563016 -0.3521201217 -0.0005666049 0.0012069025 -0.3361731373
-0.2182921690 2.2242449077 -0.4546969258 -0.0003902107 0.0006786348 -0.3357700060
-0.2887911890 1.6172886329 0.2738405668 -0.0003413912 0.0017654068 -0.3374071056
0.2578726576 1.7100733063 -0.4447051308 -0.0003647322 0.0003990208 -0.3391269062
0.1180022659 2.0452922549 -0.4040861854 -0.0003692691 0.0002622786 -0.3356539930
-0.1220757878 2.2055255845 -0.4464603897 -0.0003844989 0.0006481806 -0.3357572783
-0.1094784063 1.6071103366 0.4997420239 -0.0005762325 0.0012128975 -0.3361427221
-0.4041148002 0.6201171911 0.0473616102 0.0003935762 -0.0014438548 -0.3373965189
0.4035984003 1.6145104566 0.3821940568 0.0001272544 0.0014049638 -0.3365243916
0.0959395240 0.1701399816 0.0666862966 0.0004043151 0.0015683948 -0.3371759005
0.2065116192 1.5871653280 -0.1872020732 -0.0001590499 -0.0017386773 -0.3376423414
0.2676334829 1.6172886329 0.3033652307 -0.0004064526 0.0017628694 -0.3373884395
-0.2567062651 1.7547820385 -0.4107160814 -0.0003942115 -0.0004867278 -0.3357023347
0.1729796095 1.5392409129 0.1486669245 0.0000121031 -0.0017088123 -0.3371772347
0.1807752238 1.5335733195 -0.0096292755 0.0000682181 -0.0017052504 -0.3375296868
0.4140482348 0.0152836855 0.1806844301 0.0012303957 -0.0003939549 -0.3368345695
-0.0974263130 0.1245801858 0.2307441563 -0.0006945512 0.0016350947 -0.3368075869
0.2629600230 1.6135287412 0.2406144936 -0.0005424287 0.0017531833 -0.3375252437
0.0187920906 1.5403573021 -0.0805215213 -0.0003241921 -0.0017370936 -0.3377322584
-0.1014317265 1.5781390614 -0.3734558977 -0.0003845732 0.0017417969 -0.3371188088
0.3433652632 0.0447551222 0.2642622067 0.0002283580 0.0016113415 -0.3370051421
0.0387341176 0.9508554609 0.0239347013 0.0012369215 -0.0000107725 -0.3381241873
-0.0057991529 0.1219920338 0.2617204943 -0.0003868416 0.0016349868 -0.3367290299
-0.1552686251 1.5750323508 0.1097468524 0.0000340852 0.0017117744 -0.3375772588
-0.0393708834 1.6079573747 0.3369695193 -0.0003338126 0.0017349933 -0.3377448535
-0.0352046665 1.5070009275 -0.0666341470 -0.0005441575 -0.0016872213 -0.3379042449
0.0356907821 0.9138154425 0.0625657424 0.0011171625 -0.0000086137 -0.3364712599
0.0845184653 1.6213300797 0.4790371321 -0.0003030771 0.0016648447 -0.3368548033
0.2527416325 1.5744780968 0.0401356672 0.0000796824 -0.0017089291 -0.3374019777
0.0420853166 1.2036787417 0.0306371187 0.0013363440 -0.0000321317 -0.3378183269
-0.3265015876 0.0188879866 -0.2539161388 -0.0016482135 -0.0002931185 -0.3385512116
-0.0365309847 0.9006454525 0.0623550879 -0.0019499670 -0.0000091888 -0.3365939332
-0.4444410253 1.5970845343 0.3176187245 -0.0005958470 -0.0013213567 -0.3372982040
-0.2856857471 1.6097282420 0.4496583214 -0.0008323958 0.0012498580 -0.3362607894
0.1448381485 1.5692382904 -0.2636728412 -0.0001904225 -0.0017157327 -0.3377904791
0.1807123283 1.6677000592 -0.4294154911 -0.0003676253 -0.0000632919 -0.3356384412
-0.3866293975 0.0019240798 -0.1673535092 -0.0018028805 -0.0006331756 -0.3382032309
0.1264170257 2.1245307771 -0.4408176785 -0.0003716384 -0.0004761022 -0.3391061363
-0.2771557368 0.0294748429 0.3728071260 -0.0010129624 0.0014726280 -0.3366736103
-0.1908004864 1.6172886329 0.3858141433 -0.0003982387 0.0017387870 -0.3372363595
0.3381252675 0.0160076026 -0.2387411355 0.0009363765 -0.0005168547 -0.3384538417
0.2192434673 0.0947985181 0.2256892977 0.0001443616 0.0016305561 -0.3369608542
0.3816597225 0.0547490670 -0.0223357832 0.0003163038 0.0016230164 -0.3375126823
0.3187372397 0.6501925435 -0.2519045025 0.0006574331 0.0009153889 -0.3383230058
-0.0787741179 1.5865032925 0.3326022384 -0.0004575051 -0.0017362230 -0.3370771185
-0.3698550373 1.5925160514 0.0992294368 -0.0006369534 0.0016458531 -0.3373182184
0.0997925726 1.5870442614 -0.2495219072 -0.0002661519 -0.0017379518 -0.3377106073
0.1430557124 0.1298285793 -0.1040127166 0.0000739600 0.0016366908 -0.3378995823
-0.0177706790 1.5535880944 0.0291363863 -0.0003725426 0.0017693810 -0.3374032800
0.0078006962 1.5508463142 -0.1988332591 -0.0003599210 -0.0017158035 -0.3378296815
-0.1095094480 0.1574996358 -0.0390577921 -0.0009315547 0.0016406526 -0.3377642114
0.1190643043 1.8564745024 -0.3943828977 -0.0003727443 -0.0000995075 -0.3356383651
-0.1188724857 0.6591327364 0.4385324921 -0.0004632860 0.0016904453 -0.3372149296
0.2118463306 2.2986351206 -0.4890763646 -0.0003676058 0.0008194752 -0.3358356531
-0.3744032705 1.6238120144 0.3611349823 -0.0003477401 0.0017489508 -0.3374728659
-0.2076984666 2.0018633147 -0.3992178157 -0.0003911857 0.0001660747 -0.3356425764
0.2923894598 1.5924517916 -0.1594897741 -0.0007176214 0.0017210641 -0.3371722041
-0.4326933892 0.0272513648 -0.0129165066 -0.0013622542 0.0014588315 -0.3375488519
-0.2152084490 1.6025371008 0.2085525463 -0.0000557947 0.0017225486 -0.3376455424
0.3866573143 0.6506337218 -0.0443156364 -0.0017034154 0.0009455653 -0.3371014575
0.4506124341 1.6056000721 0.3677271039 0.0003281893 0.0011497719 -0.3362779161
0.0538268338 2.0632683242 -0.4273470391 -0.0003742714 -0.0003090455 -0.3391448698
-0.2011717638 1.6150998079 0.3151950016 -0.0002893850 0.0017591482 -0.3375325852
0.4445404106 1.6094988507 0.1562209435 0.0003497360 0.0006142335 -0.3375534950
-0.1217268144 1.6608765486 -0.4294154911 -0.0003864010 0.0000386964 -0.3356392445
-0.0730328282 0.0561366547 -0.3379031478 -0.0005076906 0.0016236782 -0.3380940179
-0.0771606743 1.5485661213 -0.1437507369 -0.0001943259 0.0017107976 -0.3369926320
-0.3007302012 0.6224951220 -0.2666875362 -0.0012309442 -0.0012642827 -0.3382466907
-0.1620054656 1.5493158531 0.0281496757 -0.0007926696 -0.0017195583 -0.3374326354
0.2225522452 1.5669578816 -0.1011369084 -0.0007490948 0.0017151753 -0.3371813098
-0.3858821500 1.6172886329 0.0924948629 -0.0005229168 0.0017378775 -0.3374336917
-0.1364783057 1.5618357940 -0.3922281066 -0.0003870487 -0.0016977992 -0.3378766926
-0.3416271221 1.6172886329 0.2868319792 -0.0003989802 0.0017625633 -0.3373332712
0.3949016395 1.5942857296 0.1503342730 -0.0002449237 -0.0017574531 -0.3373815563
0.1444458410 0.0908916459 0.2997007572 -0.0000475667 0.0016300783 -0.3368025015
0.0249275882 1.9141893901 -0.3933095294 -0.0003772264 0.0000444224 -0.3356353022
-0.2286254454 0.6524489761 -0.2853883633 0.0003755242 0.0010960917 -0.3363456281
0.0158198591 1.5117697490 0.4472627330 -0.0003938965 -0.0016355459 -0.3380235190
-0.0428450689 0.9073810526 0.0341608421 -0.0021123754 -0.0000106362 -0.3376624054
-0.1023095055 1.5965995087 0.2690584619 -0.0002039712 0.0017140959 -0.3378057283
-0.4623696571 1.6164164295 0.3470861481 -0.0009528962 0.0014820469 -0.3367120183
0.1399892854 1.6056297725 -0.2128281602 -0.0005603392 0.0017291983 -0.3370798577
-0.0161947374 1.6172886329 0.4371037132 -0.0003929516 0.0014299114 -0.3364370084
-0.0806224276 0.1606164854 0.1367244565 -0.0007763127 0.0016416417 -0.3368795527
0.3690775744 0.0500489980 -0.1140910064 0.0002721203 0.0016228235 -0.3376766195
-0.0564897155 2.0092323311 -0.3999547225 -0.0003812838 0.0001854786 -0.3356442114
0.2712042934 1.6046450331 -0.0425073467 -0.0007450675 0.0017266361 -0.3372917667
0.2481894834 0.0959731527 -0.0997635331 0.0002225134 0.0016302606 -0.3377343482
-0.2053636804 0.6461492618 0.4219570655 -0.0010983991 0.0006026347 -0.3360647507
-0.0911312418 1.5706429304 0.3781290673 -0.0004965182 -0.0017145241 -0.3369852781
-0.1605774582 1.5693393763 0.5061874287 -0.0007616828 0.0001166730 -0.3356980880
0.0953897131 0.6376648276 0.4655260268 0.0000007290 -0.0000427768 -0.3357119146
-0.0221142368 1.1396389761 0.0016999712 -0.0013489054 -0.0000264287 -0.3388689434
0.0462901857 0.5370861076 0.0573007973 0.0012734414 0.0000070602 -0.3367703150
0.4221565060 1.5942856217 0.1347491473 0.0000717022 -0.0016580535 -0.3374552173
-0.1755380770 1.5574434575 0.1259381234 -0.0007938640 -0.0017072569 -0.3371962653
-0.0150465987 1.5516880616 -0.2005021205 -0.0004103489 -0.0017163042 -0.3378267814
-0.2860299960 1.6133768947 -0.1245559326 -0.0001720767 0.0017509839 -0.3372907369
-0.0566474171 2.3212834607 -0.5008024822 -0.0003846900 0.0008291772 -0.3358411473
-0.0248912523 1.9126173502 -0.4139918040 -0.0003789852 -0.0000270763 -0.3391721956
0.0202315500 2.2950300993 -0.5105209854 -0.0003750269 -0.0007586198 -0.3390011576
-0.3079062489 0.0251317576 -0.2748974684 -0.0015271044 0.0004059943 -0.3385288563
-0.2659483407 0.1028150108 0.0804019800 -0.0010553693 0.0016312444 -0.3373110963
-0.2157480271 1.5543760591 -0.2471737226 -0.0003937213 -0.0017692801 -0.3374204933
0.3070234340 1.5875925735 0.0239076745 -0.0000602661 -0.0017399283 -0.3374173897
0.0049478026 0.0622261445 -0.3289200455 -0.0003611260 0.0016234322 -0.3381059990
-0.3668635611 0.0627740055 0.0154740274 -0.0010738726 0.0016246354 -0.3374557782
0.0013200189 0.2276237227 -0.0118223649 -0.0003162100 0.0000145662 -0.3391666979
0.2517418809 2.1786536030 -0.4584161004 -0.0003629167 -0.0006121597 -0.3390630269
-0.1199899013 1.6098138858 -0.2455752982 -0.0002499808 0.0017391303 -0.3371043275
0.1449577854 2.2752547591 -0.4776553200 -0.0003688374 0.0007694277 -0.3358105002
0.2913511799 0.6207424536 -0.2378582728 -0.0010293175 -0.0014081718 -0.3368206739
0.2486310121 1.5585928950 0.4796150367 0.0001756793 -0.0002256684 -0.3357682366
0.1275759688 0.6279629714 -0.3349462257 -0.0008422712 -0.0008276537 -0.3360326526
-0.1402166649 2.0624146984 -0.4071077671 -0.0003865143 0.0002800917 -0.3356574381
0.0846959813 1.5765897024 -0.3478914499 -0.0003611933 0.0017692182 -0.3373883139
0.1189753269 0.1634206091 0.0291110866 0.0002736810 0.0016416400 -0.3374926679
0.4638039957 1.6115515952 0.2302787329 0.0002824168 0.0008850515 -0.3375180279
0.0590248384 2.0370622676 -0.4227224429 -0.0003744094 -0.0002502445 -0.3391548195
-0.2818704252 0.0893971492 0.1505427122 -0.0010207905 0.0016293281 -0.3371575618
-0.0065618814 1.3515020742 -0.0031985572 -0.0007253451 -0.0000412249 -0.3391360951
0.4963125218 1.5790268166 0.3337861273 0.0009819844 0.0003703697 -0.3376173726
0.2672666078 1.5942856217 -0.2614873906 0.0000573040 -0.0016317628 -0.3378911385
-0.4081703390 0.0468431621 0.0335704362 -0.0010838594 0.0016220573 -0.3374158131
0.0780884088 2.0192145002 -0.4207307325 -0.0003738184 -0.0002174121 -0.3391587212
0.1939116242 1.5500990649 -0.0204239782 -0.0008095538 0.0017108861 -0.3372793893
0.4820587590 1.6083761976 0.3485257791 0.0003498935 0.0012350122 -0.3363684807
0.2927039534 1.5902905082 -0.0999216717 -0.0001525100 -0.0017498851 -0.3375052736
0.1263109836 0.0340382422 -0.3657250439 -0.0001047009 0.0015144581 -0.3382557097
0.1230440694 1.6284389250 -0.4466388595 -0.0003698353 -0.0003174062 -0.3391361145
-0.3848219465 0.6590471457 -0.1202505227 -0.0005741162 0.0016804231 -0.3375266416
-0.2387726381 1.7658930184 -0.4286358164 -0.0003911167 0.0004763623 -0.3391068830
-0.3792574385 1.5925161593 0.1309818043 -0.0011152338 0.0015905114 -0.3371975393
-0.3521385162 1.5942856217 -0.0703410645 -0.0006431394 -0.0017202377 -0.3374828970
-0.0121305990 2.0785212989 -0.4099501554 -0.0003779837 0.0003265313 -0.3356652114
0.2164200247 1.6172886329 0.3346338696 -0.0004110833 0.0017622288 -0.3374183328
-0.0004988769 1.8108946462 -0.4194402866 -0.0003771025 0.0002776570 -0.3391497571
0.0850576452 2.1690243745 -0.4548497312 -0.0003737158 -0.0005907049 -0.3390708904
0.4089823595 1.5942856217 0.2090377860 -0.0002278979 -0.0017556411 -0.3373539031
-0.0617392026 1.5352567064 0.1100666650 -0.0005669074 -0.0017478856 -0.3372051781
-0.3614811679 1.6172887408 0.0295177055 -0.0004351267 0.0017489897 -0.3374277676
-0.0393828308 1.4554026944 0.0552638470 -0.0020042895 -0.0000493822 -0.3367087235
-0.1772461550 1.5942856217 -0.2799940492 -0.0004755395 -0.0017405034 -0.3375830485
0.0061265760 1.5895436907 -0.2798155794 -0.0003719640 -0.0017436866 -0.3376987855
0.0102736880 1.1008337066 -0.0022603122 0.0000410816 -0.0000229782 -0.3391212333
0.0911956095 1.5854508375 -0.1505782978 -0.0005812436 0.0017092830 -0.3369939998
0.2852820442 1.6142910008 0.2144519587 -0.0005304229 0.0017561277 -0.3374962705
0.1908358827 0.0205894627 0.4341045700 0.0003783358 -0.0001533275 -0.3358570388
0.1792871944 1.9803191598 -0.4167414636 -0.0003690674 -0.0001523737 -0.3391658167
-0.3721686536 1.5392476085 0.4196052695 -0.0010826810 -0.0008238582 -0.3360407444
-0.0326896270 2.3026678174 -0.5141737681 -0.0003761859 -0.0007397326 -0.3390099288
0.0708219787 1.5629947353 0.3065466780 -0.0002725556 -0.0017230352 -0.3370167639
-0.1370988031 0.6560804013 0.4179810127 -0.0000883209 0.0014216339 -0.3382406621
-0.1210302991 1.5787582211 -0.0983335668 -0.0000819155 0.0017095024 -0.3370559752
0.0297623699 1.7010810577 -0.4262404845 -0.0003758781 -0.0003159004 -0.3356640046
0.2975755647 0.6168660304 0.3234482078 -0.0004905905 -0.0016844592 -0.3375606684
0.1732593014 1.5908468131 0.1928005071 -0.0007163120 0.0017098581 -0.3377070418
-0.2019971225 1.5942856217 0.3981671709 -0.0004459629 -0.0017271811 -0.3370797108
-0.3021626783 1.5716863116 -0.1590999774 -0.0007489267 -0.0017120681 -0.3376505464
-0.0602487083 1.5194393281 0.1741511679 -0.0005907386 -0.0016954016 -0.3369522812
-0.0840680469 0.0902261671 0.3275887427 -0.0005815214 0.0016294749 -0.3367475898
-0.1201636589 1.5925161593 -0.3143403265 -0.0005076004 0.0016483692 -0.3376088632
-0.2858333008 1.5126123617 0.4307614486 -0.0006236063 -0.0016302146 -0.3367809459
-0.2659293066 0.0778587078 0.2354627056 -0.0009344389 0.0016274100 -0.3369916960
0.0313164711 1.1163437187 0.0110247496 0.0009276283 -0.0000251175 -0.3385903398
-0.4531336544 1.5022735769 -0.1187890211 -0.0003779713 0.0017694624 -0.3374034463
0.3371897492 1.6157238300 0.1038725752 -0.0005143721 0.0017612043 -0.3374297883
-0.1298441046 1.8081488687 -0.4199178397 -0.0003852226 0.0002945376 -0.3391468233
-0.4046181043 0.6285454661 -0.1147565932 -0.0017470026 -0.0007844487 -0.3379276053
-0.2039525465 1.5503640968 -0.0811699231 -0.0007475979 -0.0017158601 -0.3376148581
-0.1796160136 1.5940670311 0.4941366926 -0.0007527576 0.0008152940 -0.3359080807
0.0520129296 0.0783938516 -0.2850049933 -0.0002735412 0.0016264757 -0.3380902419
-0.0054680599 0.4630237283 -0.0118223649 -0.0005184507 0.0000075379 -0.3391624423
-0.0001359425 0.7923585455 0.0836680979 -0.0004929457 -0.0000024065 -0.3356414174
0.2815086798 1.5956788150 0.4606212876 0.0001806232 0.0008268397 -0.3359796396
-0.2607978231 1.5925161593 -0.2092240042 -0.0002554732 0.0016969976 -0.3372478380
-0.4492140315 1.5825113092 0.3829080420 -0.0014564321 0.0004912346 -0.3363425121
0.1943383849 2.1689427279 -0.4548194646 -0.0003669157 -0.0005936086 -0.3390697703
-0.3137897326 1.6172886329 0.3732760601 -0.0004385329 0.0017524791 -0.3372094142
0.0953960107 1.5607114121 -0.2087734584 -0.0002307078 -0.0017225115 -0.3377790041
-0.1171981567 1.6001093825 0.4356797419 -0.0004268085 -0.0007977055 -0.3366946333
0.0340229240 0.6595772607 0.4516365998 -0.0004015866 0.0017321090 -0.3374909462
0.1107722709 1.5629481878 0.5157704318 -0.0001173897 -0.0001062297 -0.3356755079
-0.0003085677 0.6211044148 0.3277388090 -0.0004268386 -0.0017568674 -0.3373595106
-0.1649419027 1.9850808539 -0.3975395779 -0.0003883811 0.0001439210 -0.3356404584
0.3579589008 1.5717940948 0.0002805898 0.0000618498 -0.0017125954 -0.3374484420
0.0231344256 1.7904470094 -0.4231793818 -0.0003769840 0.0003514418 -0.3391372293
-0.0358565612 1.1219295559 0.0640411484 -0.0018775535 -0.0000271825 -0.3364733054
0.2927374599 1.5666008359 0.1433908831 0.0000179017 -0.0017184258 -0.3372657591
0.2481878909 1.5747191524 0.3384960911 -0.0000905611 -0.0017092741 -0.3370501891
-0.0274256551 1.3193797014 0.0726060684 -0.0015483787 -0.0000399987 -0.3360842112
0.1102767966 2.2572028736 -0.4693814713 -0.0003709678 0.0007371563 -0.3357950138
0.2275578155 1.5633146293 0.2029672471 -0.0000509039 -0.0017227504 -0.3371686298
-0.2089456562 1.5547403400 -0.2837280855 -0.0003931692 -0.0017692660 -0.3374218930
0.4412185104 1.5942856217 0.2119598726 -0.0001045770 -0.0017370282 -0.3373740379
0.0316367278 1.5499840464 0.2728310424 -0.0003187315 -0.0017156354 -0.3369808014
-0.2855650573 1.6172885249 -0.2140516320 -0.0005848339 0.0016946814 -0.3376149236
0.0110002311 1.6112286771 0.5033297646 -0.0003555717 0.0012758479 -0.3362173562
0.4140959430 1.6172887408 0.1857567851 -0.0001222008 0.0017224407 -0.3374368113
0.0013451259 1.5548176673 -0.2881111501 -0.0003828020 -0.0017692359 -0.3374210861
-0.3178245634 0.6212782928 -0.1427568847 -0.0004113522 -0.0017494551 -0.3374475130
0.2238933420 1.6172886329 0.3785000457 -0.0003504385 0.0017437875 -0.3372313573
0.0696380898 0.6322726333 -0.3469257410 -0.0006577994 -0.0005299274 -0.3358775840
-0.0354479057 1.9178106108 -0.3934779575 -0.0003811068 0.0000444347 -0.3356354667
0.3273288626 1.5692652889 0.1177915663 0.0000421539 -0.0017153292 -0.3373031107
0.0051636133 1.9223969140 -0.4142246511 -0.0003769574 -0.0000425237 -0.3391719302
0.4945650909 1.5462226417 0.3277666179 0.0008704923 -0.0005592846 -0.3376149484
0.2198327656 1.5115532111 0.4148095026 -0.0005344555 -0.0016647474 -0.3378949357
-0.2835743591 1.5664695082 0.1662006832 -0.0007617960 -0.0017184930 -0.3372342238
0.2549932858 1.5934619104 0.2777541964 -0.0003099178 -0.0017648052 -0.3373373144
-0.4126079543 0.0010317452 -0.1060164576 -0.0015654452 -0.0010412048 -0.3378841456
-0.0170743726 0.1735128582 0.1306500850 -0.0005201812 0.0015727707 -0.3366108900
-0.2863948715 1.5850326640 -0.0360686110 -0.0007180938 -0.0017326806 -0.3374941242
0.4168007079 0.6193465619 0.1005814813 0.0002562270 -0.0015095726 -0.3373412851
0.2011760972 1.5898911247 -0.0651479118 -0.0007925882 0.0017079523 -0.3371993707
0.1836851738 1.6024686297 0.2416121378 -0.0006494122 0.0017221187 -0.3377044283
-0.0628581027 1.5496575646 0.1919209056 -0.0005309573 -0.0017200979 -0.3370198587
-0.0404710148 0.2991335374 0.0082130650 -0.0017795943 0.0000132657 -0.3384711382
0.0776012917 1.5131011668 -0.0633036878 -0.0000617967 -0.0016913052 -0.3378077596
-0.2191450534 1.5907240177 -0.0342826519 0.0000461440 0.0017112241 -0.3372543992
0.2255833715 1.7623542016 -0.4088402318 -0.0003635821 -0.0004069533 -0.3356818974
-0.2148656033 0.1219855806 0.0959708780 -0.0010292591 0.0016345586 -0.3372232443
-0.1944731684 0.6221938587 0.4217087745 -0.0008816382 -0.0012993799 -0.3363863753
0.2377867910 0.6269329797 -0.2769124473 -0.0012309725 -0.0009075396 -0.3362956478
0.1332615027 0.6433702220 0.4102195809 -0.0009394766 0.0003926897 -0.3389153882
-0.3409330098 1.5942856217 -0.1267447311 -0.0007376676 -0.0016915229 -0.3375748205
-0.1169808349 2.2256415567 -0.4553114547 -0.0003835027 0.0006887031 -0.3357740510
0.0603473311 2.1661589354 -0.4537884484 -0.0003753277 -0.0005847047 -0.3390730544
-0.4692448997 1.5005448299 -0.1610061273 -0.0019956616 0.0006812448 -0.3374192742
-0.3269910404 1.5277274192 0.4350970844 -0.0009398287 -0.0011345545 -0.3361885653
-0.2120994009 2.2273647955 -0.4773895591 -0.0003899258 -0.0006882572 -0.3390330486
0.0000447479 1.4996431437 -0.0522439002 -0.0003431147 -0.0016823712 -0.3379472888
-0.3855363351 0.0474502487 0.1625142861 -0.0010480349 0.0016220874 -0.3371893131
-0.2742177763 0.0678429366 -0.1851179951 -0.0009132355 0.0016260669 -0.3378462437
0.0386924981 1.5535878786 0.0170357266 -0.0003975610 0.0017692961 -0.3373948467
0.0233813258 1.5962998114 -0.2102634041 -0.0004242162 0.0017142676 -0.3369677746
0.1836869149 1.7835576182 -0.4247103614 -0.0003674041 0.0003673351 -0.3391335081
-0.4081322974 0.6186911672 0.1450727040 -0.0008900962 -0.0015437710 -0.3372576904
-0.3018425136 0.0558771524 0.2768487820 -0.0009297003 0.0016239117 -0.3369735307
0.0903533684 2.2411003765 -0.4830008039 -0.0003729885 -0.0007484985 -0.3390064855
0.2168093365 1.5444972443 0.0142844692 0.0000596787 -0.0017119389 -0.3374505777
0.2449666731 1.5370413968 0.4732779549 0.0000940752 -0.0008806951 -0.3359817311
0.2214466958 1.5478955534 -0.0181107387 0.0000392378 -0.0017143330 -0.3375133848
0.3177169695 1.6223708686 0.3792762912 -0.0005287260 0.0016976382 -0.3377415003
-0.2366415931 1.6211544712 0.4469518013 -0.0005676488 0.0016553639 -0.3368399964
0.0009470747 0.0335757897 -0.3872163308 -0.0003597299 0.0015039298 -0.3383183008
0.2646121453 1.5820640847 -0.4258629857 -0.0003613472 -0.0010957697 -0.3387816275
-0.0445711016 0.5109638580 0.0154957086 -0.0019789154 0.0000096400 -0.3381507310
0.2766151183 1.5639781777 0.1107475470 0.0000164737 -0.0017216568 -0.3373055420
0.2163520932 2.2731811704 -0.4997386071 -0.0003680429 -0.0007870179 -0.3389881521
-0.2765506161 0.0755731976 -0.1517772802 -0.0009424847 0.0016270561 -0.3378073739
0.3448450169 1.5473488603 0.4379637126 0.0003496847 -0.0005696306 -0.3359107597
0.1012551466 1.5172416469 0.1372458782 -0.0000195260 -0.0016942850 -0.3370519709
-0.3273329678 0.0771273908 0.0993716715 -0.0010629939 0.0016267960 -0.3372875377
0.1186669875 1.5628977528 0.0073088131 -0.0007407748 0.0017269988 -0.3373035301
0.0252707471 0.4279506478 -0.0045726615 0.0005421863 0.0000087677 -0.3389114494
0.1471914433 1.5671364044 -0.2393113589 -0.0001837038 -0.0017184541 -0.3377744778
0.4111560096 0.0371584733 -0.0526287547 0.0004478739 0.0015443319 -0.3375802032
-0.0007060633 0.6563612009 0.2271124073 -0.0004773160 0.0017517023 -0.3373685083
0.3352795633 1.5928665093 -0.0378187951 -0.0002277988 -0.0017606699 -0.3374338634
0.3573866390 0.6566205616 -0.1494417792 -0.0010471962 0.0014754167 -0.3370489628
0.2193122092 2.2463333793 -0.4857308951 -0.0003658399 -0.0007688155 -0.3389970436
0.1194181773 1.5548956440 -0.2967636212 -0.0003750694 -0.0017691563 -0.3374265661
0.3110702795 1.5933812353 -0.1164787243 -0.0002602065 -0.0017630198 -0.3374590216
0.0404374375 0.0361691828 -0.3799418125 -0.0002927346 0.0015286067 -0.3382677225
-0.2306878016 1.6172886329 0.3819730899 -0.0004140790 0.0017410041 -0.3372009950
0.3088904469 1.5921776894 0.4515985847 0.0002538064 0.0007108691 -0.3359344581
-0.4160772207 0.0011525853 0.1748761680 -0.0016678209 -0.0009849960 -0.3370382541
0.1574160305 1.5379304473 0.3982399630 -0.0007215885 -0.0008911950 -0.3388647975
0.2243801494 0.1177465644 -0.0188621993 0.0002754434 0.0016338313 -0.3375822346
0.3557337346 1.5746283242 0.1951594305 0.0000405614 -0.0017089362 -0.3372173148
0.2327393039 1.5925161593 -0.2626262307 -0.0001043859 0.0016156271 -0.3378437576
-0.2161797671 1.5467270005 -0.0259198257 -0.0007950460 -0.0017133510 -0.3375271211
-0.0044914052 1.5609176908 -0.3894733898 -0.0003778209 -0.0017110047 -0.3378461322
-0.1705306966 2.3012178173 -0.4915950474 -0.0003857428 0.0008197017 -0.3358355982
-0.1892644108 1.5935838423 0.3343632763 -0.0004308570 -0.0017649998 -0.3373201613
-0.1054088321 2.3125817330 -0.4968854250 -0.0003852739 0.0008279315 -0.3358402555
-0.3538172317 0.0645717297 -0.0422352971 -0.0010565141 0.0016247257 -0.3375719328
-0.0328128205 0.6183337428 -0.3781312544 -0.0004522038 -0.0015694034 -0.3378686256
0.0275143865 1.5661893581 0.3456666570 -0.0003370773 -0.0017195618 -0.3369912447
0.1998633101 1.5743575699 0.3693754997 -0.0001444819 -0.0017094652 -0.3370125155
-0.4318541527 0.6431651307 -0.0158181277 -0.0019808725 0.0003793887 -0.3376103319
-0.0716347565 1.5454100551 0.4073783321 -0.0002128380 -0.0006732681 -0.3390254523
0.1116294621 1.5788466730 0.2836228839 -0.0001920964 -0.0017136182 -0.3370043246
0.3516313759 1.5925161593 0.1114853456 -0.0006011731 0.0017006108 -0.3374547820
-0.1781513924 1.6172887408 -0.3238924738 -0.0006381389 0.0016385717 -0.3379673988
-0.0029484428 0.8528235281 -0.0041018925 -0.0004662109 -0.0000052482 -0.3391524520
-0.4395396604 1.5143326844 0.3044315087 -0.0004752581 -0.0015313883 -0.3381714178
-0.0180174854 1.5601615871 0.5223527806 -0.0004178125 -0.0002895938 -0.3356777233
-0.3023981973 0.0668025317 0.2302929894 -0.0009731725 0.0016253326 -0.3370390680
-0.2254090193 0.6269424304 0.3658140018 0.0004195484 -0.0009098523 -0.3385540959
0.0163949397 0.1828493523 0.1088840448 -0.0002025681 0.0016170745 -0.3367142496
0.2590034379 1.5942856217 0.3222610790 -0.0003271878 -0.0017619404 -0.3372966858
0.4820693439 1.5573970180 0.2809746304 0.0002308582 -0.0002988976 -0.3386002505
0.2617384428 0.0927876426 0.1709626480 0.0002313625 0.0016297846 -0.3370877512
-0.0379366846 0.3518657907 0.0739389159 -0.0017310084 0.0000091817 -0.3362704719
0.2281479241 2.1515811734 -0.4483892736 -0.0003655709 -0.0005642409 -0.3390803641
0.0522540012 1.6233726710 -0.4455130125 -0.0003744147 -0.0003911467 -0.3391218173
-0.0224058229 1.5535879865 0.0003554877 -0.0003718224 0.0017694022 -0.3373938151
-0.3065798546 1.5942856217 0.3788657317 -0.0004545324 -0.0017480678 -0.3371587261
0.1194139253 1.5713173857 0.2514759953 -0.0001404635 -0.0017037198 -0.3369904379
0.0489950956 1.9072854203 -0.3929884162 -0.0003758214 0.0000340852 -0.3356349996
-0.3923789630 0.0317767861 0.2160790785 -0.0012336727 0.0014956434 -0.3370393157
0.0556627519 1.5606578434 -0.0580759492 -0.0005459305 0.0017362602 -0.3371188495
0.0713981971 2.1084287117 -0.4160313129 -0.0003728629 0.0004038975 -0.3356813949
-0.0882240133 2.0491113298 -0.4248487298 -0.0003825277 -0.0002654052 -0.3391520114
0.3512457923 1.5925161593 -0.1048911839 0.0000120093 0.0016264969 -0.3375870387
0.0610758347 2.0174584291 -0.4007773278 -0.0003733318 0.0002080711 -0.3356469558
0.0964098878 1.8268815832 -0.4166599639 -0.0003725196 0.0001878479 -0.3391611436
-0.2616719429 1.5763035025 -0.3161417436 -0.0003858207 0.0017692412 -0.3373811122
0.1699573677 2.1437704408 -0.4459482701 -0.0003684675 -0.0005369929 -0.3390887566
-0.0145292752 0.0540139386 -0.3483192829 -0.0004035684 0.0016222449 -0.3381074269
0.2341618455 0.1091125841 -0.0581639959 0.0002413246 0.0016325679 -0.3376874150
0.0019779865 1.5656402886 0.3428877252 -0.0003744448 -0.0017202926 -0.3369903565
-0.1072335973 2.3356903670 -0.5156012111 -0.0003868222 0.0016931366 -0.3371597860
0.4033830214 0.0468377759 -0.0027959904 0.0003225695 0.0016218114 -0.3374757059
-0.4709933020 1.6223838299 0.3252900305 -0.0008442848 0.0016601751 -0.3372329604
-0.0095634541 0.6527624983 0.1904556775 -0.0013299403 0.0014667870 -0.3373679314
-0.2280890930 1.9621983696 -0.4151723132 -0.0003895277 -0.0000839238 -0.3391707836
-0.0338633344 0.0916687691 0.3341641251 -0.0004534513 0.0016299633 -0.3367216654
0.1378367627 0.1334100155 0.1753459656 0.0001190901 0.0016370500 -0.3369532420
0.4277770122 1.5485467899 0.2784887003 -0.0005838430 -0.0005517272 -0.3389859491
0.0374833023 1.5935610534 0.2775952209 -0.0004479571 0.0017124592 -0.3378423438
0.0653040589 1.5760585612 -0.2937142518 -0.0003688834 0.0017692925 -0.3373877512
-0.1820482954 0.0609488545 -0.2836520305 -0.0007125837 0.0016250477 -0.3380150291
-0.2047314657 2.2990686300 -0.5124523660 -0.0003841786 -0.0007517048 -0.3390042489
0.0270176064 1.5942855138 -0.3177103030 -0.0003695009 -0.0017586014 -0.3375361861
-0.2521339478 2.3207114962 -0.5021200486 -0.0008500657 0.0011196185 -0.3362201449
0.2722102009 1.5591557875 -0.2457052883 0.0008887390 -0.0012130886 -0.3373950060
0.0925696661 1.5015541931 0.0600576710 0.0001403891 -0.0016846981 -0.3372621795
0.0376966818 1.0905008637 0.0575510046 0.0012273964 -0.0000217644 -0.3366629458
0.1401750577 1.7509860763 -0.4332150046 -0.0003693558 0.0004841461 -0.3391049507
0.2676467662 1.5749934704 -0.3458349665 0.0000298048 0.0015992631 -0.3373850262
-0.0471491429 0.0359314219 -0.3799945266 -0.0004697126 0.0015170397 -0.3382845802
-0.4318078476 1.6172886329 0.2266510872 -0.0007054263 0.0017116399 -0.3374272137
-0.0428450689 1.4117939362 0.0376249770 -0.0021429764 -0.0000467598 -0.3374565355
0.3318385676 1.5942856217 -0.1255145088 -0.0001111912 -0.0017170934 -0.3375310759
0.1591877330 1.5512555236 0.0999577298 0.0000199259 -0.0017171040 -0.3372528845
-0.4027138585 1.5422523680 0.2941139469 0.0000317548 -0.0007150911 -0.3388886145
0.2162817730 0.1180576695 0.1199545784 0.0002626484 0.0016338632 -0.3371821892
0.0308252471 0.4992531577 0.0797902715 0.0007047114 0.0000084279 -0.3360090993
0.2477602136 1.6071602319 -0.1213347962 -0.0006797832 0.0017325939 -0.3372147774
0.0368878004 0.7091859829 0.0046790009 0.0008979066 0.0000042909 -0.3386153617
0.4714355579 1.5498103825 0.2563962314 -0.0002162531 -0.0005466382 -0.3390480024
0.0630573406 2.1896209433 -0.4405693062 -0.0003726134 0.0006214547 -0.3357477002
0.3910610444 0.0382935710 -0.1145575092 0.0003966108 0.0015531297 -0.3376978123
-0.2915726865 1.6172886329 -0.1872209604 -0.0004652324 0.0017236015 -0.3374777213
0.0362161107 1.0659219251 0.0177316756 0.0011929114 -0.0000215556 -0.3382099478
0.4315970321 1.5136888991 0.3579286404 0.0001316392 -0.0015404267 -0.3367385531
-0.0160793118 1.4043182159 0.0802344455 -0.0008747709 -0.0000453796 -0.3357065602
-0.0724832668 0.1044712153 0.2946310492 -0.0005781736 0.0016318672 -0.3367521479
-0.2056492982 1.6168559869 0.4646187774 -0.0006193278 0.0015033636 -0.3365751468
0.1251883712 1.5668459950 0.3270524717 -0.0002081631 -0.0017187531 -0.3370205807
-0.3531835996 1.6172886329 0.2101664340 -0.0003617294 0.0017655413 -0.3373870753
0.2423149373 1.5885499889 0.2369913283 -0.0001456533 -0.0017428922 -0.3372075987
-0.0968291018 1.5846732419 -0.3970392978 -0.0003821030 0.0016038991 -0.3366677587
0.3284805137 0.6181646707 -0.2206980371 -0.0000532148 -0.0015814783 -0.3377026253
0.2360780795 0.6334963741 -0.1167786924 -0.0011024476 -0.0004941507 -0.3388931213
0.0026886716 1.5305849753 -0.0012017844 -0.0003744554 -0.0017691227 -0.3374260954
-0.0448086944 0.5650694034 0.0628943829 -0.0019732018 0.0000049368 -0.3366492165
-0.3565403016 0.6283099188 0.2829611174 -0.0015899168 -0.0008014444 -0.3365782770
0.1016346839 1.5198174339 -0.0684099812 -0.0000354140 -0.0016957944 -0.3377635054
0.0333987550 1.5942856217 -0.3663980023 -0.0003115262 -0.0016264721 -0.3380813681
-0.0115230240 0.2477693936 -0.0110564601 -0.0007183805 0.0000116484 -0.3391292525
-0.2029057627 1.5555343527 -0.0536039639 0.0000156810 0.0017124397 -0.3372001864
-0.1965301932 0.6273410567 -0.3045252530 0.0003234046 -0.0008759122 -0.3361660683
-0.0852646405 0.6495720868 0.0049111721 -0.0010249859 0.0012006793 -0.3363101450
0.0470278321 1.5278521574 0.1559391195 -0.0005731395 0.0017059175 -0.3378297204
0.0788527882 2.0357241541 -0.4026038943 -0.0003719428 0.0002393534 -0.3356505620
-0.1539569049 0.6163935344 0.4231230811 -0.0003167108 -0.0017234051 -0.3374833535
-0.3260071928 1.5683074435 0.0704300437 -0.0008016036 -0.0017167820 -0.3373639095
0.1881876151 1.5817349010 -0.0107773080 -0.0008123956 0.0017106632 -0.3372793504
-0.0733831446 2.1145341355 -0.4176069236 -0.0003824870 0.0004077620 -0.3356826955
-0.0866498871 1.5556355482 0.2079119460 -0.0005952932 -0.0017105446 -0.3370063330
0.2838660638 0.0829163409 0.1809332607 0.0002362869 0.0016281390 -0.3370891102
-0.1460690184 2.0984458950 -0.4338617396 -0.0003855588 -0.0003749296 -0.3391321916
0.0131497492 0.8143275696 0.0806691440 0.0000824605 -0.0000037247 -0.3356955736
0.3439486762 1.5888031389 0.3221845073 -0.0011165839 0.0006407276 -0.3388765645
0.1490549048 2.3000596316 -0.4900089951 -0.0003708758 0.0008214711 -0.3358367024
-0.3531923743 1.5453508718 0.4337961226 -0.0011125654 -0.0006344761 -0.3359284791
0.0056397650 1.6168810425 0.3909387152 -0.0003796771 0.0017654263 -0.3375106527
0.0376207648 1.5305848674 0.0651738999 -0.0003536306 -0.0017691740 -0.3373899595
-0.4897465900 1.5407275249 0.3050049313 -0.0012993534 -0.0007340438 -0.3380275145
0.3545935851 1.6172886329 -0.0012267585 -0.0004388532 0.0017518810 -0.3374045770
-0.0342640026 1.9413704665 -0.4146764001 -0.0003791445 -0.0000679155 -0.3391711127
-0.2170978172 0.6173371250 -0.3079837204 -0.0002593536 -0.0016475694 -0.3371506999
0.1714806325 1.8202221230 -0.3979525616 -0.0003702671 -0.0002149490 -0.3356484971
0.3752287088 1.5942856217 0.2047841753 -0.0002925665 -0.0017652440 -0.3373418407
0.0210619888 1.5538377886 0.0914840965 -0.0004365653 0.0017632321 -0.3375293506
-0.4257013444 0.6562284700 0.0383480607 -0.0012385830 0.0014323055 -0.3374196688
0.1466306688 1.5450861638 0.2042305707 -0.0000880449 -0.0017121955 -0.3370734168
-0.0889543854 1.5451606847 0.1552098533 -0.0006124251 -0.0017269670 -0.3370980318
0.1604323056 1.5745590975 0.2824921851 -0.0006132957 0.0017166776 -0.3377602018
-0.2376261963 1.5548996394 -0.3008079523 -0.0003940805 -0.0017692501 -0.3374239048
-0.3175788116 1.6147396303 -0.0784120497 -0.0001925830 0.0017559614 -0.3373379497
-0.3311705637 1.6172886329 0.2253652454 -0.0003480886 0.0017662756 -0.3374017317
-0.0152183038 0.4301463295 0.0888087613 -0.0009489839 0.0000097143 -0.3357361987
-0.0445723845 0.5401919547 0.0154989485 -0.0019789437 0.0000088102 -0.3381506832
0.2608762563 1.5705842869 0.1274544890 -0.0007852786 0.0017158229 -0.3375399798
0.0774556136 1.7431155093 -0.4146049705 -0.0003722294 -0.0004987548 -0.3357061798
-0.3706512352 0.0567384577 0.1326178882 -0.0010576820 0.0016234393 -0.3372313856
-0.1071123272 2.0623706335 -0.4071000310 -0.0003842954 0.0002826292 -0.3356577814
0.0362409982 0.6305603564 0.4333191445 -0.0005101236 -0.0006441799 -0.3388988137
-0.0378349228 1.3527445004 0.0590952622 -0.0019462936 -0.0000429484 -0.3366015507
-0.3163019074 0.6416904519 -0.1629736739 0.0003800469 0.0003061205 -0.3389229279
0.3720421866 0.6558019251 -0.1666406458 0.0004949239 0.0013665770 -0.3378611673
-0.0316937682 0.6390834003 0.0797058416 -0.0014458419 0.0000055597 -0.3359996327
-0.0013490558 1.5128710199 0.4887986050 -0.0003787658 -0.0016636786 -0.3368021087
-0.3572316323 1.6172886329 0.1844739143 -0.0003532997 0.0017655395 -0.3373945300
-0.2463554392 0.6178118364 0.3774488877 -0.0005760768 -0.0016236746 -0.3370964853
-0.0085568583 0.1467351325 0.2003189935 -0.0003949936 0.0016392424 -0.3367399280
-0.2689821264 2.2530433842 -0.4693101778 -0.0007874798 0.0006733636 -0.3359228610
-0.0991822550 1.5900632774 0.3473138637 -0.0004492594 -0.0017487155 -0.3371584324
0.1466785929 0.0474062953 0.4173531579 -0.0001217638 0.0016226129 -0.3367470660
0.2533341440 1.7594923262 -0.4303795473 -0.0003636670 0.0004472281 -0.3391151959
-0.1746730010 0.0785616285 0.3179897011 -0.0007379295 0.0016284362 -0.3368138296
0.1124919194 0.0606965150 -0.3136840913 -0.0001609096 0.0016238710 -0.3380686191
-0.1740989980 1.6785730076 -0.4504509291 -0.0003895224 0.0000629345 -0.3391701590
-0.1428076657 1.5422184563 -0.1183584684 -0.0006733795 -0.0017103323 -0.3377375332
-0.0281690805 1.6172886329 0.4148760840 -0.0003924703 0.0016754208 -0.3370827967
0.3384438646 0.6496028666 -0.1718565857 -0.0010774274 0.0009856808 -0.3386467095
-0.1211412020 1.5551546260 -0.3255105321 -0.0003875707 -0.0017692058 -0.3374262529
-0.1814774775 1.6108098560 -0.2171999497 -0.0002032139 0.0017426763 -0.3371578733
-0.3055751361 1.5707212291 -0.1326493015 -0.0007614704 -0.0017131776 -0.3376181706
0.1624787048 1.5714197704 0.3574167243 -0.0001759872 -0.0017134395 -0.3370137045
-0.1901417032 1.5908677635 0.3079080104 -0.0004986310 -0.0017528171 -0.3372259799
-0.2527477353 0.6597214400 -0.2860628664 -0.0003278425 0.0017424693 -0.3373660983
0.4010918418 0.0334535747 0.1847259848 0.0004610847 0.0015144139 -0.3370856420
-0.2897624009 0.0333814514 0.3547099352 -0.0010053077 0.0015066884 -0.3367469085
0.3929824629 0.6267186023 0.0882028319 -0.0017762465 -0.0009224261 -0.3375800139
0.0099064290 0.1710303025 0.1367440056 -0.0003025108 0.0015608410 -0.3365771410
0.0049227612 1.2337049544 0.0824033977 -0.0000542429 -0.0000341772 -0.3356675205
0.0101238376 1.7693687646 -0.4073634952 -0.0003762815 -0.0003978707 -0.3356801740
0.0218985039 1.3281686937 0.0019700513 0.0005855452 -0.0000453212 -0.3388801140
-0.1541688936 1.5725354040 0.0866501517 0.0000447762 0.0017129935 -0.3375367629
-0.2282751750 0.0917774017 0.2278995066 -0.0009096806 0.0016299774 -0.3369704306
-0.1461533669 2.0127209271 -0.4003035808 -0.0003871584 0.0001854839 -0.3356443176
-0.3358729666 1.5942856217 0.3747812480 -0.0004650306 -0.0017524083 -0.3371854751
0.1908546744 1.5846108188 0.1185836874 -0.0008020265 0.0017095307 -0.3375717947
-0.1545891604 0.1021436998 0.2618525776 -0.0007665807 0.0016324405 -0.3368443387
-0.0308054061 0.0790879498 -0.2852620785 -0.0004409005 0.0016268296 -0.3380934889
0.2682347692 1.5942856217 0.4067473453 -0.0002898769 -0.0017305413 -0.3370530184
-0.1041859354 1.7556655824 -0.4104216145 -0.0003843255 -0.0004718643 -0.3356984260
-0.2182442714 1.9969361652 -0.4184457956 -0.0003898833 -0.0001502981 -0.3391653000
0.2808892760 0.0553120410 0.3041805193 0.0001312605 0.0016242745 -0.3369230214
0.0935662361 1.5592663789 -0.1390996466 -0.0001566806 -0.0017068641 -0.3378132662
-0.0714748909 2.3029669769 -0.4921971158 -0.0003817474 0.0008243784 -0.3358381728
0.0271809950 1.7357907737 -0.4170465349 -0.0003758409 -0.0005088956 -0.3357089419
-0.3779781048 0.6163091328 0.2110711991 -0.0004621110 -0.0017284551 -0.3373362864
-0.0657571846 1.5456674181 0.5168461075 -0.0005251464 -0.0006600590 -0.3357746509
-0.3284095317 1.5942856217 0.2666210770 -0.0004443775 -0.0017646335 -0.3373240541
-0.2337559025 1.7016430867 -0.4463797358 -0.0003900939 0.0002920392 -0.3391448539
0.3908462882 0.6367468871 0.0253999842 -0.0020815602 -0.0001521561 -0.3373541827
-0.1649870063 1.9252783385 -0.3938252906 -0.0003894374 0.0000438880 -0.3356358082
-0.1348645383 1.5233522553 0.1241873996 -0.0008009949 -0.0016984344 -0.3371596002
-0.2145837527 1.7823054740 -0.4249886217 -0.0003909132 0.0004006895 -0.3391256358
-0.2916535244 0.6218008487 0.3521216753 -0.0010818847 -0.0013301668 -0.3366052294
-0.3165436903 1.5942856217 0.3582472392 -0.0004515473 -0.0017536523 -0.3372041500
0.4022266175 1.6172886329 0.1656650067 -0.0001789723 0.0017315658 -0.3374290841
-0.1187628392 1.5758399706 -0.2689857494 -0.0003808343 0.0017692465 -0.3373812944
-0.1160512301 0.1503267608 0.1379813534 -0.0008753654 0.0016397307 -0.3369666315
-0.0518655440 1.8830170878 -0.4137571556 -0.0003813899 0.0000246256 -0.3391721408
-0.1804976394 0.0681254897 0.3439144203 -0.0007300943 0.0016266119 -0.3368048974
-0.2147795561 1.5925161593 0.3548866213 -0.0006164895 0.0016209762 -0.3370033638
0.1693706618 1.5284780145 0.0752597223 0.0000847006 -0.0017018725 -0.3372898061
0.1261263597 1.5084902398 0.4582107950 -0.0003639147 -0.0017444971 -0.3372807217
-0.0974672106 2.2069278498 -0.4692146516 -0.0003835115 -0.0006531847 -0.3390474538
0.2577692484 1.6134121017 -0.1666269431 -0.0005634216 0.0017513183 -0.3372639047
-0.1399074354 1.6068987655 0.2987087276 -0.0002110261 0.0017320772 -0.3377196563
-0.0876424016 1.6172887408 -0.3594531083 -0.0005139987 0.0016274825 -0.3380688456
0.1492493705 1.5886226732 0.3142900189 -0.0002330276 -0.0017435115 -0.3371403680
0.1497234484 0.6583069725 -0.3508606095 -0.0002239325 0.0016160659 -0.3377662940
0.0061461923 2.2352347113 -0.4595324507 -0.0003764071 0.0007092625 -0.3357826347
0.3031896442 1.6110568500 -0.0497009987 -0.0006640155 0.0017430532 -0.3373203294
-0.1629771500 0.1173829700 0.2070346130 -0.0008298637 0.0016346966 -0.3369006872
-0.0836586623 0.6472070092 -0.3833207036 -0.0006425431 0.0006949546 -0.3388562210
-0.0742195200 1.5570441836 -0.3665745327 -0.0003829400 -0.0017560216 -0.3376160596
-0.0018559396 1.6027510483 -0.2360207658 -0.0003752021 0.0017171323 -0.3369782994
-0.4165109460 0.0331842306 0.1366639781 -0.0012627875 0.0015097354 -0.3372098618
-0.2559120915 1.6126979025 0.4552129470 -0.0007417162 0.0013569547 -0.3363929559
-0.2650944441 1.7088396283 -0.4450135569 -0.0003913591 0.0003523389 -0.3391372098
0.2122078867 0.0913002608 0.2482644157 0.0001206738 0.0016302075 -0.3369311166
0.0076952274 0.1557794883 -0.0987907835 -0.0003645942 0.0016394688 -0.3380664391
-0.1106651228 0.1279398587 -0.1357671632 -0.0007472723 0.0016359954 -0.3379644756
0.0299483723 0.5985309159 -0.0014638170 0.0006600838 0.0000061666 -0.3388306186
-0.3413144103 0.0654035681 -0.0773329200 -0.0010378622 0.0016250566 -0.3376294739
-0.3447804085 1.5433731862 -0.1192993995 -0.0015275468 0.0009930789 -0.3382365959
-0.1016835476 1.7340313548 -0.4176329772 -0.0003848581 -0.0005011808 -0.3357066257
0.3801813190 1.6095461555 0.4031741850 0.0002171413 0.0012397402 -0.3363133956
-0.1603136968 1.5887755989 0.1962664788 -0.0000516223 0.0017083646 -0.3377284470
0.0871935828 1.5686698896 0.3589909778 -0.0002612505 -0.0017166528 -0.3369938264
0.0183738852 0.0743139792 0.3783794091 -0.0003372188 0.0016269835 -0.3367117192
0.1266855930 1.8106671995 -0.4194798624 -0.0003700654 0.0002643418 -0.3391512010
0.0195633037 2.1941456869 -0.4641539343 -0.0003766938 -0.0006327368 -0.3390557402
0.0120288691 1.3740814053 0.0808933509 0.0001283763 -0.0000452628 -0.3357134381
-0.0309767697 1.5718691554 -0.4145352908 -0.0003799248 -0.0014249339 -0.3384230689
-0.0266951803 1.5662870979 0.1766088574 -0.0003051933 0.0017158813 -0.3378291613
-0.1593972533 1.5944820727 0.2241365909 -0.0000927941 0.0017138163 -0.3377377862
-0.3616767271 1.5942856217 0.3416626874 -0.0004734975 -0.0017587819 -0.3372487511
-0.4176311697 1.5942856217 0.3032630088 -0.0005025662 -0.0017587713 -0.3372981987
-0.1273626565 1.5513370622 0.1541322347 -0.0007043133 -0.0017167324 -0.3371281728
0.1614815066 1.5299473460 -0.0337318819 0.0000489681 -0.0017027059 -0.3376071398
-0.2418776217 0.0901228995 -0.1377760339 -0.0009250307 0.0016295705 -0.3378197389
0.3131870413 1.6106568205 0.0301612731 -0.0006857534 0.0017417774 -0.3373925659
0.1846400500 2.2001711895 -0.4665120349 -0.0003661885 -0.0006483965 -0.3390495967
0.3804012331 0.0568113702 0.0672377955 0.0003197826 0.0016236162 -0.3373469722
-0.0018915836 2.1129728946 -0.4377355900 -0.0003784455 -0.0004299829 -0.3391188039
0.2922439038 1.5942855138 0.2548583209 -0.0003296579 -0.0017676080 -0.3373585179
0.1489295437 1.8026839903 -0.4008755383 -0.0003723851 -0.0002816789 -0.3356573744
0.1943552178 0.0696991628 -0.2527020169 -0.0000031603 0.0016276648 -0.3379867478
0.3419511726 1.5700496898 0.0649502611 0.0000555133 -0.0017144728 -0.3373709908
-0.3566185472 1.5896787980 0.1988829262 -0.0010395291 0.0010587808 -0.3370963207
-0.0362911996 1.1592460545 0.0629545941 -0.0018949969 -0.0000296013 -0.3365051734
0.2707839063 0.6218679697 -0.1132406594 -0.0001339855 -0.0016944354 -0.3370814696
-0.1760549069 0.0779565891 -0.2402419280 -0.0007324813 0.0016278718 -0.3379975380
-0.2376263326 2.0193341636 -0.4207430303 -0.0003914210 -0.0001917230 -0.3391616602
0.1030379472 1.5783200686 -0.3743609405 -0.0003730292 0.0017339334 -0.3370682748
0.2980157964 1.5693787964 -0.1183103267 0.0000039353 -0.0017149594 -0.3376060551
0.0092117629 1.5749606380 -0.1750767365 -0.0003741121 0.0017690377 -0.3373706936
0.2869853040 1.5660007918 -0.0635482788 0.0000140832 -0.0017192008 -0.3375437364
0.2603755445 1.5120203084 0.4367281448 -0.0001800163 -0.0016437633 -0.3368401309
-0.4514710304 1.5446171236 0.2679081061 -0.0003646880 -0.0006815951 -0.3389861030
-0.0875269583 1.5765909977 -0.3524994361 -0.0003752640 0.0017682928 -0.3373619223
0.1235518698 1.5942855138 -0.3300642188 -0.0002199937 -0.0016721756 -0.3378671923
0.3502669929 0.0701684473 0.0413472039 0.0003188571 0.0016259979 -0.3373994155
0.1349421894 1.5712372503 0.3699731674 -0.0002106173 -0.0017139774 -0.3369977086
-0.0414094333 1.5084509276 0.4608760583 -0.0003666998 -0.0017455764 -0.3375497596
-0.2203238533 1.6187201651 0.4055821402 -0.0001527382 0.0015781322 -0.3381180296
-0.0513071265 1.4905194611 0.0007263033 -0.0008037730 -0.0016772203 -0.3377702736
-0.1524309807 1.5240725026 0.0898173425 -0.0008403743 -0.0016992147 -0.3372560041
-0.1210602154 1.5979509056 -0.1857995530 -0.0001754864 0.0017163697 -0.3370246982
0.2013241906 1.5549088194 0.1295760832 -0.0007746742 0.0017122981 -0.3376017146
-0.2198282711 1.6094102909 -0.1754090363 -0.0001448022 0.0017385251 -0.3371731030
-0.0280498878 1.5305849753 0.0249843216 -0.0003941159 -0.0017692253 -0.3374118460
0.0986793065 1.5942856217 -0.3101783758 -0.0003261526 -0.0017455835 -0.3375799750
-0.0318728148 1.3916462127 0.0681589228 -0.0016767320 -0.0000446081 -0.3362089247
-0.1849690037 1.6172886329 -0.2715376274 -0.0003627911 0.0017464222 -0.3374012947
-0.1609268898 1.5691712225 0.3336620897 -0.0005823318 -0.0017161556 -0.3370274090
-0.0093800900 1.5541110272 -0.1428777779 -0.0003955527 -0.0017140711 -0.3378415334
0.2410559064 1.8077378244 -0.4000332512 -0.0003664114 -0.0002530190 -0.3356538090
0.0576427503 1.5536456586 -0.1639714401 -0.0003843839 -0.0017693899 -0.3374049946
0.3041673890 1.6172886329 0.2708253851 -0.0004040762 0.0017649839 -0.3373906425
0.1153472070 1.5851529750 0.2133890285 -0.0006330800 0.0017100332 -0.3377794323
0.2668937397 1.5869546222 0.1870074730 -0.0000922208 -0.0017382685 -0.3372465729
0.1221954777 1.6007828664 -0.4158542074 -0.0003733743 0.0009160206 -0.3359003376
-0.1018901783 1.6172886329 -0.3002052522 -0.0003435588 0.0017634126 -0.3372992728
0.2302285872 1.6720503834 -0.4294154911 -0.0003640793 -0.0001022342 -0.3356388446
-0.2514936731 1.5968630277 0.0632701141 0.0000511109 0.0017162794 -0.3374320391
-0.0935247245 1.5602672098 -0.0212015206 -0.0001041930 0.0017371113 -0.3372235150
-0.1932836084 1.5694472692 0.1761576887 -0.0007716856 -0.0017036986 -0.3371339873
-0.4017074661 0.6559381666 -0.1048651286 -0.0012333365 0.0014057936 -0.3377577245
-0.2035711867 0.0599849399 -0.2755207067 -0.0007475731 0.0016251645 -0.3379965082
-0.2333811446 1.5732044608 0.3323881830 -0.0006589726 -0.0017112825 -0.3370553683
-0.1774613039 1.5685819774 -0.2397735549 -0.0006063346 -0.0017162246 -0.3377665188
0.1438735650 1.5870368084 0.3401511808 -0.0005543655 0.0017197706 -0.3377786661
-0.1852882642 1.5942856217 -0.3226863232 -0.0006966993 -0.0016258776 -0.3380065959
0.1725623402 0.1281170456 0.1534258105 0.0001963979 0.0016356981 -0.3370509022
0.3086516597 1.5942856217 0.3212714806 -0.0003122853 -0.0017592721 -0.3372645276
-0.0487789274 2.2367080400 -0.4811268530 -0.0003806237 -0.0007230360 -0.3390179516
-0.0953139784 1.7779381931 -0.4259591382 -0.0003840618 0.0004072488 -0.3391243547
0.2512014535 1.6154524264 0.2716920802 -0.0004794659 0.0017604541 -0.3375007473
0.2000617058 1.8070566716 -0.4001467658 -0.0003690072 -0.0002600278 -0.3356546265
0.2448051070 1.5942856217 0.4052489080 -0.0002913243 -0.0017257991 -0.3370420761
-0.1962782430 1.6172886329 -0.3105856158 -0.0006519036 0.0016440217 -0.3379167072
-0.1813188929 1.5544437746 0.0101259246 -0.0008250331 -0.0017106419 -0.3374681733
-0.0616119305 0.1568914769 -0.0818184594 -0.0006898798 0.0016400015 -0.3379874910
-0.0622563917 1.5264795943 0.1955337568 -0.0005671888 -0.0017000605 -0.3369597589
0.0741304063 2.2282795491 -0.4564721920 -0.0003720065 0.0007011619 -0.3357791701
-0.1292869487 1.5752165979 -0.1992763945 -0.0003780032 0.0017689457 -0.3373660381
0.0091597265 0.0641371940 0.4043495964 -0.0003570262 0.0016251504 -0.3367056358
0.2084859570 0.1085595528 -0.1068370635 0.0001729614 0.0016324476 -0.3378041676
-0.0141522576 1.5196155825 -0.1079726230 -0.0004361973 -0.0016955732 -0.3378980040
-0.0291994916 0.8736558053 0.0081518575 -0.0016046281 -0.0000060551 -0.3386763215
