0.1601071935 0.8292259039 -0.0787710107 -0.0178918715 -0.0192843251 -0.0193319189
0.4326771482 0.3062985479 0.1735113133 -0.0305274820 -0.0011348633 -0.0126256984
-0.3530613683 0.8026057250 -0.1189471638 -0.0306575934 0.0118211370 -0.0118976572
0.0329173113 0.8078719271 -0.1462658787 -0.0297701866 -0.0138056098 -0.0235150554
-0.0178918715 0.8016655756 0.0176218042 -0.0363194712 -0.0032005037 -0.0219823951
0.0307762884 0.8179550450 -0.3664497714 -0.0201861084 0.0000000000 -0.0002106427
-0.1127122040 0.8279798086 0.3109939147 -0.0184183336 0.0184257484 -0.0153324848
0.1793258169 0.8292259810 -0.0128502258 -0.0178918715 0.0192843251 -0.0193319189
0.0788879027 0.8099417330 -0.2034683939 -0.0120360319 -0.0169444037 -0.0168070222
0.4303831427 0.6468079129 0.1349426823 -0.0097399052 0.0000000000 -0.0358987547
-0.0172079144 0.8292259810 0.0192836502 -0.0178918715 0.0192843251 -0.0193319189
0.0343524508 0.8292259810 -0.0140020207 -0.0178918715 0.0192843251 -0.0193319189
-0.3819376589 0.8099416559 -0.0608967362 -0.0346121914 0.0090064934 -0.0222128813
-0.1337437854 0.6898053242 0.3974962621 -0.0151893276 -0.0073752516 -0.0367849659
0.0992251327 0.8292259810 -0.1665636723 -0.0178918715 0.0192843251 -0.0193319189
0.0024627722 0.8292259810 0.0360516794 -0.0178918715 -0.0192843251 -0.0193319189
0.2140148081 0.8292259039 0.1001983258 -0.0178918715 0.0192843251 -0.0193319189
-0.0740308368 0.8292259810 -0.3205003928 -0.0178918715 0.0192843251 -0.0193319189
-0.3157119695 0.8292259810 0.0766985050 -0.0178918715 -0.0192843251 -0.0193319189
0.2740148038 0.8292259810 -0.2155607649 -0.0178918715 0.0192843251 -0.0193319189
-0.1634026918 0.0599101694 0.4925811176 -0.0076767138 -0.0025303927 -0.0038818189
0.4725485510 0.0000000000 0.1926370441 -0.0273481525 -0.0037479086 -0.0065575769
0.1536643197 0.7246832632 -0.4077254202 -0.0042253596 0.0073109576 -0.0294459881
-0.3085293683 0.8292259810 -0.1366793900 -0.0178918715 0.0192843251 -0.0193319189
0.0619666209 0.8099416559 -0.1606810468 -0.0173477257 -0.0190674536 -0.0190987135
-0.1037610566 0.8292259810 -0.0288125752 -0.0178918715 0.0192843251 -0.0193319189
-0.4008803429 0.7035010712 -0.1207630144 -0.0141531808 -0.0065464884 -0.0024927112
-0.1481240488 0.3694696003 0.4526228196 -0.0015852197 -0.0019476590 -0.0288641029
0.4835005821 0.0997582575 0.1825134098 -0.0000453278 0.0012141797 -0.0126346463
0.0729454957 0.8292259810 -0.3181869873 -0.0178918715 -0.0192843251 -0.0193319189
0.0642731033 0.7726908964 -0.3776301096 -0.0133698515 -0.0005380134 -0.0378740482
0.2126505385 0.8153238917 0.0573706359 -0.0092908311 0.0000000000 -0.0365910813
0.1690004686 0.3418416033 -0.4376361606 -0.0063538862 -0.0007151206 -0.0039998776
-0.1354803775 0.8292259810 0.2424561697 -0.0178918715 0.0192843251 -0.0193319189
0.1513597850 0.4839487016 -0.4243027468 -0.0178918715 -0.0017459257 -0.0001267944
-0.0210560050 0.8183145434 0.3772660601 -0.0195035783 0.0076580562 -0.0019589982
-0.4490490774 0.5949703163 -0.1428152187 -0.0346228170 0.0038890313 -0.0246087080
-0.4835706806 0.0273943866 -0.1543221948 -0.0159714034 -0.0003200812 -0.0004052022
0.3902624707 0.7071530017 0.1534028339 -0.0343770190 -0.0097032360 -0.0193319189
-0.3065054784 0.7985445618 0.2127312530 -0.0030905156 0.0000000000 -0.0316919756
0.4349134549 0.4364554199 0.1425211135 -0.0314418869 -0.0024561288 -0.0318340818
0.4583964791 0.3949314661 0.1735113325 -0.0063475417 0.0015737359 -0.0042817951
-0.0407465352 0.8025740794 0.0989655753 -0.0264179538 -0.0147829972 -0.0228545094
-0.1914507978 0.1202545060 0.4724575772 -0.0340074542 0.0007225644 -0.0208363855
0.0679287750 0.8292259810 -0.1245487010 -0.0178918715 -0.0192843251 -0.0193319189
-0.0884416466 0.8165292199 0.2003107785 -0.0348085829 0.0048889043 -0.0217990976
0.2092890878 0.8292259810 -0.1784782997 -0.0178918715 -0.0192843251 -0.0193319189
-0.4614313497 0.3189870361 -0.1438537761 -0.0330762913 0.0010147026 -0.0085268151
0.1715880393 0.2163121208 -0.4813187825 -0.0067259387 0.0023346761 -0.0338473847
-0.1335978224 0.5154677547 0.4419990077 0.0006137526 -0.0003192327 -0.0210896851
-0.0831876129 0.8292259039 -0.3400719001 -0.0178918715 -0.0192843251 -0.0193319189
-0.0209521204 0.8292259810 -0.3240329533 -0.0178918715 0.0192843251 -0.0193319189
0.4642162184 0.0050239138 0.1790014642 -0.0320253534 -0.0049036568 -0.0075267685
-0.0461505430 0.7918456115 0.3844506282 -0.0198264364 0.0075343473 -0.0020051263
0.4473601948 0.0842801953 0.1723493555 -0.0322568810 -0.0020027929 -0.0087753322
0.2380474933 0.8292259810 -0.2073911342 -0.0178918715 0.0192843251 -0.0193319189
0.1556670547 0.6774109798 -0.4175325988 -0.0007251003 0.0024353210 -0.0260778265
0.0750539088 0.8292259810 -0.0692289724 -0.0178918715 0.0192843251 -0.0193319189
-0.4396341613 0.6254620934 -0.1561422880 -0.0278021441 0.0020220001 -0.0352419692
0.0508079197 0.7811464751 -0.3628341725 -0.0197266401 -0.0035600600 -0.0008471218
-0.4475076620 0.5769853883 -0.1403985264 -0.0320537592 0.0002334560 -0.0063373113
-0.2807397880 0.8292259810 -0.2325070971 -0.0178918715 0.0192843251 -0.0193319189
-0.1747218000 0.8099416559 -0.3239417770 -0.0092318789 -0.0104612064 -0.0058327563
0.0480503383 0.7836630988 0.3663545839 -0.0193386780 0.0000000000 -0.0385261669
0.1749513799 0.3415005986 -0.4501225683 0.0001195532 0.0000000000 -0.0228477406
0.3410021663 0.7984043455 -0.1655844143 -0.0007333540 0.0000000000 -0.0278528908
0.2854739548 0.8292259810 0.2110453595 -0.0178918715 0.0192843251 -0.0193319189
-0.3650097240 0.7863617859 -0.0720862344 0.0011816759 0.0000000000 -0.0170770220
0.4613889049 0.2668737507 0.1542270074 -0.0188271420 -0.0008183882 -0.0384229765
0.3079831205 0.8292259810 0.0419667605 -0.0178918715 0.0192843251 -0.0193319189
-0.1686911673 0.8292259810 -0.2261437519 -0.0178918715 0.0192843251 -0.0193319189
0.0013597860 0.8017698845 -0.3793169095 -0.0181813871 0.0049457930 -0.0370886940
-0.0601028487 0.8292259810 0.2475153738 -0.0178918715 0.0192843251 -0.0193319189
-0.2426799739 0.8292259810 0.0310968999 -0.0178918715 -0.0192843251 -0.0193319189
0.0857094627 0.8292259810 -0.1654587190 -0.0178918715 0.0192843251 -0.0193319189
-0.0418532433 0.8292259810 0.1000366267 -0.0178918715 -0.0192843251 -0.0193319189
0.0249063712 0.8292259810 0.1208297575 -0.0178918715 0.0192843251 -0.0193319189
-0.3398612477 0.7854921206 0.1630232052 -0.0006092979 0.0000000000 -0.0276504439
0.2690954882 0.7807301844 0.2529261505 -0.0043066044 0.0000000000 -0.0056494395
0.2433206570 0.8292259810 0.1692598909 -0.0178918715 0.0192843251 -0.0193319189
0.1889338655 0.8292259810 -0.0626689849 -0.0178918715 0.0192843251 -0.0193319189
0.4450769692 0.2141308129 0.1542270074 -0.0178918715 0.0000000000 -0.0386162440
0.3287200182 0.7852321487 -0.1840075979 -0.0016601972 0.0000000000 -0.0293652061
-0.0832510584 0.8292259810 0.3551598596 -0.0178918715 0.0192843251 -0.0193319189
-0.0118563599 0.8292259810 0.0410021007 -0.0178918715 -0.0192843251 -0.0193319189
-0.2715283601 0.8292259810 0.1490132780 -0.0178918715 -0.0192843251 -0.0193319189
-0.0401208745 0.8292259810 -0.1160407267 -0.0178918715 0.0192843251 -0.0193319189
-0.3811831404 0.8039273762 0.0123960992 -0.0369207565 0.0000000000 -0.0162901444
0.1057938366 0.8292259810 -0.2919736498 -0.0178918715 -0.0192843251 -0.0193319189
-0.2354799011 0.7871103069 -0.2838520177 -0.0049943606 0.0000000000 -0.0050213876
0.0186524453 0.8099416559 -0.0336383233 -0.0131637407 -0.0169199705 -0.0175492758
-0.0646667735 0.8292259039 -0.2033893281 -0.0178918715 0.0192843251 -0.0193319189
-0.1528821475 0.2673447125 0.4730697003 -0.0054390571 0.0007852770 -0.0058607764
0.2826352636 0.8084086677 -0.2394815625 -0.0036335236 0.0000000000 -0.0322865885
0.0698245013 0.8292259810 0.0456728607 -0.0178918715 -0.0192843251 -0.0193319189
-0.4457852632 0.2903581055 -0.1540350127 -0.0013982004 -0.0030026273 -0.0102593381
-0.4524768276 0.3367827849 -0.1736065200 -0.0192175146 0.0002651209 -0.0384178661
-0.2243608100 0.8292259810 0.2468256313 -0.0178918715 -0.0192843251 -0.0193319189
-0.1706954257 0.3831908026 0.4696202552 -0.0264154275 0.0017103846 -0.0026120040
-0.2074579833 0.7845355024 0.3117787674 -0.0063816557 0.0000000000 -0.0347107825
-0.2477317921 0.8292259810 -0.0862857651 -0.0178918715 0.0192843251 -0.0193319189
-0.4237974107 0.5123816070 -0.1543221948 -0.0010677827 -0.0015294591 -0.0277414274
0.1467896314 0.1604814540 -0.4732782988 -0.0325660280 0.0000000000 -0.0317200150
-0.0178918715 0.8288998638 -0.0364476252 -0.0315350109 0.0133170607 -0.0214620654
0.4642162184 0.3333604535 0.1632148914 0.0009588263 0.0015134531 -0.0167998677
-0.1689294830 0.6836196262 0.4213181118 -0.0337485814 0.0041818638 -0.0162882545
-0.1335978224 0.5682069706 0.4402098273 -0.0069354629 0.0013208799 -0.0059810913
0.3357970762 0.7820343254 -0.1733920204 -0.0011261371 0.0000000000 -0.0284938053
0.1363827296 0.4352787290 -0.4363016660 -0.0356806972 -0.0003259244 -0.0157467314
-0.1355259849 0.6511078546 0.4149168150 -0.0066965880 -0.0033499573 -0.0327068904
-0.1800567314 0.8292259810 0.0534123739 -0.0178918715 0.0192843251 -0.0193319189
0.0298491945 0.8292260581 -0.3097006500 -0.0178918715 0.0192843251 -0.0193319189
-0.1639687639 0.2997700711 0.4434918845 -0.0171561552 -0.0011073445 -0.0373070697
-0.0129812338 0.8292259810 -0.2890424131 -0.0178918715 0.0192843251 -0.0193319189
-0.0865220463 0.7991644758 0.2714264135 -0.0093104240 -0.0141598821 -0.0182157228
0.1749513799 0.3243956722 -0.4501135818 0.0007803113 0.0000000000 -0.0210226913
0.0833512019 0.8292259810 -0.3024567054 -0.0178918715 0.0192843251 -0.0193319189
0.4938347627 0.0217835158 0.1781048009 -0.0023201261 0.0020492102 -0.0090858869
-0.4263014803 0.5777412181 -0.1640957801 -0.0145377103 0.0013572115 -0.0352042876
0.1717742295 0.0890794467 -0.4467642223 -0.0197319047 -0.0019484496 -0.0008165947
0.4063633201 0.6678878594 0.1491743792 -0.0366785839 -0.0042586154 -0.0193319189
-0.0163058900 0.8157587918 -0.3799168834 -0.0177834550 0.0098706625 -0.0356227768
-0.2982016865 0.7729710976 0.2210350449 -0.0325240653 0.0000000000 -0.0067866361
0.4642162570 0.1071697443 0.1926367356 -0.0307459927 0.0002683607 -0.0056237142
-0.0018257146 0.8292259810 0.2635739520 -0.0178918715 0.0192843251 -0.0193319189
0.1363827296 0.6156248892 -0.4093834865 -0.0371761967 0.0000000000 -0.0193319189
0.0835619795 0.8049094498 -0.2648448662 -0.0349454823 -0.0064520338 -0.0240735680
-0.0829021856 0.8251655506 -0.3646604367 -0.0214560391 0.0108632460 -0.0338078325
0.0654503342 0.8292259039 0.0319230211 -0.0178918715 0.0192843251 -0.0193319189
0.1044140239 0.8292259810 0.1749268791 -0.0178918715 -0.0192843251 -0.0193319189
0.1261721037 0.7756252186 0.3544440062 -0.0114116633 0.0000000000 -0.0012307835
-0.1077030234 0.8033759410 0.3492737244 -0.0141556299 -0.0045891873 -0.0371601617
-0.0208377257 0.8292259810 -0.1190498914 -0.0178918715 -0.0192843251 -0.0193319189
0.0414662840 0.8292259810 -0.0634283438 -0.0178918715 0.0192843251 -0.0193319189
0.0753935058 0.8292260581 0.2778554604 -0.0178918715 0.0192843251 -0.0193319189
0.3085053207 0.8292259810 -0.0759837315 -0.0178918715 -0.0192843251 -0.0193319189
0.1756652663 0.8292259810 0.2434727622 -0.0178918715 0.0192843251 -0.0193319189
-0.1528821475 0.4854415976 0.4622282262 -0.0072629107 0.0007903488 -0.0039608075
0.1942344130 0.8292259810 0.1700783370 -0.0178918715 0.0192843251 -0.0193319189
-0.3455962903 0.7957867876 0.1544206220 -0.0356072240 0.0000000000 -0.0117195665
-0.3817753620 0.7766817489 -0.0629379434 -0.0364632744 0.0005657057 -0.0236560431
-0.0233082985 0.8099416559 0.1430240680 -0.0170750646 -0.0189587864 -0.0189818505
0.3052028608 0.7799670265 0.2168187779 -0.0032883920 0.0000000000 -0.0068047441
-0.0924924541 0.8292260581 0.3391053504 -0.0178918715 0.0192843251 -0.0193319189
0.0160222369 0.8292259810 -0.1437758867 -0.0178918715 -0.0192843251 -0.0193319189
0.0463648498 0.8292259810 -0.2465262808 -0.0178918715 -0.0192843251 -0.0193319189
-0.1783997065 0.0954077137 0.4629790229 -0.0251374360 -0.0011271881 -0.0369988098
-0.2778862864 0.8292259039 0.1822103373 -0.0178918715 0.0192843251 -0.0193319189
-0.2743693462 0.8292259810 -0.0884792993 -0.0188560492 0.0187070874 -0.0216187506
-0.1602075684 0.8141074365 -0.3229975200 -0.0093075313 -0.0079681867 -0.0046479466
0.0377253178 0.8292259810 -0.2311902862 -0.0178918715 -0.0192843251 -0.0193319189
0.2883069957 0.8292259810 -0.2064362901 -0.0178918715 0.0192843251 -0.0193319189
-0.3525432563 0.8292259810 -0.0082472695 -0.0178918715 -0.0192843251 -0.0193319189
0.2713878738 0.8292259810 -0.1732248060 -0.0178918715 -0.0192843251 -0.0193319189
-0.1471960871 0.7554471614 0.3879664307 -0.0334042405 0.0068199594 -0.0155960630
-0.1486891567 0.8292259810 0.3257942293 -0.0178918715 0.0192843251 -0.0193319189
-0.0154804631 0.8292259810 0.1351383603 -0.0178918715 -0.0192843251 -0.0193319189
0.1363827296 0.6381629814 -0.4252181737 -0.0369665375 -0.0002158880 -0.0198811557
0.0322564182 0.7933868534 -0.1003441539 -0.0155672233 -0.0175293744 -0.0165594500
0.2206717186 0.8292259810 0.0284620247 -0.0178918715 0.0192843251 -0.0193319189
0.2385456460 0.8292259810 0.1396195554 -0.0178918715 -0.0192843251 -0.0193319189
-0.3251120752 0.8292259810 0.0922946451 -0.0178918715 -0.0192843251 -0.0193319189
0.2453124386 0.7895562922 0.2767091808 -0.0315942716 0.0000000000 -0.0327896780
0.1878566431 0.8292259810 -0.0299993326 -0.0178918715 0.0192843251 -0.0193319189
-0.3082804077 0.8292260581 0.2065124824 -0.0290056017 0.0109233167 -0.0100704674
0.0903861044 0.8292259810 -0.1444322094 -0.0178918715 0.0192843251 -0.0193319189
-0.3506687428 0.7668517763 -0.1060521984 -0.0191180268 -0.0075995669 -0.0020661804
0.3080218627 0.8292259810 0.0193695811 -0.0178918715 -0.0192843251 -0.0193319189
-0.1699500866 0.3314218582 0.4412754791 -0.0240729413 -0.0009598387 -0.0373465255
-0.3774302757 0.7474428358 -0.1441255501 -0.0155488839 0.0046606357 -0.0377317299
-0.4752396208 0.1333297799 -0.1736065200 -0.0180929492 0.0008114073 -0.0385616886
-0.1911222893 0.1972676348 0.4655813847 -0.0368593166 0.0020962833 -0.0183237729
-0.4250624431 0.4733919221 -0.1422951012 -0.0007292464 -0.0019920322 -0.0120935281
-0.1528821475 0.4850520736 0.4242369872 -0.0058110518 -0.0019893710 -0.0302728422
-0.1668905898 0.1469203116 0.4543597395 -0.0239521828 -0.0019675990 -0.0363573167
0.3677946313 0.7841388431 0.0413295871 -0.0369791109 0.0000000000 -0.0217564792
-0.2302426834 0.8292259810 -0.2609405617 -0.0178918715 0.0192843251 -0.0193319189
-0.2059246287 0.8292259810 -0.2736001812 -0.0178918715 -0.0192843251 -0.0193319189
-0.4660388764 0.2855117232 -0.1424195815 -0.0352076335 0.0019192532 -0.0116124614
-0.1073676111 0.8292259810 0.0529416049 -0.0178918715 -0.0192843251 -0.0193319189
-0.2145818251 0.8099416559 0.2944546168 -0.0086232270 -0.0102108380 -0.0323460999
-0.2191373612 0.7763579072 -0.3001945383 -0.0053589115 0.0000000000 -0.0046884630
0.2403313167 0.7768218109 0.2816903220 -0.0313816812 0.0000000000 -0.0330022684
-0.1580316987 0.8292259810 0.2145145710 -0.0178918715 -0.0192843251 -0.0193319189
0.2933505024 0.8086888690 0.0965616878 -0.0098755897 0.0153562431 -0.0275522481
-0.1296317502 0.8292259810 0.0686880663 -0.0178918715 -0.0192843251 -0.0193319189
-0.0755048728 0.8292259810 0.1083049740 -0.0178918715 -0.0192843251 -0.0193319189
0.1194992644 0.8292260581 0.0962672161 -0.0178918715 -0.0192843251 -0.0193319189
-0.1924750076 0.8292259810 -0.0074476642 -0.0178918715 -0.0192843251 -0.0193319189
-0.4610668760 0.2567137848 -0.1350378697 -0.0118007631 -0.0016221203 -0.0021148541
0.0133983538 0.8292259810 -0.2805580814 -0.0178918715 -0.0192843251 -0.0193319189
-0.1658638924 0.2858898502 0.4434918845 -0.0180100459 -0.0009478824 -0.0371802174
0.1541442873 0.8292259810 -0.1149681904 -0.0178918715 0.0192843251 -0.0193319189
0.1426220766 0.7426597832 -0.3726891569 -0.0000454049 0.0023522056 -0.0139950397
0.3059076064 0.8292259039 -0.1421058255 -0.0178918715 0.0192843251 -0.0193319189
-0.1651579125 0.2938912831 0.4820605348 -0.0197466379 0.0015350901 -0.0029396447
-0.4098575627 0.7139667901 -0.1325453514 -0.0357016593 0.0067354170 -0.0182637022
-0.1076464432 0.8170074712 -0.0508348117 -0.0147081644 0.0029331266 -0.0361398474
-0.3355277513 0.8292259810 0.0259994357 -0.0178918715 -0.0192843251 -0.0193319189
0.1213913074 0.8292259810 -0.2799735157 -0.0178918715 -0.0192843251 -0.0193319189
-0.0313661766 0.8292259810 -0.2735689406 -0.0178918715 0.0192843251 -0.0193319189
-0.1844693128 0.8292259810 0.1676434209 -0.0178918715 -0.0192843251 -0.0193319189
0.2462854099 0.8023577286 0.0817719796 -0.0155515258 -0.0136836750 -0.0258436376
-0.0324504185 0.8292259810 -0.0236911020 -0.0178918715 0.0192843251 -0.0193319189
-0.0216754368 0.8292259810 0.3259037642 -0.0178918715 -0.0192843251 -0.0193319189
-0.1905545588 0.8292259810 0.1894426728 -0.0178918715 0.0192843251 -0.0193319189
0.1498745063 0.8292259810 0.1938080076 -0.0178918715 0.0192843251 -0.0193319189
0.3677946313 0.7777648144 -0.0267475904 -0.0370810864 0.0000000000 -0.0186528406
-0.1523872346 0.8292259810 -0.3177471504 -0.0178918715 0.0192843251 -0.0193319189
0.0122025328 0.8292259810 0.2032475498 -0.0178918715 -0.0192843251 -0.0193319189
0.3781070398 0.7713730056 -0.0220562348 -0.0178918715 -0.0192843251 -0.0193319189
0.0160185343 0.8292259810 0.2976936506 -0.0178918715 0.0192843251 -0.0193319189
0.4677648621 0.2908061189 0.1586027365 0.0008444702 0.0023254196 -0.0175235891
-0.3933516653 0.7203393339 -0.1543221948 -0.0147486615 0.0025929511 -0.0380980935
0.0909679125 0.8292259810 -0.2075374636 -0.0178918715 0.0192843251 -0.0193319189
0.1658222768 0.8292259810 -0.1738081954 -0.0178918715 -0.0192843251 -0.0193319189
0.4642162570 0.2603085951 0.1820744214 -0.0109619529 0.0015461208 -0.0027216354
0.1496835336 0.8292259810 0.2887712177 -0.0178918715 -0.0192843251 -0.0193319189
0.0568708729 0.8292259810 0.3110287422 -0.0178918715 -0.0192843251 -0.0193319189
0.1199221311 0.8292259810 -0.2285339283 -0.0178918715 -0.0192843251 -0.0193319189
0.3887141322 0.7102496786 0.1381260229 -0.0336995800 -0.0108418790 -0.0193319189
-0.0144047641 0.8292259810 0.2591789965 -0.0178918715 0.0192843251 -0.0193319189
0.0504519118 0.8099416559 -0.1050242474 -0.0042459166 -0.0060322333 -0.0166255759
0.1665452461 0.0000000000 -0.4771813305 -0.0113512262 -0.0096322311 -0.0162292831
-0.0070177491 0.7713730056 0.3806651924 -0.0178918715 -0.0192843251 -0.0193319189
-0.3842940492 0.7883332996 -0.0186015250 -0.0369111529 -0.0001171330 -0.0186208094
0.0784870973 0.8292259810 -0.2620045744 -0.0178918715 -0.0192843251 -0.0193319189
0.3484547673 0.8292259810 -0.0062309390 -0.0178918715 0.0192843251 -0.0193319189
-0.0771135905 0.8153185114 0.3594702148 -0.0132303873 -0.0017486255 -0.0376833648
-0.2666026613 0.8292259810 0.2422823600 -0.0178918715 -0.0192843251 -0.0193319189
0.2627721966 0.8292259810 -0.1888611540 -0.0178918715 0.0192843251 -0.0193319189
0.1068866408 0.8292259810 0.2296852989 -0.0178918715 0.0192843251 -0.0193319189
-0.1557886424 0.2270600080 0.4434918845 -0.0094019281 -0.0009722000 -0.0356182064
-0.0618651468 0.8292259810 -0.3141288324 -0.0178918715 0.0192843251 -0.0193319189
-0.2572283388 0.8292259810 0.0016802240 -0.0178918715 -0.0192843251 -0.0193319189
0.1681349109 0.3073076195 -0.4370189272 -0.0102845717 -0.0010652661 -0.0026844552
0.1546048741 0.2867574906 -0.4672297702 -0.0183988950 0.0017342586 -0.0384087639
-0.0696644992 0.8292259810 -0.0203038488 -0.0178918715 0.0192843251 -0.0193319189
-0.1330776663 0.7594572018 0.3915968399 -0.0142827522 0.0095030262 -0.0032148706
-0.1652679681 0.0891439721 0.4627762096 -0.0209650601 -0.0021560840 -0.0368228018
0.2772072467 0.8231369553 -0.2323502769 -0.0327019054 -0.0041884976 -0.0079322022
0.4835005821 0.1366311792 0.1616562551 -0.0024914095 0.0012716855 -0.0270124606
-0.1528821475 0.5042575837 0.4585722267 -0.0056570857 0.0003682920 -0.0048873422
0.3254219164 0.7945882861 0.1004318204 -0.0081633923 0.0108708441 -0.0314600045
-0.1335978224 0.4404112135 0.4486565739 -0.0021413797 -0.0016626174 -0.0217762071
0.1242508642 0.7975021476 -0.3592973116 -0.0108424093 0.0011651782 -0.0338573161
-0.2263108409 0.8116588479 -0.0849727340 -0.0103046273 0.0002235632 -0.0370191355
0.3507537867 0.8292259810 -0.1007528658 -0.0115837374 0.0161052656 -0.0206836729
0.0284243721 0.8292259810 -0.2787197646 -0.0178918715 -0.0192843251 -0.0193319189
-0.0791552606 0.7834720490 -0.3655971728 -0.0232548231 0.0000000000 -0.0378527776
-0.2834662059 0.8292259810 0.0305661760 -0.0178918715 0.0192843251 -0.0193319189
-0.0437519394 0.8274939208 -0.3664497714 -0.0157576174 -0.0037349688 -0.0011976916
-0.1003304716 0.8292259810 0.1040609954 -0.0178918715 0.0192843251 -0.0193319189
0.1700825120 0.5153138658 -0.4435870719 -0.0053859867 0.0020887624 -0.0336371855
0.0552759050 0.8292259810 0.2204184286 -0.0178918715 -0.0192843251 -0.0193319189
0.2035016497 0.7983647548 -0.3186151764 -0.0069882441 0.0009672246 -0.0350814272
-0.2752380279 0.8292259810 -0.1431464463 -0.0178918715 -0.0192843251 -0.0193319189
-0.4556133267 0.4854374515 -0.1613700757 -0.0296438742 0.0021367225 -0.0343796320
0.3574918649 0.7773833126 -0.1183959213 0.0002138535 0.0000000000 -0.0258577923
-0.1721664726 0.5645937438 0.4398938730 -0.0360009906 0.0009016001 -0.0162330628
-0.1132169905 0.7589955158 0.3834458956 -0.0035103739 0.0005605182 -0.0107340989
-0.4547823844 0.2115713587 -0.1669575354 -0.0030243318 -0.0013475308 -0.0311707396
-0.1419174659 0.7786322812 0.3700599899 -0.0314177622 0.0098346201 -0.0127411536
0.1367277455 0.8292259810 0.2971648744 -0.0178918715 -0.0192843251 -0.0193319189
-0.4518811348 0.1763936449 -0.1640563243 -0.0009714382 -0.0012772973 -0.0278206667
0.2053191973 0.8292259810 -0.1594843387 -0.0178918715 -0.0192843251 -0.0193319189
-0.1364577649 0.5347917284 0.4434918845 -0.0090801113 0.0016358314 -0.0028115582
0.0511845618 0.8216575776 -0.1960534359 -0.0353358742 0.0001122348 -0.0275009133
-0.0605322721 0.8292259810 0.1681924650 -0.0205604364 0.0182147200 -0.0199990601
0.0368028714 0.8292259810 0.3506973897 -0.0178918715 0.0192843251 -0.0193319189
-0.1950230262 0.8292259810 0.0348000110 -0.0178918715 -0.0192843251 -0.0193319189
-0.1878423149 0.8036749058 -0.0527209344 -0.0213750063 -0.0119729240 -0.0100112453
0.3036839116 0.8292260581 0.1857246549 -0.0178918715 0.0192843251 -0.0193319189
0.3288498788 0.8292259810 0.0337436736 -0.0178918715 0.0192843251 -0.0193319189
-0.1532136450 0.8292259810 0.2929117744 -0.0178918715 -0.0192843251 -0.0193319189
0.1185258495 0.8292259810 0.1654815517 -0.0178918715 0.0192843251 -0.0193319189
0.1968799910 0.8292259810 0.0918275402 -0.0178918715 -0.0192843251 -0.0193319189
0.3019156162 0.8292259810 -0.0174660833 -0.0178918715 0.0192843251 -0.0193319189
0.1556670547 0.0516326814 -0.4679794870 -0.0371761967 0.0000000000 -0.0193319189
-0.1557235000 0.0434427635 0.4705306103 -0.0097081246 -0.0049102520 -0.0352327320
-0.4424373501 0.6346409501 -0.1363038278 -0.0363860986 0.0046501836 -0.0200216613
-0.1502021084 0.6797499564 0.4226080596 -0.0169400936 0.0068590680 -0.0015786920
0.2332076291 0.8292259810 -0.0942277444 -0.0178918715 -0.0192843251 -0.0193319189
0.3200313112 0.7763768251 -0.1681141899 -0.0344689667 0.0000000000 -0.0094949846
0.0491371258 0.8292259810 0.1035102351 -0.0178918715 0.0192843251 -0.0193319189
0.0024323223 0.8292259810 -0.1016745409 -0.0178918715 -0.0192843251 -0.0193319189
-0.3427362128 0.7893261145 -0.0964692194 -0.0195234218 -0.0081894551 -0.0020411108
0.3312208094 0.7783757611 -0.1503325572 -0.0347283987 0.0000000000 -0.0099850572
-0.1626110510 0.8254896816 0.3229214434 -0.0091094234 -0.0009490202 -0.0363297787
-0.0644624175 0.8292259810 0.3019955400 -0.0178918715 -0.0192843251 -0.0193319189
0.1597807870 0.3643258344 -0.4628713971 -0.0090765822 0.0016261121 -0.0363018164
0.2578702754 0.7823881735 0.2641513633 -0.0321302216 0.0000000000 -0.0322537280
0.3907400084 0.7427915337 0.1492334278 -0.0123547825 0.0078379982 -0.0051715160
0.3492452125 0.7849603168 0.1134536381 -0.0371688108 0.0000000000 -0.0194358421
0.0091898198 0.8292259810 0.1111090305 -0.0178918715 -0.0192843251 -0.0193319189
0.1334143127 0.8292259810 0.1701482041 -0.0178918715 -0.0192843251 -0.0193319189
0.1322459719 0.8292259810 -0.1198136278 -0.0178918715 0.0192843251 -0.0193319189
0.2952561023 0.8292259810 0.1404549716 -0.0178918715 0.0192843251 -0.0193319189
-0.0666870187 0.8292259810 0.0213021212 -0.0178918715 -0.0192843251 -0.0193319189
0.1601276348 0.8251324394 0.0335798146 -0.0129239594 0.0097250852 -0.0342474958
-0.0901947846 0.8292259810 -0.3206289613 -0.0178918715 -0.0192843251 -0.0193319189
-0.1632314470 0.0283316048 0.4660449413 -0.0100490908 -0.0047056646 -0.0358772913
-0.1335978224 0.6403194317 0.4356548697 -0.0008970007 0.0000000000 -0.0124635365
-0.1587502905 0.3435140364 0.4762330624 -0.0151368550 0.0016207125 -0.0026285114
-0.4381754178 0.5660771905 -0.1660397750 -0.0263730213 0.0020711751 -0.0359155321
-0.2516446396 0.8276417158 -0.0715370747 -0.0236942935 0.0054077683 -0.0019484496
-0.1152911354 0.8165156244 0.3339224566 -0.0191396831 0.0168632553 -0.0115338584
0.3219166432 0.8292259810 0.0467017373 -0.0178918715 -0.0192843251 -0.0193319189
-0.2463491446 0.8028890889 -0.0879393767 -0.0130404946 -0.0151215721 -0.0282605614
-0.0178918715 0.8190619653 -0.0186689430 -0.0249618137 0.0002121083 -0.0260376572
-0.1269928446 0.8292260581 -0.0018922551 -0.0178918715 -0.0192843251 -0.0193319189
-0.1335978224 0.5545352133 0.4420623953 -0.0083342321 0.0015857693 -0.0041176470
0.4636121562 0.0030206003 0.1654366385 -0.0319839885 -0.0067286482 -0.0258925620
0.3677946313 0.8079472709 -0.0155323668 -0.0371723012 0.0000000000 -0.0194179269
-0.1521497095 0.7874177184 -0.3473485509 -0.0103416340 0.0000000000 -0.0015938688
0.2512738598 0.8292259810 0.0097807204 -0.0178918715 -0.0192843251 -0.0193319189
-0.2552854816 0.8119317789 -0.0994600640 -0.0088784358 -0.0017267763 -0.0356320140
-0.3736422172 0.7713730056 -0.0371833029 -0.0178918715 -0.0192843251 -0.0193319189
-0.2353556522 0.8292259810 0.0181175656 -0.0178918715 -0.0192843251 -0.0193319189
-0.3311269526 0.7817067426 0.1761247443 -0.0345153262 0.0000000000 -0.0099379070
0.3677946313 0.7950984529 0.0023993172 -0.0371428733 0.0000000000 -0.0199063410
0.1794974667 0.8292259810 0.1739302652 -0.0178918715 0.0192843251 -0.0193319189
-0.1153406768 0.8292259810 -0.3378883166 -0.0179850341 0.0190972286 -0.0197666647
0.0275879531 0.8158789910 -0.0041719709 -0.0108699281 0.0000000000 -0.0372808623
0.4835005821 0.1231355456 0.1856754220 -0.0006949203 0.0016248972 -0.0109583949
-0.3318233096 0.8292259810 0.0034617292 -0.0178918715 -0.0192843251 -0.0193319189
-0.4819282347 0.1448286566 -0.1736065200 -0.0289438532 0.0013567487 -0.0333701362
-0.3310104946 0.8270281850 0.1762993446 -0.0313931939 0.0102568890 -0.0115633442
-0.4664133201 0.0761498467 -0.1776608758 -0.0091348980 -0.0005132523 -0.0361169376
-0.4387036541 0.4218229176 -0.1543221948 -0.0037753984 -0.0012509549 -0.0298497055
0.3589617161 0.7765869086 0.1498105498 -0.0149368572 0.0070230234 -0.0030255178
-0.2866383038 0.8292259810 0.0154762880 -0.0178918715 0.0192843251 -0.0193319189
-0.2176217675 0.8292259810 -0.1001723691 -0.0178918715 -0.0192843251 -0.0193319189
-0.1335978224 0.6812933966 0.4121985159 0.0010897283 -0.0009560976 -0.0202880164
0.4752268931 0.2259347869 0.1542270074 -0.0126194020 -0.0001722476 -0.0372664184
-0.3079895808 0.7998831254 -0.1230886655 -0.0065919127 -0.0127669753 -0.0262307898
0.1057120518 0.8292259810 -0.3393729783 -0.0178918715 0.0192843251 -0.0193319189
-0.0304148808 0.8292259810 -0.0831156535 -0.0178918715 -0.0192843251 -0.0193319189
0.1277543054 0.7775363337 -0.3344415906 -0.0073326429 -0.0092455611 -0.0064197711
-0.1339241324 0.8292259810 0.1678544108 -0.0178918715 0.0192843251 -0.0193319189
-0.0808710641 0.8292259810 0.1366235812 -0.0178918715 0.0192843251 -0.0193319189
-0.1023442373 0.7740369808 0.3703443180 -0.0233843559 0.0000000000 -0.0008867511
0.0799421189 0.8106257287 0.0451919289 -0.0249198510 0.0010243834 -0.0014591099
0.4256476067 0.3695858076 0.1734152195 -0.0325328011 -0.0008291296 -0.0108971093
-0.1721664726 0.3148787034 0.4507945692 -0.0368794495 0.0000000000 -0.0213924876
-0.0651714250 0.8292259810 0.0839560065 -0.0178918715 -0.0192843251 -0.0193319189
0.1363827296 0.5409002120 -0.4304181148 -0.0371761967 0.0000000000 -0.0193319189
0.3402979991 0.8292259810 -0.0202637567 -0.0178918715 -0.0192843251 -0.0193319189
-0.0260984318 0.8292259810 0.0748411545 -0.0178918715 0.0192843251 -0.0193319189
0.1846062508 0.8292259810 0.1929570289 -0.0178918715 -0.0192843251 -0.0193319189
-0.2846669251 0.8292259039 -0.0969764550 -0.0178918715 -0.0192843251 -0.0193319189
0.2787746767 0.8292259810 -0.0377909906 -0.0178918715 -0.0192843251 -0.0193319189
0.4709249073 0.1598611158 0.1542270074 -0.0178918715 0.0000000000 -0.0386162440
-0.2406984709 0.8292259810 -0.0486297262 -0.0178918715 -0.0192843251 -0.0193319189
-0.2897289254 0.8292259039 0.0667339664 -0.0178918715 0.0192843251 -0.0193319189
-0.2457265887 0.8292259810 0.1476590170 -0.0178918715 -0.0192843251 -0.0193319189
0.0140156643 0.7784956711 0.3824830871 -0.0150983249 0.0007545378 -0.0003127146
-0.0507685411 0.7794108087 0.3663545839 -0.0168823949 -0.0027276907 -0.0381969063
-0.1721664726 0.5416475567 0.4339718688 -0.0371324598 0.0002465308 -0.0188388572
-0.1380227072 0.7968184605 0.3502815425 -0.0279877750 -0.0053975862 -0.0067619715
-0.1889319371 0.8292259810 -0.2751003474 -0.0178918715 0.0192843251 -0.0193319189
0.1192267961 0.8292259810 -0.0142992307 -0.0178918715 0.0192843251 -0.0193319189
0.0439866682 0.8292259810 0.0826849188 -0.0178918715 -0.0192843251 -0.0193319189
-0.0784148389 0.7991466763 0.2428881193 -0.0111583830 -0.0162039435 -0.0179173943
0.0487129863 0.8292259810 -0.1527235243 -0.0178918715 -0.0192843251 -0.0193319189
0.1917863836 0.0108725989 -0.4797064201 -0.0008187450 -0.0029423252 -0.0110943880
-0.0166501538 0.8292259810 -0.1930719635 -0.0178918715 -0.0192843251 -0.0193319189
-0.1540317247 0.4586695740 0.4242075594 -0.0264196508 -0.0010559711 -0.0365407492
0.0024687697 0.8189819161 0.0101327172 -0.0278641239 -0.0015010147 -0.0030486011
0.2134640478 0.8292259810 -0.2613137327 -0.0178918715 0.0192843251 -0.0193319189
0.1198802455 0.8292259810 -0.1927987625 -0.0178918715 0.0192843251 -0.0193319189
-0.3375965930 0.7785873487 -0.1594243259 -0.0355430457 -0.0012537511 -0.0266470419
-0.1476556326 0.3953024772 0.4483173047 -0.0024568519 -0.0022567096 -0.0302255377
-0.1528821475 0.7249588362 0.3804053168 -0.0347993264 -0.0016259193 -0.0224520262
0.1604510523 0.8292259810 0.2067857413 -0.0178918715 -0.0192843251 -0.0193319189
-0.0553127380 0.8292259810 0.0506704514 -0.0178918715 0.0192843251 -0.0193319189
0.1572611742 0.2312469436 -0.4413573218 -0.0176169349 -0.0016574685 -0.0004695155
-0.1527433968 0.5215093024 0.4544548112 -0.0042710634 0.0000138076 -0.0056834956
-0.1528821475 0.3128782054 0.4581305000 0.0002366090 -0.0009471689 -0.0249535696
0.1251060662 0.8272179814 -0.3431616154 -0.0112211728 0.0022970138 -0.0366280879
0.1322775596 0.8292259810 0.1409711166 -0.0178918715 0.0192843251 -0.0193319189
0.1711800794 0.5433045431 -0.4274364110 -0.0031984114 0.0008673704 -0.0127761740
0.1686479318 0.3218760401 -0.4372836046 -0.0086026507 -0.0009160247 -0.0032450312
-0.1549318206 0.3328763205 0.4394373744 -0.0148025419 -0.0015054694 -0.0368798834
-0.0619029248 0.8292259810 -0.1281923200 -0.0178918715 0.0192843251 -0.0193319189
-0.0575856079 0.8292259810 -0.2980382808 -0.0178918715 -0.0192843251 -0.0193319189
0.2646774300 0.8292259810 0.0134119396 -0.0178918715 0.0192843251 -0.0193319189
-0.3484857379 0.8205085211 -0.1395819124 -0.0321767546 0.0114149706 -0.0249063230
-0.4081168245 0.6512930998 -0.1543221948 -0.0116099447 -0.0008974154 -0.0349152542
-0.0556651012 0.8292259810 -0.0808983418 -0.0178918715 0.0192843251 -0.0193319189
0.1057709461 0.7750645847 -0.3204978858 -0.0234380241 -0.0152764253 -0.0130229362
-0.1496327773 0.5127500919 0.4450772296 -0.0059883711 0.0005620224 -0.0046183066
0.1373631640 0.2333280115 -0.4638518121 -0.0342213945 0.0000000000 -0.0292574453
0.2509565941 0.8292259810 -0.1968756809 -0.0178918715 -0.0192843251 -0.0193319189
-0.1528821475 0.1949022388 0.4565713237 -0.0013018366 -0.0003191363 -0.0244382346
0.0635692640 0.7944207825 -0.2132958595 -0.0125483586 -0.0180679663 -0.0182867663
0.4732646937 0.2629127889 0.1735113325 -0.0000741000 0.0016778327 -0.0123983747
-0.0716098441 0.8292259810 0.0474197505 -0.0178918715 -0.0192843251 -0.0193319189
-0.2852209252 0.8292259810 -0.1566684608 -0.0178918715 -0.0192843251 -0.0193319189
-0.3157731008 0.7893578179 -0.2035588181 -0.0019790249 0.0000000000 -0.0085960651
-0.1657745866 0.8292259810 0.1149458399 -0.0178918715 0.0192843251 -0.0193319189
-0.1146863018 0.7737340434 -0.3567144076 -0.0127064900 0.0000000000 -0.0009307194
0.1113858474 0.8156542515 -0.3017454223 -0.0049806880 0.0140598736 -0.0199504829
0.1912358161 0.8292259810 -0.2325219074 -0.0178918715 0.0192843251 -0.0193319189
0.1772153789 0.8175736782 0.3327047093 -0.0091872357 0.0038898991 -0.0035366102
0.1406871067 0.2480666934 -0.4671757741 -0.0342171905 0.0000000000 -0.0289339893
-0.4928095694 0.1395643829 -0.1685089400 -0.0346874388 0.0019269862 -0.0254398239
0.0474396423 0.8217474040 -0.1245534449 -0.0025737535 0.0096172279 -0.0161881496
-0.4999999614 0.0370283534 -0.1651458501 -0.0354191439 -0.0002281914 -0.0145328410
0.0647337480 0.8292259810 0.1801774416 -0.0178918715 0.0192843251 -0.0193319189
0.2867037741 0.7918169165 -0.2181055245 -0.0338112169 0.0000000000 -0.0084659152
0.1323755818 0.7176747609 -0.4100616198 -0.0202865990 0.0078866140 -0.0360416323
-0.0511508721 0.8099416559 0.1650636218 -0.0043077808 -0.0122217689 -0.0150924914
-0.1531462270 0.3303224588 0.4784316683 -0.0083090468 0.0012245932 -0.0029854835
-0.2966229367 0.8102079531 -0.2224426656 -0.0055248917 -0.0098030710 -0.0090171962
-0.1726612120 0.8099416559 0.3318315729 -0.0093891812 -0.0080892537 -0.0344470115
0.3402132638 0.7863226580 0.1030266999 -0.0071082505 0.0095315091 -0.0320520333
0.1363827296 0.7708359950 -0.3612478054 -0.0000530030 0.0062231096 -0.0170358885
-0.0079301484 0.8292259810 0.1176382016 -0.0178918715 0.0192843251 -0.0193319189
0.2800057301 0.8292259810 0.0807543650 -0.0178918715 0.0192843251 -0.0193319189
0.3188211041 0.8151440847 0.1193906454 -0.0108811901 0.0165449289 -0.0135830108
-0.1378363242 0.7399639503 0.3724169008 -0.0228023935 -0.0100769470 -0.0345752908
0.2970619829 0.8292259810 -0.0445431656 -0.0178918715 -0.0192843251 -0.0193319189
-0.2986444546 0.8210082358 0.2082485731 -0.0051093723 -0.0106095607 -0.0290305074
-0.1979914238 0.8144269970 -0.0515287196 -0.0254522333 0.0005839294 -0.0016545951
-0.2019168060 0.8292259810 -0.2522651995 -0.0178918715 -0.0192843251 -0.0193319189
-0.3483869443 0.8292259810 0.0775827878 -0.0156886567 -0.0181519110 -0.0197450277
0.1429095673 0.8167597061 0.0707109728 -0.0261880075 -0.0032594366 -0.0026388671
-0.0684629508 0.8147268297 -0.0156909804 -0.0219054795 0.0000000000 -0.0005759649
-0.0305915060 0.8292259810 -0.1872293915 -0.0178918715 -0.0192843251 -0.0193319189
0.1547375696 0.7346633064 -0.3959189007 -0.0012861970 0.0057681345 -0.0237412605
-0.1052735455 0.8292259810 0.2968418813 -0.0184007270 0.0187515957 -0.0165300221
-0.0242378030 0.8292259810 -0.2101275799 -0.0178918715 -0.0192843251 -0.0193319189
0.1754382127 0.0198538491 -0.4969824370 -0.0034610060 0.0003275057 -0.0317977502
0.1511269075 0.2974987247 -0.4435870719 -0.0289794521 -0.0016289662 -0.0042870019
-0.3273946836 0.8292259810 -0.1130190080 -0.0178918715 -0.0192843251 -0.0193319189
-0.1862945163 0.8292259810 0.2817470758 -0.0178918715 -0.0192843251 -0.0193319189
0.0930839815 0.8268991536 0.0457981702 -0.0251195402 0.0030396146 -0.0018369670
0.4521796369 0.4844383692 0.1606599111 -0.0005796772 0.0019578797 -0.0148203124
-0.1647582834 0.0108198177 0.4991808694 -0.0118191411 -0.0037086264 -0.0027118775
-0.0917289298 0.8292260581 -0.1684577209 -0.0178918715 -0.0192843251 -0.0193319189
-0.0003847898 0.8292259810 -0.1477015196 -0.0178918715 0.0192843251 -0.0193319189
0.4642162570 0.2313775756 0.1863260751 -0.0213925936 0.0021067354 -0.0013912484
0.3164444074 0.8115330562 0.1797901738 -0.0348254374 -0.0002008655 -0.0284917226
-0.0993145541 0.8259364994 0.3531664197 -0.0236657142 0.0075440666 -0.0028449008
-0.0377626330 0.8292259810 -0.2581791042 -0.0178918715 -0.0192843251 -0.0193319189
0.1363827296 0.3935381929 -0.4477479543 -0.0369867860 0.0000000000 -0.0205730002
-0.4544036402 0.4593936233 -0.1392649938 -0.0347083430 0.0015010533 -0.0102710823
-0.1528821475 0.7456917227 0.3790177903 -0.0364775834 0.0037368972 -0.0182909124
-0.1564027903 0.8292259810 -0.1322018783 -0.0178918715 0.0192843251 -0.0193319189
0.1689657375 0.8292259810 0.1632546749 -0.0178918715 -0.0192843251 -0.0193319189
0.2526265010 0.7987109470 0.2693950991 -0.0313722512 -0.0031196060 -0.0318365117
-0.3645183594 0.7598268630 -0.1118844725 -0.0203365840 -0.0052553064 -0.0010215486
0.4625773979 0.4228321627 0.1735113325 -0.0048551470 0.0023550018 -0.0054538193
0.1395421963 0.8140076787 0.0267179889 -0.0125795028 0.0025768101 -0.0368666543
-0.1243937804 0.8292259810 -0.2247148220 -0.0178918715 0.0192843251 -0.0193319189
0.1037948814 0.8205110088 -0.2627054246 -0.0022303190 -0.0015233267 -0.0110594833
-0.3588427126 0.8292259810 0.0874427861 -0.0054664023 -0.0128978388 -0.0216616967
-0.0470548043 0.8176101063 0.0968469415 -0.0350437360 -0.0014565258 -0.0279078511
0.1005139620 0.7879574673 -0.3407923239 -0.0341158128 -0.0014959044 -0.0266959277
0.0798837066 0.8292259810 -0.1960560392 -0.0178918715 -0.0192843251 -0.0193319189
0.3367197926 0.8216478776 -0.1243469484 -0.0348246853 -0.0051232667 -0.0125336350
0.1489753168 0.1496666695 -0.4606889707 -0.0344361062 -0.0023522248 -0.0105033427
-0.4956125461 0.1227463880 -0.1574867719 -0.0343736057 0.0014065794 -0.0131746845
-0.2541431746 0.7933828808 -0.2844730694 -0.0305806875 0.0004681848 -0.0335957049
0.1862979875 0.8292259810 -0.1891626065 -0.0178918715 0.0192843251 -0.0193319189
-0.0810397634 0.8292260581 -0.2928554063 -0.0178918715 -0.0192843251 -0.0193319189
-0.2418942341 0.7789800933 0.2773424973 -0.0046322202 0.0000000000 -0.0332765879
0.3089104073 0.8292259810 -0.0008303830 -0.0178918715 0.0192843251 -0.0193319189
0.0221577378 0.8292259810 -0.1977197944 -0.0178918715 0.0192843251 -0.0193319189
0.3346378954 0.8292259810 0.0221056026 -0.0178918715 0.0192843251 -0.0193319189
-0.0160238568 0.7910959141 -0.0023542111 -0.0301552560 -0.0132582628 -0.0140903814
-0.4866323372 0.0457373860 -0.1778267017 -0.0262456290 0.0005447243 -0.0363236463
-0.1335978224 0.4622400283 0.4517869020 -0.0016667924 -0.0005179963 -0.0153657696
0.3641394610 0.8006902708 0.0687708925 0.0002336778 0.0038054337 -0.0143706212
0.0796967451 0.8049390126 -0.2245144578 -0.0078468401 -0.0155688721 -0.0148655920
-0.2211621189 0.8059220504 -0.2981697806 -0.0066186407 -0.0076205868 -0.0062955801
-0.4242638985 0.4486891644 -0.1543221948 -0.0122090894 -0.0005166078 -0.0349680932
-0.1853548105 0.8292259810 0.2265430724 -0.0178918715 -0.0192843251 -0.0193319189
0.4696687456 0.0594350422 0.1927956577 -0.0282280384 -0.0010465603 -0.0049195085
-0.1545242656 0.0000000000 0.4872119180 0.0002824479 -0.0027648901 -0.0179911376
0.2505411133 0.8292259810 0.2021603959 -0.0178918715 0.0192843251 -0.0193319189
-0.1708025309 0.8292259810 0.2023154034 -0.0178918715 -0.0192843251 -0.0193319189
0.0165803446 0.8292259810 -0.3445534422 -0.0178918715 -0.0192843251 -0.0193319189
0.2558459612 0.8292259810 -0.2374870041 -0.0178918715 -0.0192843251 -0.0193319189
-0.1836804875 0.1421931835 0.4627762096 -0.0263339898 -0.0005763892 -0.0364406057
-0.3392109224 0.8292259039 -0.1380784871 -0.0211536416 0.0171991496 -0.0214287614
0.0314469779 0.8292259810 -0.0856476275 -0.0178918715 0.0192843251 -0.0193319189
-0.4163692236 0.5596375951 -0.1501389426 -0.0007205685 -0.0020354798 -0.0257187909
-0.0718711853 0.7932754671 0.2043326402 -0.0183017791 -0.0180050223 -0.0199248154
-0.1335978224 0.5915648973 0.4297885588 -0.0009243845 -0.0009339206 -0.0266682354
0.1708680012 0.3119058511 -0.4628713971 -0.0110847554 0.0011875480 -0.0373088246
-0.2349320720 0.7992860827 -0.0786278246 -0.0138460201 -0.0162789016 -0.0262540466
-0.1614880476 0.0994500940 0.4906664348 -0.0056936102 0.0005232802 -0.0045172760
0.4136309844 0.5927764543 0.1574415501 -0.0354400289 -0.0012515913 -0.0125364505
-0.2169385818 0.7979876691 -0.0683326369 -0.0151079671 -0.0166313805 -0.0228232109
-0.3527319149 0.7582275754 -0.1206401347 -0.0048353228 -0.0108593120 -0.0256134599
0.0334640026 0.8292259810 0.2541917036 -0.0178918715 -0.0192843251 -0.0193319189
0.2423388728 0.8292259810 -0.0544780450 -0.0178918715 -0.0192843251 -0.0193319189
0.1401386026 0.8292259810 -0.2422090603 -0.0178918715 0.0192843251 -0.0193319189
0.1118621317 0.8292259810 0.2907515250 -0.0178918715 -0.0192843251 -0.0193319189
0.0049773132 0.8292259810 0.3509274324 -0.0178918715 -0.0192843251 -0.0193319189
0.4278196195 0.4209860550 0.1525998346 -0.0329735637 -0.0020519293 -0.0308375450
0.3244609978 0.8292259810 0.0802508898 -0.0178918715 0.0192843251 -0.0193319189
-0.0343657762 0.8191221324 -0.3765536200 -0.0187145408 0.0109663400 -0.0348168270
-0.3947475033 0.6926131026 -0.1272110949 -0.0089296357 -0.0085132003 -0.0051018996
-0.1607194322 0.0308251067 0.4951797962 -0.0112042797 -0.0018465706 -0.0026798462
0.0911900872 0.8292259810 0.1801214014 -0.0178918715 -0.0192843251 -0.0193319189
-0.3689671375 0.8252685482 -0.0449284664 -0.0341619024 0.0100205789 -0.0214636660
-0.1037073112 0.8292259810 -0.2915514002 -0.0178918715 0.0192843251 -0.0193319189
0.2801864628 0.7971118329 0.0911386077 -0.0146662789 -0.0087109418 -0.0359305932
0.0450612487 0.8292259810 0.2372349194 -0.0178918715 -0.0192843251 -0.0193319189
0.1687661640 0.7993959841 0.0578053817 -0.0160077737 -0.0159511452 -0.0259262903
0.2910756463 0.7830225700 -0.2310411798 -0.0034615653 0.0000000000 -0.0320982964
-0.1615396910 0.5436008274 0.4502980171 -0.0300693829 0.0021042863 -0.0047952789
0.1363827296 0.5968619351 -0.4296990602 -0.0371761967 0.0000000000 -0.0193319189
0.2615715738 0.8292259810 -0.0388661110 -0.0178918715 0.0192843251 -0.0193319189
-0.3278513750 0.8042752462 -0.1886599413 -0.0013313609 -0.0008902223 -0.0095743396
-0.2650869327 0.8292259810 -0.1508365916 -0.0178918715 -0.0192843251 -0.0193319189
0.1603244892 0.1842648893 -0.4821557222 -0.0178823065 0.0015986898 -0.0385440820
-0.1392560169 0.8292259810 0.3058277018 -0.0178918715 0.0192843251 -0.0193319189
-0.0992523043 0.8292259810 0.1543390493 -0.0178918715 0.0192843251 -0.0193319189
-0.0477590100 0.7713730056 0.3807622118 -0.0178918715 -0.0192843251 -0.0193319189
0.0564680620 0.7943834094 -0.3623230222 -0.0214543035 0.0005980841 -0.0004207647
0.3450502354 0.8292259810 0.0328568067 -0.0178918715 -0.0192843251 -0.0193319189
-0.4650339895 0.1905115451 -0.1389998343 -0.0078060538 -0.0025959209 -0.0032266919
-0.3082303070 0.7862009739 0.2104696260 -0.0029962345 0.0000000000 -0.0315452605
-0.0443098735 0.8292259810 0.3421820102 -0.0178918715 -0.0192843251 -0.0193319189
0.4524383168 0.0588897779 0.1639300120 -0.0349530225 -0.0037052131 -0.0220526864
-0.3611788157 0.7761411900 0.0924132052 -0.0364050551 0.0000000000 -0.0140748575
0.2974504078 0.8292259810 0.0565303407 -0.0178918715 0.0192843251 -0.0193319189
0.2329376293 0.8292259810 0.0127210208 -0.0178918715 -0.0192843251 -0.0193319189
0.1706971806 0.8161934027 0.0371030030 -0.0112747446 0.0039620803 -0.0359111160
0.4449333203 0.4495194896 0.1684584730 -0.0074382245 0.0015906097 -0.0043367362
0.2129029703 0.8029992795 0.0645420136 -0.0150969557 -0.0138619007 -0.0281614014
-0.3206156648 0.8139516963 0.1858764225 -0.0045734223 -0.0107497192 -0.0280068954
-0.1548371345 0.8292259810 0.0303909586 -0.0178918715 0.0192843251 -0.0193319189
-0.0121801051 0.8292259810 -0.0616586791 -0.0178918715 -0.0192843251 -0.0193319189
0.2835962208 0.8292259810 0.2295587937 -0.0178918715 0.0192843251 -0.0193319189
0.1407288380 0.8059018211 0.0463978742 -0.0142208688 -0.0143451852 -0.0304170889
0.2678996865 0.8261543930 0.2529641792 -0.0313042161 -0.0006373855 -0.0330653667
-0.1606951918 0.8292259810 -0.2604388414 -0.0178918715 0.0192843251 -0.0193319189
0.1361447417 0.7001513453 -0.3924184486 -0.0224364734 -0.0102746499 -0.0052021781
0.4256476067 0.4386952172 0.1731080202 -0.0297523871 -0.0001441889 -0.0052515267
-0.0967600945 0.8292259810 -0.3582151138 -0.0206530205 0.0143280993 -0.0306791629
-0.1721664726 0.2692030465 0.4538775156 -0.0314251481 0.0000000000 -0.0275914339
0.0946937598 0.8292259810 -0.1911539252 -0.0178918715 0.0192843251 -0.0193319189
0.1125670123 0.7906573307 -0.3592529384 -0.0160419262 -0.0166028590 -0.0230317902
-0.1672051172 0.8292259810 0.3004700535 -0.0178918715 -0.0192843251 -0.0193319189
0.4256476453 0.5202338564 0.1430934144 -0.0367555284 -0.0022065318 -0.0218277541
0.4975522406 0.0054449485 0.1776549748 -0.0033013897 0.0023849889 -0.0074069357
-0.0914860437 0.7830481796 0.3652671987 -0.0203208865 -0.0099014018 -0.0347697925
-0.4971033208 0.0187764532 -0.1736065200 -0.0264165074 0.0002568865 -0.0364456196
-0.0206767402 0.8099416559 0.0975523235 -0.0048801781 -0.0110296890 -0.0170006946
-0.2970566797 0.8037733330 0.2221800324 -0.0325007506 0.0000000000 -0.0067610844
-0.1680411505 0.8292259810 0.1752190367 -0.0178918715 -0.0192843251 -0.0193319189
-0.0473390167 0.8018550827 0.1135885705 -0.0270124895 -0.0140457189 -0.0217845572
0.1048808396 0.8292259810 -0.2499798527 -0.0178918715 -0.0192843251 -0.0193319189
-0.1528821475 0.2804930161 0.4516245858 0.0012278812 -0.0001473130 -0.0202157388
-0.0353127137 0.8292259810 0.1125707438 -0.0178918715 0.0192843251 -0.0193319189
0.4223074073 0.5709555462 0.1349426823 -0.0202445785 -0.0002940860 -0.0376287516
-0.1192096331 0.8292259810 -0.1000711264 -0.0178918715 0.0192843251 -0.0193319189
-0.0302719647 0.7942228289 0.3820733723 -0.0184093471 0.0060748517 -0.0016358700
0.0227934456 0.8292259810 0.0391374607 -0.0178918715 0.0192843251 -0.0193319189
-0.4729953689 0.1025101307 -0.1543221948 -0.0131486025 -0.0008049084 -0.0010842033
0.0876403058 0.8008311428 -0.2869747863 -0.0334231970 -0.0106829955 -0.0207438014
-0.1615569890 0.6576017161 0.4300939260 -0.0284379290 0.0049151117 -0.0056054519
0.2864708387 0.7950737304 -0.2356459874 -0.0035553835 0.0000000000 -0.0322010240
-0.2961832155 0.8292259810 -0.1496858381 -0.0178918715 0.0192843251 -0.0193319189
-0.3043469839 0.8164616283 -0.2084650204 -0.0044959572 -0.0095042604 -0.0099654257
0.2929712376 0.8011880764 -0.2087043003 -0.0339792798 0.0000000000 -0.0087026495
0.0225683589 0.7950031112 -0.0896595771 -0.0162445080 -0.0149900916 -0.0149896288
-0.2675214245 0.8209706507 -0.2518104944 -0.0309343427 0.0042316173 -0.0319644824
-0.1116701755 0.7954547308 0.3663545839 -0.0197740216 -0.0011562496 -0.0029535101
-0.2975763730 0.8292259810 -0.2081711465 -0.0183174959 0.0190122426 -0.0196055249
0.2503638518 0.8292259810 0.1818487755 -0.0178918715 0.0192843251 -0.0193319189
0.1102380444 0.8292259810 0.0254064620 -0.0159506149 0.0144601969 -0.0287838223
-0.1201204125 0.8292259810 -0.0844060641 -0.0178918715 0.0192843251 -0.0193319189
-0.0358722677 0.8292259810 -0.1310794727 -0.0178918715 0.0192843251 -0.0193319189
0.3211144153 0.8292259810 0.0197096409 -0.0178918715 0.0192843251 -0.0193319189
-0.3259635360 0.8292259810 0.0621721050 -0.0178918715 -0.0192843251 -0.0193319189
-0.1447069435 0.7228385053 0.4082451906 -0.0178918715 0.0073461901 -0.0015031553
-0.1368383603 0.8292259810 0.0554682951 -0.0178918715 0.0192843251 -0.0193319189
0.3623344289 0.8254970289 0.0741860467 0.0007415884 0.0019439757 -0.0154886878
0.0085654705 0.8292259810 -0.3338196326 -0.0178918715 0.0192843251 -0.0193319189
0.4478048527 0.3363668991 0.1735113325 -0.0190807116 0.0000000000 -0.0003050973
0.4146865891 0.6795699372 0.1636484994 -0.0117185348 0.0039439530 -0.0029597968
-0.4349146699 0.6031416441 -0.1350378697 -0.0178918715 0.0000000000 -0.0000475937
0.1717438952 0.2281649034 -0.4706974969 -0.0035948007 0.0019430115 -0.0311331930
