-0.0391734121 0.8537929882 0.1016920450 0.0020583270 -0.0018967011 0.0011594423
0.4952011199 0.6687072319 -0.3461077451 0.0022343165 -0.0001278090 0.0030590141
0.1248360146 0.8708138409 -0.3735838527 0.0020615733 0.0015066809 0.0011326389
0.4356844136 1.3162042045 -0.4374392940 0.0019631974 -0.0002599249 -0.0006997564
0.4222301217 0.8537929882 -0.1923375618 0.0020730502 -0.0018970502 0.0011656731
-0.0166629645 0.8537929882 0.1444551415 0.0020587292 -0.0018966442 0.0011600685
0.1689484645 0.8537929882 0.2938657592 0.0020627781 -0.0018968890 0.0011974494
-0.4912435503 0.8286850272 -0.3633959015 0.0003694979 0.0000235135 0.0007962426
0.0990307875 0.8537929882 -0.3206579046 0.0020613437 -0.0018960940 0.0011137416
-0.4031846848 0.8727661657 0.2144573554 0.0020089777 0.0018954223 0.0012060500
0.2415789719 0.8537930470 0.1363224066 0.0020644382 -0.0018967789 0.0011885984
-0.4500308528 0.4107019251 0.3836387716 0.0005225279 0.0000254905 0.0004895279
-0.0681290480 0.8537930470 0.4106863206 0.0020572664 -0.0018969838 0.0012024849
-0.4327388183 0.1787143564 0.4667658176 0.0025959699 0.0001017778 0.0027435300
0.0776028963 0.8537929882 -0.0423623327 0.0020608390 -0.0018965664 0.0011455008
-0.3633733499 0.7111333723 0.3960979109 0.0030395211 0.0000416366 0.0026009845
-0.2277887220 0.7576547138 0.1833567562 0.0009043859 -0.0008911189 0.0000681716
-0.1220991982 0.8537929293 0.2302798205 0.0020563025 -0.0018969573 0.0011910460
-0.3758672291 0.8253662257 -0.2921877164 0.0032123288 0.0007179318 0.0000995722
-0.0646936545 0.8727661657 0.1776449722 0.0020576838 0.0018964393 0.0012095050
0.4650003407 0.8643031609 -0.3999171546 0.0020843961 -0.0000434372 -0.0003890725
0.2361485032 0.8727661657 0.0530342802 0.0020647058 0.0018968150 0.0011728640
0.1853841351 0.8537929293 0.3309228338 0.0020631158 -0.0018968453 0.0012034203
0.0871151729 0.8727661069 0.3437988631 0.0020613798 0.0018961433 0.0012300776
0.0203325061 0.8537929293 -0.2099020378 0.0020594938 -0.0018958663 0.0011140206
-0.0879366147 0.8537929882 0.3845793536 0.0020567958 -0.0018969364 0.0012028416
0.2147025818 0.8537929882 0.1515657553 0.0020638463 -0.0018968301 0.0011871527
-0.3236634570 0.8727661657 0.0347215419 0.0020502786 0.0018969724 0.0011725187
0.0259672931 0.8537929882 0.1335031803 0.0020596266 -0.0018966366 0.0011588599
-0.3660563622 0.6782318050 0.3570019482 0.0034664346 -0.0002993948 -0.0000240684
0.1789204706 0.8397391249 -0.0810240828 0.0031376352 0.0006725991 0.0024523430
0.4217650265 1.2489118423 -0.4104892823 0.0019896820 0.0003662772 0.0029694228
0.3702479108 0.8727661657 -0.3075141088 0.0020730597 0.0018958758 0.0011067159
0.4952166950 1.3451601857 -0.4304068630 0.0024129053 0.0003996339 0.0029946248
0.4732280629 0.1220687415 0.4704484412 0.0030412685 0.0001997534 0.0023986621
0.1619300584 0.8727662814 0.1480102672 0.0020633966 0.0018969914 0.0011918201
-0.3128177456 0.7818345144 -0.2414478995 0.0032543202 -0.0001102664 -0.0002395221
0.4647003824 0.8624230973 -0.3071492432 0.0021141821 -0.0001736843 0.0011261065
0.0492388858 0.8537929882 0.1623299846 0.0020601731 -0.0018968377 0.0011666408
-0.4247347121 0.8537930470 0.2790134344 0.0020451027 -0.0018970920 0.0011864696
-0.4752543869 0.6751547426 -0.3457902726 0.0015970340 -0.0002421547 0.0029561833
0.0258903550 0.8053286435 0.0732724621 0.0014445333 -0.0003822298 0.0024295372
-0.4783703879 0.5702620449 -0.3529759974 0.0019863921 -0.0001280803 0.0030524133
0.4368830612 0.5279568054 -0.4148292335 0.0011558090 0.0000682750 -0.0004288403
0.0647600530 0.8727661069 0.4468001779 0.0020607707 0.0018957885 0.0012472502
0.0315649080 0.8727661069 0.2743123800 0.0020598676 0.0018959593 0.0012311325
0.4513350272 0.8539560968 0.3849810158 0.0021116359 -0.0018624944 0.0012474286
-0.4336443986 1.4295286411 -0.4614374284 0.0022230521 -0.0003790386 -0.0006725811
0.3980759424 0.7784559588 0.4134284495 0.0023246459 0.0002644804 0.0029639129
-0.4617795983 1.0428074785 -0.4127823274 0.0021332141 0.0001272171 -0.0004452692
0.3963903995 0.8537929882 -0.1187266799 0.0020716480 -0.0018969041 0.0011664928
-0.0690905024 0.8727661069 0.2480150627 0.0020575927 0.0018963179 0.0012175458
0.2756592271 0.8727661657 0.2101187191 0.0020668649 0.0018967865 0.0011909302
0.1258748985 0.8727661657 0.1852419444 0.0020624328 0.0018967163 0.0012028644
0.1730635987 0.8537929882 -0.2967640809 0.0020630817 -0.0018965854 0.0011298347
0.4420431602 0.7073428483 0.3564283473 0.0037353263 0.0000830873 0.0008949069
0.2943603539 0.8537929882 -0.0176849339 0.0020667036 -0.0018967372 0.0011690162
0.2222638427 0.8727661069 0.0769937947 0.0020644743 0.0018968491 0.0011770855
0.4055820388 0.2287156385 0.4328958176 0.0003902185 -0.0003099743 0.0004123488
-0.3977651580 0.8715442703 -0.3350049813 0.0017265089 0.0004413939 -0.0003333919
-0.4875386048 0.6111042305 -0.4112036414 0.0008002156 0.0000548932 -0.0000932370
-0.4853678760 0.8537929882 0.0419811293 0.0016043994 -0.0017897209 0.0011699744
0.3234062585 0.8445402059 0.2650526782 0.0033737886 0.0004507685 -0.0000363460
-0.1536669171 0.8727661657 0.1000903427 0.0020557751 0.0018970730 0.0011808346
-0.4355513566 0.8727661657 0.3272171351 0.0019981953 0.0018876851 0.0012219552
-0.3243662387 0.8727661657 -0.0857307475 0.0020500680 0.0018968605 0.0011589225
0.0200871905 0.8537929882 -0.1868319213 0.0020594881 -0.0018959137 0.0011169234
-0.0698765745 0.8727661657 0.3618275217 0.0020575756 0.0018960788 0.0012319294
-0.3406983822 0.8017177309 -0.2638851808 0.0032362501 0.0002667306 -0.0000893532
-0.1366918922 0.8727661069 -0.2499992909 0.0020556726 0.0018968112 0.0011440911
0.2284222516 0.8537929882 -0.3249727562 0.0020643832 -0.0018968548 0.0011359858
-0.3194326794 0.8727661657 -0.1037268064 0.0020502292 0.0018968263 0.0011559968
-0.1635097443 0.8537929882 0.1800168224 0.0027196826 0.0010255515 0.0021466395
0.3627479238 0.5710022588 0.3920874460 0.0005665818 -0.0002997022 0.0002731160
-0.4510184503 0.1992198552 -0.3788626783 0.0020879859 -0.0001331082 0.0030522103
-0.3940454760 0.8240070442 -0.2584483713 0.0010105200 0.0000529997 0.0026893673
0.5000000000 0.0399957257 0.4604807780 0.0037431451 0.0001836661 0.0017106131
0.2765657636 0.8727661657 -0.0930886008 0.0020662673 0.0018967125 0.0011577727
-0.4328891883 0.1257642782 -0.3839874853 0.0022843222 -0.0001321007 0.0030444844
-0.0530752395 1.5387246964 -0.4742799625 0.0020593876 -0.0001683604 0.0022447593
-0.3662936995 0.8727661657 0.1003233390 0.0019906136 0.0018948569 0.0011878623
0.1097802537 0.8257344799 0.0743151672 0.0031511118 0.0007167801 0.0000965611
-0.4896485948 0.5839134340 -0.4123892639 0.0007604971 0.0000549008 -0.0001017712
-0.3646857170 0.8727661657 0.3411989971 0.0020321516 0.0018962230 0.0012134248
0.3824136906 0.5981437231 0.4107140537 0.0011993221 0.0000605206 0.0026351799
-0.4508384062 0.7603536786 -0.4044486741 0.0024797307 0.0000660912 -0.0002539114
0.3062555894 0.8537929882 0.2547966930 0.0031396425 0.0007417848 0.0002069034
-0.4912435503 0.7267018226 -0.3922937508 0.0005676575 0.0000469112 0.0002242506
-0.4305293823 0.8361499253 -0.3548668605 0.0038653552 0.0000101962 0.0009689991
0.0829250547 0.8727661657 -0.3716636912 0.0020607271 0.0018970275 0.0011442486
-0.4820022620 0.0094865888 -0.4078539212 0.0020011058 -0.0018786994 0.0012418865
0.2974612997 0.7883098171 0.2418875156 0.0032666148 -0.0005129664 0.0000479177
0.0036103348 1.5929193828 -0.4957516494 0.0020572114 0.0000843680 -0.0006974018
-0.4437697858 0.0363724749 0.4394061219 0.0035328977 -0.0003197208 0.0001712434
0.4664219686 0.2944046496 -0.4250131890 0.0018988119 0.0000709673 -0.0005635897
-0.0954984618 0.8421012779 -0.0665576136 0.0031326149 0.0004256025 -0.0002865491
0.4613180625 0.7545708780 -0.3126272492 0.0030195157 -0.0009482339 0.0024885628
0.3883469201 0.8470311886 0.3013604774 0.0010477321 0.0002845085 -0.0003921670
0.3267173000 0.8537929882 -0.2045689299 0.0020682177 -0.0018967391 0.0011462180
-0.4156006848 0.8537929882 -0.1382010529 0.0020083896 -0.0018953047 0.0011414463
-0.1856614129 0.7763767149 0.1457431034 0.0007955842 -0.0004412023 -0.0000457737
-0.0886624905 0.8537929882 -0.1609179988 0.0020574428 -0.0018964678 0.0011365417
-0.4912435503 1.1171952115 -0.3938222357 0.0007324320 -0.0001217395 0.0005917250
0.4404880408 0.7436917567 0.3773139832 0.0035909879 0.0001728077 0.0017945903
0.2407172387 0.8727662245 0.1181462524 0.0020649315 0.0018968226 0.0011794401
-0.0039801543 0.8727661657 0.0721738373 0.0020589398 0.0018962572 0.0012092469
0.3662314846 0.8727661069 -0.0865257350 0.0020717088 0.0018965474 0.0011410820
0.4953616804 1.4212248649 -0.4570741990 0.0026482315 -0.0002638012 -0.0001584137
0.0177840175 0.7634903205 -0.0140041545 0.0017013846 -0.0010065631 -0.0001104476
-0.4281520033 0.8537930470 0.3140031062 0.0020448560 -0.0018970711 0.0011898450
-0.4528334036 0.4127502789 -0.4198527712 0.0024094939 0.0000724187 -0.0005607285
0.3606097947 0.8659753562 -0.3430894826 0.0020727675 0.0005380679 0.0011066324
0.0875278584 0.8727661657 0.4009395508 0.0020613911 0.0018960238 0.0012373102
-0.4398889931 0.4894687225 0.3704407808 0.0005861640 -0.0000032956 0.0002904784
0.4418522009 0.6947957570 -0.4075079605 0.0013748334 0.0000704474 -0.0003791685
0.2810960955 0.8129100406 0.2272757423 0.0033751604 -0.0000200433 -0.0000564101
0.3701438335 0.6094151851 0.3738679153 0.0007510902 -0.0003289418 -0.0001131494
0.4420608793 0.2414697139 -0.4273214050 0.0010146846 0.0000556787 -0.0002245713
-0.2565913241 0.8727661657 0.1537561859 0.0020530278 0.0018968453 0.0011741731
-0.4432241210 0.3963737818 -0.4205668722 0.0027532651 0.0000666262 -0.0004311816
0.4775413227 0.5146414768 -0.3568565018 0.0021047714 -0.0001287577 0.0030527871
0.4871231890 0.5891809686 -0.4121595974 0.0031127708 0.0000572516 -0.0001546722
0.2537638748 0.8727661657 0.3132500665 0.0020658404 0.0018968453 0.0012005136
-0.2930126967 0.7672118846 -0.1787033700 0.0009917953 -0.0005648865 0.0025622166
0.4834730760 0.5349770195 -0.4145231089 0.0028930994 0.0000602285 -0.0002404253
-0.1043925240 0.8305099092 0.0731815995 0.0009827110 0.0008033092 0.0001102806
-0.4752878537 0.7418400087 -0.4053695980 0.0014513542 0.0000715346 -0.0002205528
-0.0811797653 0.8537929882 0.3197298582 0.0020571715 -0.0018970218 0.0011943435
-0.3735370098 0.7609625715 -0.2443873001 0.0010442201 -0.0007535520 0.0025259608
-0.0558557473 0.8727661657 -0.0968619275 0.0020578659 0.0018969686 0.0011763266
0.2163821900 0.8258849657 -0.1115236478 0.0031471825 0.0003940236 0.0025308217
-0.1129117444 0.8727661657 -0.1008838996 0.0020565207 0.0018970351 0.0011649522
0.4548436857 0.4858895976 0.3809506347 0.0036761205 0.0000682902 0.0007713327
0.0219372005 0.8727661657 0.4020310815 0.0020596058 0.0018956272 0.0012491893
-0.4188099370 0.5358422420 0.4360292169 0.0013628348 0.0002184154 0.0027158424
0.4813191384 1.0053377696 -0.4100817992 0.0025094465 0.0001415209 -0.0004488153
-0.0497211839 0.8537929882 0.3950963870 0.0020578204 -0.0018970654 0.0011976259
0.3967711608 0.7610425909 -0.2599157701 0.0030626038 -0.0007776669 0.0025215305
0.4472635067 0.4990660766 -0.3579431677 0.0016966773 -0.0001221702 0.0029998709
-0.1509312714 0.8537929882 0.0842131476 0.0020559307 -0.0018969895 0.0011792902
0.0857562152 0.8188605243 -0.0554033224 0.0010216762 0.0000914830 -0.0002279732
-0.4504609178 0.8727661657 -0.0042755799 0.0019696520 0.0018940809 0.0011902282
-0.1506418223 0.8727661657 0.3593557341 0.0020559060 0.0018966290 0.0012140130
-0.4793891071 0.6479306539 -0.3475572523 0.0020303833 -0.0001257523 0.0030410863
0.3009600010 0.8343691047 0.2450113620 0.0033818864 0.0003232574 -0.0000530367
0.3335257982 0.8496232093 -0.2547988654 0.0009393933 0.0010424433 0.0001683462
-0.3713027057 1.2538555921 -0.4237621394 0.0021244940 -0.0002445491 -0.0006384370
-0.2742061018 0.8727661657 0.1632625485 0.0020523675 0.0018969174 0.0011783833
-0.1644053523 0.8537929882 0.1324187721 0.0020554203 -0.0018968946 0.0011870255
-0.3792689149 0.7454187294 0.4126404099 0.0021763724 0.0001438793 0.0028756004
0.4042227415 0.7532350885 -0.2987546481 0.0014913306 -0.0006276289 0.0005827355
-0.3790581533 0.8727661657 0.2938790480 0.0020234998 0.0018959232 0.0012106718
0.0575401575 0.8727661657 0.1368535664 0.0020605753 0.0018964108 0.0012089054
-0.4756379847 1.2695130949 -0.4273753989 0.0018338724 -0.0002059956 -0.0006595219
0.4436433561 0.0794408593 0.4736161194 0.0013034279 0.0000724491 0.0026793836
-0.3576572799 1.2417173443 -0.4091057544 0.0021535894 0.0001608299 0.0030470041
0.4950306573 0.9844552301 -0.3599816213 0.0030216294 0.0002631029 0.0025194625
0.0497306497 0.8537929882 -0.2531123093 0.0020601845 -0.0018959479 0.0011136828
0.1569507586 0.8537929882 0.2413717715 0.0020625447 -0.0018969269 0.0011903003
-0.3346824980 0.7749831976 -0.2590438008 0.0032627898 -0.0001789209 -0.0002273983
-0.1067143893 0.7893164352 -0.0755837764 0.0030332352 -0.0004748398 -0.0001396416
0.0949909825 0.8727661657 -0.1781808658 0.0020613684 0.0018970502 0.0011639674
0.3830104824 0.8537929882 0.4068665836 0.0023326924 0.0009164823 0.0024218758
0.3662843192 0.7532351473 -0.2525356385 0.0023336012 -0.0009860645 0.0015376043
-0.4912435503 0.5671269095 -0.3950799733 0.0004020350 0.0000291105 0.0004888771
-0.0442259199 0.8727661657 0.0836336821 0.0020581069 0.0018965038 0.0012019423
0.4925525288 0.4292805042 -0.4191319840 0.0030808826 0.0000599211 -0.0002659176
0.1115530182 0.8727661657 -0.1982312872 0.0020616625 0.0018970104 0.0011598635
0.4354659223 0.2535993764 -0.3750687372 0.0017167908 -0.0001275149 0.0030199332
-0.4912435503 0.5545454236 -0.3740713837 0.0002204237 0.0000056806 0.0010169196
-0.3781899482 0.6987361312 0.4109755952 0.0024312751 0.0001157516 0.0027926876
-0.1541429256 0.8727661657 -0.3087572276 0.0020551300 0.0018966935 0.0011345135
-0.4625731097 0.7924322332 -0.3154302933 0.0010742471 -0.0004547150 0.0025883825
0.2049887437 0.8537929882 0.0898039681 0.0020636679 -0.0018968662 0.0011792522
-0.3515128258 0.8727661657 -0.0369157235 0.0020491022 0.0018970028 0.0011693027
0.3739940832 0.8537929882 0.1316568605 0.0020727030 -0.0018965531 0.0012058242
-0.4660646885 0.8580451618 -0.3004016868 0.0010785141 -0.0002439457 0.0003568940
0.1941859515 0.8537929882 -0.0613940481 0.0020635142 -0.0018969250 0.0011614174
0.4718539723 1.3138579168 -0.4239826001 0.0021904600 0.0004876543 0.0029619682
-0.1576017169 0.8727661657 -0.2870618943 0.0020550731 0.0018966992 0.0011363861
0.3867878334 0.8537929882 0.0323342627 0.0020725853 -0.0018967467 0.0011937876
-0.2684889332 0.8334825754 0.2196962425 0.0007719588 0.0003802396 -0.0000342418
-0.1806595881 0.8537929882 0.1708066842 0.0020548587 -0.0018967998 0.0011941120
-0.0478429741 0.7539185005 0.0110021861 0.0018739912 -0.0008996796 0.0016784991
0.1203597487 0.8727661657 0.3409017879 0.0020622829 0.0018963482 0.0012237576
-0.4505331790 0.6773234451 0.3696521626 0.0002514031 0.0001616667 0.0014144172
-0.4572288836 0.0542368448 0.4924774880 0.0018529366 0.0001954617 0.0029948829
-0.4670896329 1.0935740457 -0.3912712673 0.0022093857 -0.0004321293 -0.0006375490
0.4650603851 0.9844717899 -0.3579863336 0.0024369690 0.0003403864 0.0029072382
-0.4305294108 0.5185034519 -0.3998612216 0.0033836983 0.0000433442 0.0001391256
0.4346475124 0.8761735548 -0.3703551453 0.0005241767 -0.0000054377 0.0004987754
0.2322219965 0.8051608447 0.1836381588 0.0033915570 -0.0000297120 -0.0000896947
-0.3223138892 0.8367763038 -0.2490900640 0.0031862824 0.0007943292 0.0000706362
-0.4912435503 0.7029359028 -0.3726699925 0.0002921594 0.0000141768 0.0008356138
-0.3981113501 0.8727661657 0.3756476942 0.0020369139 0.0018963444 0.0012225111
-0.4025308597 0.8537929882 0.0057323652 0.0019819808 -0.0018944566 0.0011590648
0.1359863328 1.5932654023 -0.4958232143 0.0020598221 -0.0000243122 -0.0007045338
0.0757336608 0.8182863732 0.0439164238 0.0031327268 0.0006747412 0.0001010938
-0.4406479088 0.0652791392 -0.4350041284 0.0032064793 0.0000476853 -0.0000932408
0.4584687864 0.0983128244 -0.4335636829 0.0014125616 0.0000564604 -0.0002869589
0.4725223594 0.4560853559 -0.3609418025 0.0020790058 -0.0001295166 0.0030535271
-0.2914176843 0.8537929882 0.0352836944 0.0020514853 -0.0018968624 0.0011812900
-0.3731838678 1.5250477733 -0.4806827724 0.0021827037 -0.0006928549 -0.0005828835
-0.4499733564 0.3229012409 0.3885314817 0.0006911862 -0.0000602190 -0.0000460716
0.2643923680 0.8537930470 -0.1628440647 0.0025341724 0.0009605266 0.0018789546
0.0215390692 1.5899758992 -0.4836287452 0.0020592168 0.0007684194 0.0028824194
-0.4231956307 0.2440655121 0.4084639146 0.0033364703 -0.0003340114 -0.0001642461
-0.1310377050 0.8537929882 0.2996135885 0.0020558548 -0.0018968605 0.0012004206
-0.1136845769 0.8727661657 0.0763594246 0.0020566706 0.0018969876 0.0011858758
0.4530139391 0.4717975186 -0.3598456101 0.0017968007 -0.0001244204 0.0030150570
0.2380123542 0.8439261029 -0.1286425785 0.0031237013 0.0006301884 0.0025031323
0.4342852233 1.0247616530 -0.3710828824 0.0008343996 0.0003422799 0.0014974552
0.3875699400 0.5659140453 0.4160324270 0.0012618368 0.0000688499 0.0026541227
-0.4334474456 0.8813428312 -0.4011452466 0.0030039938 -0.0000164156 -0.0004053439
-0.1516681422 0.8727661657 -0.1225241082 0.0020554829 0.0018968738 0.0011559930
-0.3418341773 0.7570297828 0.3097891768 0.0018620324 -0.0010455568 0.0011981192
-0.2239633708 0.7532351473 -0.1361791307 0.0015022023 -0.0008998883 0.0018559173
-0.1506409818 0.8537929293 0.3305669122 0.0020552230 -0.0018967599 0.0012072244
-0.3953069475 1.2619234766 -0.4256239640 0.0021465162 -0.0000624768 -0.0006560232
-0.0265731446 0.7938039218 0.0732724621 0.0028405569 -0.0006017116 0.0023748546
-0.1152909182 0.7783228430 0.1473556622 0.0029578415 -0.0006757923 0.0024325843
-0.4329691508 0.8537929882 -0.2943059274 0.0020187736 -0.0018910756 0.0011228241
0.2431324559 0.8537929882 -0.2838614171 0.0020646944 -0.0018968795 0.0011426985
-0.2005976655 0.8537929882 -0.3533858541 0.0020554393 -0.0018967998 0.0011360086
0.4723738412 0.8727662245 -0.1051841608 0.0024899573 0.0017610353 0.0011278843
0.1875392167 0.8727662245 -0.0991461216 0.0020634080 0.0018968795 0.0011618823
-0.4502721290 0.4612772426 -0.4177367895 0.0024412209 0.0000733788 -0.0005680674
0.4669370601 0.6948844623 -0.4065128648 0.0021276910 -0.0001908265 0.0030592038
0.1682312518 0.8246666012 -0.1217760926 0.0009273207 0.0003545461 -0.0002234291
0.4369186416 0.2940029002 -0.3722498865 0.0017066990 -0.0001265207 0.0030157344
-0.2690814105 0.8537929882 -0.0272207903 0.0020526180 -0.0018968434 0.0011779791
-0.3024218711 0.8727661657 -0.2562860969 0.0020506485 0.0018966214 0.0011355987
-0.1205297920 0.8727661657 0.2864932435 0.0020565283 0.0018965816 0.0012112581
-0.4912435503 1.2843729463 -0.4225635772 0.0017110913 0.0000873829 0.0015701661
0.4346475124 0.3184236564 -0.3854517858 0.0001982270 0.0000008443 0.0010607780
-0.2298199676 0.7969176916 -0.1262408816 0.0009414500 -0.0000791789 0.0026306036
-0.4816129020 0.3267890120 -0.4236010571 0.0014495555 0.0000655201 -0.0004273604
0.3488483694 0.8090718047 -0.2189961569 0.0031260577 -0.0000795280 0.0026614577
-0.4677149395 1.3181668355 -0.4378548825 0.0019460912 -0.0002877776 -0.0006680029
-0.1206892673 0.8537929293 -0.0487921832 0.0014965293 0.0010660516 0.0017804420
-0.4146788938 0.3748582346 0.3845361004 0.0031938508 -0.0003334517 -0.0002697825
-0.3840555782 0.8727661657 -0.1453327421 0.0020476925 0.0018970161 0.0011627285
0.4775395563 0.0162420436 0.4859663451 0.0030049443 -0.0000699617 0.0025503299
0.3935521240 0.4681293696 0.3859953939 0.0007806808 -0.0003313191 -0.0001506138
-0.4912435503 0.3329392851 -0.4003078464 0.0003153219 0.0000160494 0.0007353918
-0.1830097823 0.8537929882 0.2674787822 0.0020545134 -0.0018967011 0.0012054883
0.4531373861 0.3776201107 0.3844923274 0.0035119854 -0.0000168880 0.0002229680
-0.3681306845 0.8727661657 -0.1557006064 0.0020482864 0.0018969497 0.0011587214
0.0768810162 0.7570297828 0.1074670078 0.0014412035 -0.0013160593 0.0022010356
-0.4400153051 0.0626257593 0.4740699522 0.0028937255 0.0000620992 0.0026548285
-0.3640061832 0.8727661657 -0.2156978673 0.0020483528 0.0018968795 0.0011511549
0.4346475124 0.4041104137 -0.4141731220 0.0008111954 0.0000513699 -0.0000775747
0.4805806037 0.0333142605 0.4313474716 0.0034115225 -0.0000711096 -0.0000674411
-0.4305293823 0.8318905721 -0.3822175801 0.0034466646 0.0000087523 0.0001726246
0.2169989567 0.8049265184 0.2333909131 0.0009874125 0.0001300820 0.0026141424
0.4429109307 0.6112136071 0.4006142595 0.0034061834 0.0002001860 0.0020593174
0.4949982909 0.8717829984 -0.1455856128 0.0036013320 0.0008981637 0.0011347715
0.2583968382 0.8305739493 -0.1943379020 0.0009237537 0.0006057168 -0.0000517693
0.0950072672 1.2585340361 -0.4248417720 0.0020253592 -0.0004205708 -0.0006575335
0.0877495562 0.8537929882 0.3889615448 0.0020609643 -0.0018970332 0.0011984588
0.4029557697 0.4561291308 0.4318618116 0.0013727028 0.0000836414 0.0026878931
0.4497182412 0.5887458966 0.3984071401 0.0035371287 0.0001961523 0.0019269871
-0.4276244617 0.8537930470 0.0713761859 0.0019691834 -0.0018940012 0.0011621916
-0.3918263124 0.8727661657 -0.0403810434 0.0020475540 0.0018971432 0.0011760628
0.4346475124 0.4964504325 -0.3825373995 0.0003115861 0.0000144898 0.0007927876
-0.4578008357 1.4577567999 -0.4666043312 0.0019306242 -0.0004312281 -0.0006135897
-0.3713959550 0.8537929882 -0.2120368257 0.0020231716 -0.0018958530 0.0011404559
-0.1565192194 0.8147392086 0.1832485541 0.0031064926 0.0002265359 0.0026343470
-0.4028093669 0.8414838736 0.3934542699 0.0015638670 0.0006993418 0.0025066689
0.4737699065 0.1894779634 0.4157322657 0.0035713563 0.0000109058 0.0004329821
0.4257206001 0.8533728537 0.3337811715 0.0030969434 0.0011161370 0.0001150733
0.2667681267 0.8727662245 0.1099617378 0.0020661439 0.0018967770 0.0011792560
0.3894861038 0.5783962863 0.3628008172 0.0009375453 -0.0003302813 -0.0002583587
-0.4680311692 0.0269866964 0.4233023415 0.0025758583 -0.0002755323 -0.0002713667
-0.3768943724 0.6564479713 0.4094158160 0.0026603895 0.0000948716 0.0027128371
0.0089588128 0.8727661657 0.2916562947 0.0020592529 0.0018957866 0.0012373955
0.2957893074 0.8727661657 0.2848112903 0.0020681684 0.0018967751 0.0012006957
0.1398272743 0.8537929882 -0.0704503992 0.0022025535 0.0010185523 0.0013262659
-0.1122091373 0.7867346639 -0.0315005168 0.0009116583 -0.0000229708 0.0025347036
0.4112256427 0.8727661657 -0.3170987547 0.0020762168 0.0018955172 0.0010959012
-0.3320958904 0.8118907427 0.2764881747 0.0007983942 -0.0001912762 0.0000088311
-0.4488418455 0.4653871232 0.3803930434 0.0004883743 0.0000450215 0.0006162517
-0.1922442403 0.8537929882 0.3185468995 0.0020541092 -0.0018966214 0.0012128386
0.4429178218 0.2604594361 0.3893608049 0.0010137075 -0.0003356735 -0.0003499517
0.3674138627 0.8727661657 0.3275124336 0.0020723311 0.0018966746 0.0012109982
-0.4602782394 0.0550703953 -0.4354492771 0.0025524663 0.0000571927 -0.0003173634
-0.4912435503 0.9870440083 -0.3917613748 0.0005018700 0.0001150002 0.0005727518
-0.3997488056 0.8537929882 0.0379864444 0.0019760593 -0.0018942669 0.0011629903
0.0414095244 0.8537930470 -0.3251449264 0.0020599890 -0.0018957430 0.0011030199
-0.4912435503 0.6556129731 -0.3877378545 0.0003901900 0.0000283175 0.0005255086
-0.1807768822 0.7943708935 0.2043669832 0.0030696201 -0.0001355596 0.0025888417
0.3175749359 0.8537929882 0.4188461815 0.0020711035 -0.0018961566 0.0012360067
0.3719409520 0.5223287746 0.4008337640 0.0005825098 -0.0002166509 0.0009262810
0.3694399817 0.8083147996 0.3979067832 0.0015191985 0.0003824063 0.0027658975
-0.2008016670 0.7532351473 -0.1315529577 0.0020793094 -0.0011326114 0.0011129713
-0.0537587273 0.8537929882 -0.2704266372 0.0020580670 -0.0018959991 0.0011150622
0.4554969607 0.6951436871 0.3697158252 0.0039039846 0.0001708535 0.0014761028
0.1751077271 0.8727661657 -0.1634485293 0.0020630228 0.0018968890 0.0011563023
0.4364614810 0.1430782590 0.4661909987 0.0012633888 0.0000681327 0.0026617158
0.0137792844 0.8537929882 -0.1267169471 0.0020593401 -0.0018960048 0.0011234882
-0.1775582363 0.8727661657 -0.2256835815 0.0020546519 0.0018966840 0.0011399740
-0.4287535707 0.8727661657 -0.3052817740 0.0019909779 0.0018847272 0.0010822500
0.3167333370 1.2774452586 -0.4292058969 0.0020086286 -0.0001734148 -0.0007037635
0.2979093133 0.8727661069 0.3793139041 0.0020684909 0.0018967941 0.0012112201
0.2719266035 0.8727661069 0.0450183366 0.0020662995 0.0018967524 0.0011725433
0.4571988319 0.2658723906 -0.3742124891 0.0020088943 -0.0001322070 0.0030577296
-0.4519205281 1.0225288534 -0.4143382001 0.0022290325 -0.0000812830 -0.0007026460
0.4782908011 0.1946179698 -0.3791837424 0.0023543655 -0.0001332524 0.0030086081
0.4818587792 0.3514382489 -0.3682427818 0.0022865914 -0.0001314481 0.0030291029
0.4025997892 0.8727661657 -0.1716163076 0.0020748735 0.0018960086 0.0011198928
0.3574052041 0.7846459238 -0.2740160702 0.0008507867 0.0000376542 -0.0001492724
-0.2821159455 0.8537929882 -0.3537407038 0.0020516503 -0.0018969155 0.0011392587
-0.4436879431 0.8727661657 0.1920474752 0.0020036994 0.0018952060 0.0012101823
-0.2750478753 0.8537929882 0.0083619660 0.0020522594 -0.0018968301 0.0011809940
-0.4522008872 0.8727661657 0.1035547728 0.0019881623 0.0018946862 0.0012020694
0.3381968313 1.2787921645 -0.4284022823 0.0020075339 -0.0000594790 -0.0004120452
0.1273494483 0.8537929882 0.2318206512 0.0020619072 -0.0018969914 0.0011858189
0.2677555800 0.8537929882 0.1551752069 0.0020654495 -0.0018967334 0.0011898563
-0.2003397157 0.7957173933 0.1588487423 0.0007369742 -0.0001315942 -0.0000938707
0.0917277325 0.8727661657 -0.1209389808 0.0020614196 0.0018970711 0.0011705929
-0.4631964488 0.3787527506 -0.3663371272 0.0020534585 -0.0001308504 0.0030571111
0.4577719414 1.1749093862 -0.4073492233 0.0020597025 -0.0005519278 -0.0006313031
-0.3673789786 0.8727661657 0.0787910574 0.0020158309 0.0018958587 0.0011854830
0.0796717904 0.8727661657 -0.0350180282 0.0020611768 0.0018969117 0.0011829653
0.0286368439 0.8478139005 -0.0140041545 0.0011862932 0.0004785453 -0.0002675645
-0.1923086694 1.2294620187 -0.4180324048 0.0020668061 -0.0006940350 -0.0005561826
0.4716453831 0.0645825124 -0.4350344988 0.0018218548 0.0000614105 -0.0004124532
-0.4345289604 0.8084008430 0.3474639725 0.0004359894 0.0002946762 0.0012387388
0.4944439990 0.8307983755 -0.3386813513 0.0033096725 -0.0000748871 0.0022179901
-0.4391324812 0.4377847643 -0.3622185892 0.0024312315 -0.0001232555 0.0030029218
-0.4182073546 0.2685691261 0.4072524392 0.0033548097 -0.0003331671 -0.0001430530
0.4953616804 1.2381050979 -0.4098088226 0.0022966510 0.0002991691 0.0026312524
0.4727984343 0.0000000000 -0.4030147136 0.0021649145 -0.0017931797 0.0015487814
0.3892974611 0.8727661657 0.1902440879 0.0020729762 0.0018967732 0.0011888603
0.4432169415 1.1395996350 -0.3879405393 0.0019613608 0.0002461713 0.0030399650
-0.4293683415 0.8106723782 -0.3383321765 0.0035335579 0.0000813892 0.0003231161
-0.2765114529 0.8537929882 -0.2394728487 0.0020529272 -0.0018970616 0.0011527922
-0.1622743438 0.8537929882 0.4323211162 0.0020546063 -0.0018966233 0.0012207352
0.4230388894 0.8537929882 0.0991382895 0.0020771370 -0.0018962306 0.0012125634
-0.4892986384 0.8537929882 0.1972955547 0.0017560862 -0.0018398575 0.0011762981
0.2956362147 0.7532351473 -0.2219076915 0.0010835952 -0.0006602552 -0.0000276487
-0.0251437130 0.8727661657 -0.0266617361 0.0020585015 0.0018966119 0.0011919965
0.3792795683 0.8537930470 0.1669487333 0.0020737237 -0.0018963994 0.0012124439
-0.4844478780 0.1196676802 0.4344642827 0.0003799882 0.0000939666 0.0009779867
0.1592890244 0.8727661657 0.0536418412 0.0020631481 0.0018969743 0.0011818269
0.4346475124 0.1352564982 -0.4237229408 0.0004667108 0.0000337723 0.0002472082
0.1687241541 0.8727661657 0.2967013423 0.0020635996 0.0018967334 0.0012094499
0.3414614056 0.8345076051 -0.2123217592 0.0031179562 0.0003005958 0.0026389973
-0.0092136131 1.2332353473 -0.4190036456 0.0020480492 -0.0006542578 -0.0006010655
0.4953616804 0.4439667662 -0.3691998363 0.0035248796 -0.0000452719 0.0017928865
0.2466380483 0.7878098378 -0.1848748931 0.0009206440 -0.0001182845 -0.0002159366
-0.2801896481 0.7532351473 -0.1870494716 0.0017515573 -0.0010701214 0.0015687033
0.4907821891 1.1945778453 -0.4112371670 0.0024284994 -0.0003970593 -0.0006268520
0.3038559758 0.8537929882 0.0728943361 0.0020670793 -0.0018967011 0.0011782087
-0.4305293823 0.4326168198 -0.4021814231 0.0035096650 0.0000366163 0.0002681773
-0.2099605188 1.2502879289 -0.4107539202 0.0020998839 0.0002441032 0.0030338158
0.3820927422 0.7318391368 0.4110898934 0.0016415925 0.0001164763 0.0028571623
0.2857448066 0.8537929882 0.3897498158 0.0020675233 -0.0018965209 0.0012240100
-0.4007802065 0.5341119129 0.4341329124 0.0022209024 0.0001533849 0.0028456531
0.0313575027 0.8537929882 -0.2344238926 0.0020597538 -0.0018958777 0.0011128309
-0.3822687355 0.7691501977 -0.2973393894 0.0032877035 -0.0001743085 -0.0001962652
-0.4100318314 0.8017742425 0.3932393986 0.0011878205 0.0003725213 0.0025293551
0.1103934592 0.8537929882 -0.3001771146 0.0020616093 -0.0018962059 0.0011183597
-0.0586259166 0.8537929882 -0.2308397000 0.0020579798 -0.0018961167 0.0011211621
0.3920300369 0.6360607210 0.3461565840 0.0010787513 -0.0003300062 -0.0003597476
-0.4909762771 1.0458009887 -0.3806307887 0.0001975611 -0.0000764467 0.0009150223
0.4843336083 0.8727661657 -0.1855631110 0.0023761732 0.0018222656 0.0010919396
0.4953616804 0.3664871491 -0.3683464835 0.0026367774 -0.0001180739 0.0028157438
0.1357209398 0.8727661657 -0.2079830659 0.0020621330 0.0018969592 0.0011560006
-0.4623440219 0.2435607251 -0.3757691131 0.0019642200 -0.0001326396 0.0030389329
0.4648805137 0.3214151687 0.4379802383 0.0034190283 0.0001969985 0.0020444007
0.4405132277 0.3046613862 0.3808118156 0.0010667735 -0.0003352143 -0.0003856725
-0.4653161075 0.3363793024 -0.3692934063 0.0019924142 -0.0001315752 0.0030494725
0.3062984935 0.8537929882 0.2731201283 0.0025072817 0.0009784563 0.0009022400
-0.4849057046 0.8727661657 0.2853315348 0.0012077386 0.0016641146 0.0011876441
-0.4563800464 1.3464142179 -0.4311753033 0.0020686731 0.0004154272 0.0029922627
0.4435349642 0.7628783597 -0.2978355779 0.0030361362 -0.0008149777 0.0025150721
-0.2441883796 0.8727661069 -0.2342523295 0.0020529101 0.0018964355 0.0011278065
0.3206261150 0.8727661657 0.2199842876 0.0020694415 0.0018967201 0.0011955426
0.4791698607 0.1827595612 0.4520803354 0.0035143514 0.0001926707 0.0019464042
-0.4912435503 0.6243599776 -0.3658428209 0.0001908332 0.0000024532 0.0011047180
0.3462414112 0.8537929882 0.0721110000 0.0020692290 -0.0018968434 0.0011863122
-0.0032795716 0.8537929882 0.4103383886 0.0020589702 -0.0018971261 0.0011911408
-0.1961402761 0.8727661657 -0.0548183869 0.0020544337 0.0018967751 0.0011561752
-0.4898152932 0.7252766923 -0.3541020385 0.0002094686 0.0000323663 0.0010076379
-0.2760240661 0.8727661657 -0.2053653518 0.0020517376 0.0018965759 0.0011367144
-0.0346590746 0.8727661657 0.0590305784 0.0020583061 0.0018964924 0.0012008817
-0.1256531514 0.8537929882 -0.0153535497 0.0020567807 -0.0018970275 0.0011630719
-0.2527620929 0.7532351473 -0.1672690309 0.0018395169 -0.0010804523 0.0014432735
-0.1811375661 0.8727661657 0.0018791936 0.0020549118 0.0018968833 0.0011651096
-0.3087193590 0.8537929882 0.2129960356 0.0020502273 -0.0018967580 0.0011984417
0.0183838014 0.8537929882 0.4194998321 0.0020594407 -0.0018971698 0.0011937591
-0.4590165363 0.2890458047 0.3994834429 0.0005724407 -0.0000009126 0.0003404044
-0.1264781905 0.8727661657 0.3222096942 0.0020564050 0.0018965455 0.0012145291
0.3401224912 0.8312836467 0.3413050723 0.0011905223 0.0008759992 0.0023954386
-0.4886606786 1.0646041665 -0.3722956878 0.0014625142 0.0003365045 0.0029355006
-0.4582493977 0.2977571778 0.4453371789 0.0008076948 0.0001999337 0.0021538588
-0.3053236934 0.7570297828 0.2816823192 0.0019589189 -0.0010924054 0.0013019271
-0.4730860316 0.1525411085 0.4602332198 0.0008010637 0.0001954655 0.0021345176
0.4415728265 1.1134419185 -0.3824656885 0.0019352366 0.0002947142 0.0030345861
0.1796355260 0.7764909543 -0.0828554516 0.0032029446 -0.0002874778 0.0026155464
0.0593982065 0.8727661657 -0.1662549867 0.0020606246 0.0018970711 0.0011698112
-0.1302809181 0.8313966719 -0.0945492243 0.0031538705 0.0003229519 -0.0002857275
0.3559840107 0.8537930470 -0.0762682604 0.0020694453 -0.0018966651 0.0011580725
-0.4604121084 0.1421868498 0.4750270636 0.0013312160 0.0002052708 0.0026470514
-0.4267000050 0.1376635665 0.4310165357 0.0035511537 -0.0003197379 0.0001745940
-0.0694914493 0.7936334592 -0.0456281668 0.0030006431 -0.0004881343 -0.0001327259
0.1878068960 0.8727661657 -0.0470699385 0.0020635199 0.0018968909 0.0011675344
-0.0184489249 0.8537929882 -0.0928670548 0.0020586989 -0.0018961452 0.0011301497
0.4346475124 0.9950473916 -0.4088645066 0.0009971572 -0.0000094297 -0.0003888278
0.1724812113 0.8696809392 -0.3702853165 0.0020625447 0.0012801450 0.0011236836
-0.4530924273 0.8537929882 0.1170091956 0.0019600915 -0.0018936673 0.0011630966
0.2712921480 0.8537929882 0.0800433099 0.0020656411 -0.0018967467 0.0011813905
-0.0853902131 0.8283335055 -0.0584228884 0.0031049633 0.0001650325 -0.0002727366
-0.4305293823 0.9391654547 -0.3838055003 0.0034547187 -0.0000056445 0.0002356402
-0.3489632766 0.8727661657 -0.1606258289 0.0020490130 0.0018968776 0.0011547579
-0.3841192977 0.8727661657 0.0434999663 0.0019852328 0.0018946938 0.0011846046
-0.2692838638 0.8727661657 -0.3025910302 0.0020518476 0.0018964583 0.0011244425
0.2345088469 0.8537929882 -0.1750194866 0.0020644496 -0.0018968700 0.0011536347
0.3679334716 0.8432374202 -0.2824888310 0.0009266490 0.0009991882 0.0001867084
0.3595657140 0.5930466492 0.3889673069 0.0005724805 -0.0003119190 0.0001668700
-0.0068911823 0.8727661657 -0.3105414633 0.0020588791 0.0018970977 0.0011596700
0.0798821252 0.8727661657 0.0925437310 0.0020611824 0.0018966385 0.0011992405
0.2535388396 1.5774282881 -0.4805999734 0.0020592851 0.0006823570 0.0028798694
-0.4555974502 0.0866104095 -0.4340739988 0.0026762473 0.0000564756 -0.0002909338
-0.4627871423 1.5196702245 -0.4679060734 0.0016958406 0.0005956515 0.0027593385
0.0601986981 0.8537929882 0.4365673532 0.0020603400 -0.0018970787 0.0012004832
0.4449602407 1.4213297809 -0.4476736517 0.0018009482 0.0003882026 0.0029921811
0.4402423362 0.1740398493 0.4131898959 0.0008125614 -0.0003351156 -0.0001933243
0.4583965536 0.8537929882 -0.2172735138 0.0020821990 -0.0018967486 0.0011691376
-0.4605737978 0.2422677694 0.4543740768 0.0009225243 0.0002006964 0.0022610763
-0.0879416521 0.8727661657 0.3022856285 0.0020572019 0.0018963292 0.0012203785
0.1555391466 0.8537929882 0.3386313531 0.0020624631 -0.0018969060 0.0012008020
0.3615175170 1.2453438338 -0.4098031192 0.0019953474 0.0002676300 0.0030008367
0.2791479694 0.7884846796 0.2255363364 0.0032844249 -0.0004604221 0.0000248976
-0.4912435503 1.3719492613 -0.4414745682 0.0015758524 0.0000561815 0.0013717351
0.4552776004 0.8393070070 -0.3999796010 0.0017606340 -0.0000128543 -0.0003804454
-0.4912435503 0.4507340964 -0.3641320038 0.0012929281 -0.0000979908 0.0025549309
-0.4122966501 0.2320759552 0.4453289579 0.0033600425 0.0000019751 0.0025034833
-0.2530410916 0.8727661657 0.3085943770 0.0020533996 0.0018969781 0.0011911807
-0.3452420313 0.8534038312 0.3475484221 0.0028585037 0.0012864953 0.0023060009
-0.2362248323 0.8537929882 0.4105081568 0.0020526293 -0.0018963767 0.0012306620
-0.3763423099 0.7615212064 0.3318609550 0.0015917367 -0.0009974579 0.0008944838
0.1279087776 0.8537929882 0.3794019434 0.0020618408 -0.0018969516 0.0012020694
-0.2411736479 0.8537929293 0.1091700289 0.0020533693 -0.0018966385 0.0011972616
-0.0065806673 0.8727661657 -0.1173408638 0.0020588867 0.0018966803 0.0011844452
-0.3217749694 0.8727661657 0.1164297396 0.0020504740 0.0018970426 0.0011814911
0.4346475124 0.9577219718 -0.3825364148 0.0006206458 -0.0000042690 0.0003139615
0.4847124874 0.1439028636 0.4544934978 0.0035717377 0.0001903124 0.0018869612
-0.4305293823 0.6913843721 -0.3973149434 0.0031244222 0.0000593045 -0.0001713287
0.1773614275 0.8727661657 0.1616012229 0.0020637362 0.0018969630 0.0011915165
0.0631408650 0.8378990720 0.0985388282 0.0009781802 0.0003698878 0.0025652068
0.0507167995 1.2295260570 -0.4067612616 0.0020765450 0.0000091109 0.0030683603
-0.1834318274 0.7532351473 -0.1366775466 0.0030003623 -0.0009409842 -0.0000126655
-0.1006816209 0.8537929882 -0.3309353409 0.0020572265 -0.0018961832 0.0011174149
-0.4887270923 1.3516265160 -0.4318348014 0.0017345630 0.0003995391 0.0029944996
-0.4627621281 1.4338059429 -0.4498983744 0.0020576155 0.0004002487 0.0029931089
-0.3909889977 1.5233466249 -0.4690572140 0.0022104349 0.0002428794 0.0030317269
-0.3833638275 0.6336062748 0.3511568454 0.0031016430 -0.0003297633 -0.0003126106
-0.0553758302 0.8727661657 -0.0437549506 0.0020578773 0.0018968529 0.0011832214
-0.4023829789 0.7860234600 0.3167801211 0.0011443283 0.0001683907 -0.0000626257
0.0502564400 0.8727661657 -0.1845591567 0.0020603761 0.0018970559 0.0011691054
-0.3279384441 0.8727661657 0.2653381619 0.0020203749 0.0018958758 0.0011993638
-0.1465465321 0.8727661657 0.3877668911 0.0020559895 0.0018965399 0.0012185400
0.2389528622 0.8168472292 -0.1299126639 0.0031537035 0.0002156510 0.0025800400
-0.0138127170 1.5644596165 -0.4774696135 0.0020578754 0.0002960195 0.0030222479
-0.2950756142 0.8727661657 0.1233611612 0.0020515080 0.0018969535 0.0011775409
0.4937783631 0.8643311273 0.2216128123 0.0033866069 0.0003608831 0.0011964400
0.4208566382 0.8727661657 -0.1507140968 0.0020761618 0.0018959213 0.0011188834
0.4953616804 0.8207010989 -0.3567116036 0.0038485772 0.0000191098 0.0010137928
0.3900747315 0.8727661657 0.3646553751 0.0020736972 0.0018966499 0.0012168476
0.0396241711 0.8323690112 -0.0182780069 0.0010374903 0.0002313988 -0.0002387461
0.4222091601 0.3655798024 0.3835201608 0.0009499785 -0.0003337154 -0.0002903247
-0.2316211672 0.8727661657 0.1642191382 0.0020538550 0.0018968510 0.0011749852
-0.1824142503 0.8207464942 0.1428438577 0.0008403875 0.0003912819 0.0000005948
0.3991874784 0.2846775664 0.4284191020 0.0004245524 -0.0002676907 0.0007077802
0.4663543691 0.8537929882 -0.0967266051 0.0021106854 -0.0018956652 0.0011728431
-0.0328979786 1.2663315207 -0.4266412356 0.0020692726 -0.0001914280 -0.0006725185
-0.4056194141 0.2896280915 0.4384885847 0.0033530889 0.0000028782 0.0025053844
0.1678823673 0.8537930470 0.0829124471 0.0020628654 -0.0018969440 0.0011741921
0.4346475124 0.2907139758 -0.4078266511 0.0004398239 0.0000282435 0.0004186574
0.4559701612 0.8727661657 0.0904944798 0.0020963094 0.0018958511 0.0011572490
-0.0505085329 0.8727661657 -0.0743218268 0.0020579779 0.0018968852 0.0011803735
-0.4323326102 0.8537929882 0.0033376618 0.0019817019 -0.0018944054 0.0011540957
0.4452020956 1.0190991139 -0.4110735954 0.0013763646 -0.0000188669 -0.0003956221
0.4031119284 0.6700727827 0.3277607432 0.0008889019 -0.0003037758 -0.0002751708
-0.3670514863 0.8537929882 0.1612428689 0.0020479012 -0.0018970028 0.0011828401
0.3861761912 0.8537929882 0.3844913427 0.0020774633 -0.0018956728 0.0012471231
-0.4705035659 0.4173390045 -0.4196526649 0.0017371358 0.0000670398 -0.0004346670
0.3126666223 0.8363591804 -0.1890444120 0.0031204132 0.0003805981 0.0026033372
-0.2690693663 1.5387246964 -0.4731046766 0.0020618863 -0.0001003586 0.0025663395
-0.1859973728 0.8537929882 -0.1379196806 0.0020556100 -0.0018970692 0.0011599394
-0.3976194762 0.3979448539 0.4304101036 0.0031259439 0.0000330475 0.0025734506
-0.2815160269 0.8727661657 0.0774865224 0.0020519577 0.0018968624 0.0011699098
-0.0795685042 1.2546350614 -0.4239420393 0.0020567143 -0.0004058268 -0.0006455292
-0.0567904533 0.8727661657 -0.3775075779 0.0020575472 0.0018969819 0.0011430988
0.4458363784 0.5411229213 0.3690747386 0.0036090086 0.0000355652 0.0005485117
0.0285525081 0.8727661657 -0.0790151098 0.0020597860 0.0018966992 0.0011864867
0.4423806684 0.8537929882 0.1468227949 0.0020826734 -0.0018958454 0.0012225471
0.2749268586 0.8727661657 -0.2136444325 0.0020659163 0.0018966859 0.0011444327
0.0033516260 0.8537929293 -0.1595175203 0.0020590954 -0.0018958720 0.0011174623
-0.0059280735 0.8537929882 -0.1270755895 0.0020589227 -0.0018959877 0.0011230916
0.4520029210 0.3696547970 -0.3669718711 0.0018592111 -0.0001275586 0.0030305600
-0.3969990324 0.6719248798 0.4302258323 0.0016603589 0.0002236843 0.0030121636
0.0839987222 0.8727661657 0.4210420688 0.0020612944 0.0018959593 0.0012405128
0.2438075310 0.7532351473 -0.1603349739 0.0021362631 -0.0010566219 0.0011737386
0.2514498681 0.7703067229 -0.1414598536 0.0031557470 -0.0004638126 0.0025815807
0.3821977474 0.6528418628 0.3515330911 0.0009858852 -0.0003293193 -0.0002872833
0.1193026828 0.8727661657 -0.1466445172 0.0020619262 0.0018970066 0.0011645955
-0.2536786150 0.8537929882 0.1346610678 0.0020527963 -0.0018966423 0.0011988174
-0.1476351542 0.8537929882 -0.3707639300 0.0020563879 -0.0018964089 0.0011224143
-0.1408929104 1.5420621410 -0.4852294913 0.0020589816 -0.0007274051 -0.0005719986
0.4569805436 0.8727661657 0.0438593752 0.0021022783 0.0018955589 0.0011529668
0.4534510678 0.3465125350 0.3865598763 0.0034590028 -0.0000438527 0.0000550573
-0.3342509568 0.7703536227 0.3678193460 0.0036485145 -0.0002512808 0.0002193252
-0.4291823038 1.5262329025 -0.4691420108 0.0019804762 0.0005122891 0.0029627537
-0.1898490835 0.8105481779 -0.0937202046 0.0009503541 0.0002004991 0.0025500985
-0.2458551334 0.8140450844 0.1994874899 0.0007293261 0.0000796020 -0.0000840559
0.0985240272 0.7749124997 -0.0656783719 0.0011321741 -0.0006437637 -0.0001610434
-0.4673615375 0.8727661657 -0.2088684664 0.0019766418 0.0018945515 0.0011706593
0.2400213481 0.8537929882 -0.0341204489 0.0020644952 -0.0018968244 0.0011697258
-0.0121326934 0.8537929882 -0.2770023990 0.0020588108 -0.0018957069 0.0011052815
-0.2186839950 0.8727661657 0.0124485266 0.0020539537 0.0018967561 0.0011599945
-0.4810412402 0.8464400129 -0.3995758537 0.0013111595 -0.0000522597 -0.0003694296
0.4943786289 1.4499827074 -0.4643599789 0.0026489051 -0.0003266365 -0.0004990316
0.3385616400 0.7900323311 0.3676536324 0.0006145972 0.0000380052 0.0006116601
0.4594747955 0.7214403101 -0.3404001011 0.0018757898 0.0002947331 -0.0006899131
0.0697626955 0.8537929882 -0.0010654606 0.0027745549 0.0010088152 0.0018730767
0.2549598016 0.8537929293 0.4237539164 0.0020649296 -0.0018966803 0.0012218432
0.3267830762 0.8537929882 0.0766615117 0.0020680868 -0.0018966689 0.0011769299
-0.4910905753 0.8621360787 -0.2089168005 0.0013881033 -0.0001022920 0.0011701489
0.1206621755 0.8727661657 0.2928192765 0.0020622924 0.0018964545 0.0012175534
-0.3917926711 0.7532351473 -0.2725332690 0.0016254084 -0.0010252043 0.0017945733
-0.4491081644 0.8727661657 -0.1433697505 0.0019595564 0.0018938343 0.0011749814
0.2645088956 0.8727661657 0.0659514130 0.0020659219 0.0018967694 0.0011742566
0.4802880563 0.0697524681 -0.3878952901 0.0024753574 -0.0001347077 0.0029833434
0.0890359187 0.8727661657 0.0014189783 0.0020614310 0.0018968909 0.0011859498
0.3759443816 0.7542796910 0.3348493974 0.0008555926 -0.0003021592 -0.0001766071
0.0433571305 0.7552640744 0.0374214118 0.0018280647 -0.0011039600 0.0018387997
0.2613003396 0.8537929882 0.0604697148 0.0020652105 -0.0018967656 0.0011799884
-0.4528853408 0.6033385336 -0.4115422215 0.0021299963 0.0000682010 -0.0004041619
-0.0776906112 0.8727661657 0.2069714673 0.0020574144 0.0018964640 0.0012104233
-0.3263508995 0.8537929882 -0.0100187627 0.0020501344 -0.0018970218 0.0011703329
-0.4375618133 0.0883864659 -0.4339965275 0.0032855368 0.0000473362 -0.0000779617
-0.1127111429 0.8291781154 -0.0311048976 0.0009589926 0.0006232214 0.0024162503
0.0982599889 0.8348022092 -0.0654658799 0.0009613851 0.0003931299 -0.0002562280
-0.4871717395 0.0094865888 0.4438349245 0.0018841532 -0.0018854216 0.0010844926
0.3201198822 0.8092169059 0.2621184023 0.0033246253 -0.0001925891 0.0000040214
0.0778921879 0.8727661657 0.1893422700 0.0020611274 0.0018964203 0.0012119753
-0.3641123761 0.5240102934 0.3976234416 0.0035815126 -0.0003073370 0.0002482555
0.0722335136 0.7866725931 0.1065082666 0.0012022914 -0.0006643913 0.0024151460
-0.4159406841 0.7576379225 0.3318617651 0.0006710481 -0.0000299074 0.0000887423
0.4769412029 0.9639015148 -0.3543130600 0.0026369140 0.0003348292 0.0028702063
-0.3393792398 0.8537929882 0.3654326740 0.0020484761 -0.0018967220 0.0012105049
0.4331689383 0.8153579448 0.3718232671 0.0031977004 0.0004285623 0.0023704756
0.0568676096 0.7931538609 0.0930404981 0.0011911712 -0.0005759498 0.0024160207
-0.4637930072 1.2575842199 -0.4121570493 0.0019388510 0.0004618090 0.0030022653
0.0767935119 1.2464513740 -0.4100161387 0.0020363788 0.0001878458 0.0030412021
0.4462124192 1.3320205887 -0.4407886082 0.0020155368 -0.0003062461 -0.0006877691
0.1015802228 0.7570297828 0.0869749193 0.0027260291 -0.0008621696 0.0006503218
-0.4288766990 0.1965020291 0.4146267802 0.0033657402 -0.0003316967 -0.0001104210
-0.2083867563 0.8537929882 -0.0876761376 0.0020548454 -0.0018969421 0.0011694033
0.4687603502 0.5926707526 -0.4120074021 0.0024194549 0.0000640781 -0.0003118801
-0.0384881332 0.8060674097 0.0804920749 0.0029652714 -0.0003144387 0.0024322883
-0.1168559682 1.5413908301 -0.4850905849 0.0020590764 -0.0007342866 -0.0005702588
-0.3064109399 0.8029836896 0.3137424907 0.0030316206 0.0003130176 0.0025464556
0.4863788068 1.4383550354 -0.4504793009 0.0022924617 0.0004099534 0.0029939532
0.4649819861 0.0453765625 -0.3895959452 0.0022815236 -0.0001349296 0.0030074298
-0.4305293823 0.5309522830 -0.3848993476 0.0036841594 0.0000221796 0.0006268804
-0.4305293823 0.1870968637 -0.4081192270 0.0037800347 0.0000181004 0.0006247706
-0.4766137999 0.1853934006 0.4229245931 0.0004134246 0.0000778754 0.0008636543
-0.2109714666 0.8727661657 0.2717665059 0.0020545570 0.0018970256 0.0011906191
0.1016947506 0.8537929882 -0.1573016713 0.0020614063 -0.0018964621 0.0011350694
0.4007084651 0.3706637317 0.4292485410 0.0007923038 0.0000064699 0.0025133246
0.1688519574 0.8537929882 0.1698274538 0.0020628407 -0.0018969193 0.0011838362
0.3549345739 0.8727661657 -0.2342333962 0.0020715494 0.0018962116 0.0011213063
0.3710916518 0.6866457091 0.3992360573 0.0010499709 0.0000394946 0.0026237884
-0.0914830051 0.8727661657 -0.1825591352 0.0020569495 0.0018970369 0.0011593171
0.4162713278 0.3158039596 0.4015046119 0.0007806770 -0.0003337363 -0.0001667183
0.0284385457 0.8727661657 0.1963593878 0.0020597822 0.0018961073 0.0012217237
0.0436468623 1.5511772330 -0.4871153436 0.0020603078 -0.0006295888 -0.0005975289
0.0910051713 0.8727661657 0.4438040627 0.0020614841 0.0018959517 0.0012421692
0.4953616804 1.3813697266 -0.4497461507 0.0025624424 -0.0003207245 -0.0004042112
-0.1044333011 0.8537929882 -0.1062918016 0.0020571601 -0.0018966897 0.0011469030
-0.4414324174 0.7532351473 -0.3033694011 0.0012358492 -0.0010100105 0.0023043199
0.4730614215 0.8727661657 0.2124987182 0.0021247274 0.0018953407 0.0011865019
0.3717978202 0.8727661657 0.2888579123 0.0020724962 0.0018966594 0.0012071068
0.3413893777 0.8549785803 0.4208240973 0.0020735909 -0.0016588932 0.0012414368
-0.1569962999 0.8537929882 -0.3547045032 0.0020562191 -0.0018965076 0.0011264745
0.4953616804 0.2673872395 -0.4112752367 0.0035504953 0.0000298790 0.0003950016
-0.4504914020 0.7694427148 -0.3065627576 0.0010838001 -0.0007427676 0.0025299148
-0.2057610944 0.8537929882 -0.1969348727 0.0020552363 -0.0018970521 0.0011565508
0.4143138214 0.8727661657 -0.1892382230 0.0020758468 0.0018958625 0.0011145480
0.3367640567 0.7838128932 0.3383615318 0.0010499330 0.0000107559 0.0025927255
-0.3308472162 1.5361601205 -0.4807579858 0.0021046728 -0.0005784580 0.0001052338
-0.0096246480 0.8537929293 0.0378646044 0.0024246004 0.0006349070 0.0014343485
-0.2151968597 0.8537929882 0.0184308131 0.0020543502 -0.0018968169 0.0011825972
0.4382582238 1.2284479308 -0.4179323801 0.0020393671 -0.0006430370 -0.0006046723
-0.3054363409 0.8727661657 0.3044485973 0.0020278997 0.0018961452 0.0011999254
0.4953616804 0.3815970481 -0.3861777262 0.0038932097 0.0000048363 0.0009995857
-0.2776488133 0.8727661657 0.2838555373 0.0020524187 0.0018970426 0.0011927308
0.0896234668 0.7703539130 -0.0102549465 0.0032288999 -0.0002247012 0.0025523696
