0.0569112757 0.2600301339 -0.1705322374 0.2658215843 -0.0005109918 0.1592853798
-0.0086276402 0.2666967484 0.1401051671 0.2658452799 0.0005246095 0.1593162560
-0.0059706705 0.2528864195 0.0413768061 0.2659310712 0.0005464762 0.1593967427
0.4818799551 0.1610232393 0.0874718448 0.2662497879 0.0000357789 0.1590008949
0.4367811316 0.2205395789 0.1513729388 0.2655713609 -0.0000313736 0.1590437366
0.0789329537 0.2531780214 -0.0521358487 0.2659212708 0.0005460698 0.1594006544
0.2211426814 0.3074603851 0.0760382130 0.2660966527 -0.0005170669 0.1595477468
0.1453399897 0.2504599167 -0.1276443775 0.2660019972 -0.0005461982 0.1594440071
0.3999711760 0.2452152137 0.1881570261 0.2663374311 0.0001622988 0.1597866063
0.1616561065 0.2582552175 0.4433424539 0.2663453142 0.0002210894 0.1597477641
-0.2382034848 0.5885518715 -0.2273371666 0.2656252121 -0.0003063849 0.1591187377
0.3231141300 0.3033962985 -0.0383235280 0.2657997835 -0.0003752791 0.1597934240
-0.2900109462 0.6393939873 -0.2707970840 0.2659846268 0.0005468107 0.1594520795
0.0691966351 0.2959594758 -0.2754626836 0.2655619604 -0.0003082786 0.1593226705
-0.2573312672 0.6277702049 -0.3635817964 0.2660309057 -0.0005405864 0.1594849869
0.0899717917 0.3108785086 -0.2718937381 0.2654804153 -0.0002607937 0.1594756779
0.0665735556 0.2488970576 -0.0421301025 0.2659919254 -0.0005465656 0.1594530189
0.0162883694 0.2771751262 0.1592781865 0.2658295881 0.0005175418 0.1593006821
0.3225524354 0.3234539475 -0.0308637939 0.2655792189 0.0003009394 0.1596835412
-0.3194275080 0.1828435037 0.0400213266 0.2663234136 0.0000001903 0.1590191504
-0.1704730519 0.6327781821 -0.4616742211 0.2658396841 0.0001585637 0.1593322192
-0.1195065905 0.2535777024 0.1435797647 0.2659516497 0.0005473279 0.1594009017
-0.0178466928 0.3286753378 -0.2015745672 0.2656489686 -0.0003422647 0.1591319293
0.4740058298 0.1510164057 0.0827611425 0.2660036637 0.0001397587 0.1589182865
0.3228710363 0.2279016770 0.2762008098 0.2663557014 0.0000729808 0.1597967642
-0.0043244511 0.1903124256 -0.0347260479 0.2659314978 0.0005163639 0.1594034923
0.3346178757 0.2904332959 0.2080054940 0.2656746449 -0.0003850192 0.1591610254
0.2250080904 0.3269561173 0.2363354845 0.2658729968 -0.0005337041 0.1593519882
0.1010295072 0.3296144087 0.4249984690 0.2663514952 0.0003363322 0.1592580270
0.0099434642 0.2516578718 0.0030007866 0.2659392850 0.0005476119 0.1594105545
-0.1093207688 0.4084430241 -0.1941582286 0.2656361998 -0.0003231280 0.1591241552
-0.1347655914 0.5416875536 -0.2940481971 0.2656186939 -0.0002841947 0.1591049477
-0.2134880355 0.6347344464 -0.3843668099 0.2660446891 -0.0005371392 0.1594973115
-0.0842386079 0.2792962196 0.2885864995 0.2656517182 -0.0001673084 0.1598496546
-0.3054451358 0.4326594157 0.0047286761 0.2663036456 0.0003181518 0.1597117253
-0.3427179162 0.5419330657 -0.0671613368 0.2656037398 -0.0002871807 0.1591243236
-0.0535691152 0.2696735529 -0.0708962159 0.2661521891 0.0004784644 0.1596096385
0.0448748756 0.2788327258 -0.1943399110 0.2661875852 0.0004402232 0.1596558972
0.1010431633 0.2610363820 -0.0072235439 0.2658564479 0.0005311075 0.1593389474
-0.0885525916 0.2876710088 0.2538979225 0.2660365345 0.0004439375 0.1591220258
0.2824121602 0.2490303739 0.3056856022 0.2655844873 -0.0002100102 0.1590894529
0.1165528980 0.3260989173 0.3886578657 0.2661403367 0.0004974130 0.1595658493
-0.2641527196 0.0074748462 0.1110155303 0.2657112760 -0.0004192378 0.1596302060
-0.0291419209 0.2960796042 -0.1439017273 0.2662484021 0.0003749918 0.1597020352
0.0461730940 0.3638900001 -0.2936480143 0.2658627638 0.0001890621 0.1599034131
0.1486626361 0.3257820109 0.3305813782 0.2658361469 -0.0005209759 0.1593266585
0.0512536539 0.0386609019 -0.2930353217 0.2659822610 0.0003601999 0.1597912978
-0.2944854244 0.5923192687 -0.1692406128 0.2656253481 -0.0003115909 0.1591239359
0.2894137134 0.3149081198 0.0270308104 0.2660944163 -0.0005207181 0.1595333196
-0.2726079740 0.5224344549 -0.1278845681 0.2656114162 -0.0002835421 0.1591121970
-0.1727767150 0.2401291309 0.1945546632 0.2658286844 -0.0005040585 0.1595910677
-0.0649680375 0.5952458656 -0.3983733481 0.2659883372 0.0002282300 0.1599044814
-0.0558412818 0.6020029201 -0.4153425653 0.2664385028 0.0001412970 0.1592057244
-0.3120531758 0.2303126487 0.0486068262 0.2661143707 0.0000639899 0.1589489637
-0.0605035674 0.3079939510 -0.1251322891 0.2662688934 0.0003462340 0.1597188972
-0.4273319801 0.6361249113 -0.0906385318 0.2658412826 -0.0005302092 0.1593683068
0.3842643457 0.0352453806 0.0202584097 0.2655887396 0.0001211123 0.1597555777
-0.0107431103 0.2950109660 0.2684308218 0.2660838641 -0.0005128816 0.1595759501
-0.3195752502 0.6278561591 -0.2922247138 0.2660524275 -0.0005330411 0.1595156191
0.2781359576 0.3209926009 0.0719994139 0.2660755604 -0.0005270461 0.1595238083
-0.0954442334 0.4278598643 -0.2223589117 0.2662848653 0.0003179067 0.1597333732
0.0568612863 0.2729201859 0.1155764898 0.2660868123 -0.0005187138 0.1595514610
-0.3324382741 0.5369956124 -0.0745900762 0.2656056910 -0.0002860988 0.1591210179
-0.3346347958 0.5330939958 -0.0612020546 0.2663149453 0.0002850064 0.1597322528
-0.1759486233 0.2606072127 -0.0780763980 0.2658662455 -0.0004907117 0.1593414245
-0.1266090685 0.6356691663 -0.3991754542 0.2661083028 0.0004886250 0.1595934680
0.4144780436 0.0534416062 0.0276792501 0.2661005008 0.0002945193 0.1590089541
-0.3515374720 0.5998740110 -0.1065051707 0.2662943981 0.0003167693 0.1597239995
-0.0496684357 0.2859304004 0.3112620567 0.2658830505 -0.0004300297 0.1597517148
0.0877423011 0.3124416523 -0.2852232856 0.2663555275 0.0000365055 0.1590576723
-0.3178609165 0.0524352830 0.0538572364 0.2656538328 -0.0003192168 0.1591144541
0.0200606194 0.0278576961 0.3754066579 0.2656129369 0.0002397831 0.1597132142
0.3576634665 0.3100658590 -0.0168205380 0.2661074550 -0.0005213258 0.1594981681
0.0308228667 0.3138747263 0.3003763834 0.2660732494 -0.0005192720 0.1595616776
0.1818399250 0.2784119410 -0.0154621882 0.2658208676 0.0005175517 0.1593102692
-0.2203117308 0.2739452115 0.1406730076 0.2657642859 -0.0005038929 0.1593556713
-0.3318498485 0.6341340379 -0.1794000255 0.2661102073 0.0004984747 0.1595610919
0.0209218693 0.3157246855 0.3724478779 0.2659249516 -0.0004936198 0.1596520195
-0.1239000677 0.2549509132 0.1657018394 0.2659401027 0.0005453580 0.1593774836
-0.1374925323 0.4698691691 -0.2268215073 0.2656245261 -0.0002985056 0.1591119502
-0.4008072393 0.5719423371 -0.0321845047 0.2660566951 -0.0001653594 0.1589464926
-0.0015463993 0.0094065353 0.3363029471 0.2662468035 -0.0003737305 0.1591704156
-0.1685542084 0.5618528792 -0.2762125745 0.2656224044 -0.0002943669 0.1591102370
-0.4103238022 0.5795395207 -0.0392134628 0.2663454870 0.0002860214 0.1596462279
-0.0975546331 0.1717010889 0.0748656376 0.2661457559 -0.0004523345 0.1596006136
-0.1890620801 0.5559589167 -0.2420545346 0.2662976517 0.0002919507 0.1597451752
-0.3758213084 0.6276234667 -0.2353102330 0.2660209804 -0.0005408343 0.1594937080
-0.0147904610 0.4158256567 -0.3000018391 0.2656549439 -0.0003230781 0.1591055866
0.2085310353 0.2213327485 0.3977170763 0.2655516714 -0.0000353226 0.1590657628
0.0868474626 0.3049005996 0.4318078556 0.2656508523 -0.0004373683 0.1593529808
0.1386771153 0.2189235168 0.4660044383 0.2664518540 0.0000070063 0.1596507149
0.0430487315 0.2488364409 -0.0830491130 0.2659282766 -0.0005458856 0.1593930980
0.1266341219 0.2243072097 0.4754344772 0.2654201287 -0.0000501018 0.1593967514
-0.2862391317 0.3435912244 0.0847080183 0.2661397844 0.0003436461 0.1596796920
-0.0406418930 0.3072773641 0.2935639011 0.2661612157 0.0003196051 0.1590344725
-0.2537838774 0.4884003587 -0.1112659287 0.2663026711 0.0002919457 0.1597396512
0.4102289948 0.3074776562 0.1115316913 0.2661961544 0.0004271654 0.1596732906
0.2842695458 0.2835430930 -0.1029144353 0.2663473005 -0.0000893147 0.1590587406
0.1871518386 0.3069774946 0.1119129545 0.2660959579 -0.0005164401 0.1595512104
-0.1116261390 0.5068513176 -0.2811362044 0.2662965527 0.0002869652 0.1597508291
0.2256726045 0.3043151194 0.0572754350 0.2660993634 -0.0005161281 0.1595486330
-0.3171545380 0.4730267523 -0.0317390016 0.2656094617 -0.0002990683 0.1591292509
0.0887534024 0.2525030559 -0.1073247827 0.2659586729 0.0005482854 0.1594383285
-0.1830534780 0.4867829920 -0.1935887813 0.2656171524 -0.0002880916 0.1591100659
-0.1683561921 0.2604442744 0.0933005763 0.2660829752 0.0005242185 0.1595218160
-0.1817744720 0.2606197643 0.1098484779 0.2660832346 0.0005261478 0.1595105108
0.1255842102 0.0204116203 -0.2351563987 0.2661067887 0.0004590787 0.1592688682
-0.0515424272 0.0083153888 0.2943440836 0.2660881180 -0.0004620268 0.1592653870
0.3854829193 0.3389008227 -0.0079633602 0.2662488315 0.0002559371 0.1590399702
-0.1228229946 0.1766936360 0.0819517394 0.2656144296 -0.0002050571 0.1591089494
0.0359565622 0.0245594685 0.3677616264 0.2663271997 -0.0000654925 0.1590562114
0.1064689630 0.2882162231 0.1100711664 0.2658198920 0.0005143047 0.1592977970
0.2973842742 0.3240166337 0.0658078326 0.2660657863 -0.0005309451 0.1595128596
-0.4254039657 0.6300411661 -0.1759854836 0.2660266727 -0.0005393548 0.1594999224
0.1238376270 0.3193478211 0.2342079311 0.2660700781 -0.0005256690 0.1595368250
0.0315647582 0.2813234093 0.1605903314 0.2658259112 0.0005157914 0.1592974620
0.0107064091 0.2484701982 -0.0470039602 0.2659234408 -0.0005452692 0.1593895362
0.1335366422 0.2535841120 -0.1319614070 0.2659328683 0.0005473794 0.1594242841
-0.1497606041 0.2674646139 0.0293227247 0.2657552824 -0.0004735738 0.1592463654
-0.1622024587 0.2652429221 0.0639566433 0.2661230140 0.0005033494 0.1595675893
0.1180078288 0.2677515468 0.0087682281 0.2658364436 0.0005234645 0.1593199735
0.3289748220 0.3207676070 0.0025354519 0.2661031089 -0.0005228031 0.1595081242
-0.2277917988 0.3383774317 0.0226971290 0.2662819813 0.0003432310 0.1597079836
-0.1780576839 0.5429455391 -0.2488388678 0.2656183638 -0.0002866669 0.1591075126
0.0732328736 0.3200123605 0.2697125051 0.2658420076 0.0005222564 0.1593082094
-0.3634953651 0.4686595163 0.0262699654 0.2663789067 0.0000472337 0.1590869741
-0.2360305276 0.5961779077 -0.2374371339 0.2656302914 -0.0003143032 0.1591213458
0.2378143116 0.2238331221 0.3706368788 0.2663617332 0.0000465652 0.1597923562
-0.2058121942 0.3414649257 -0.0055365229 0.2662789717 0.0003418194 0.1597131621
0.1014115485 0.2756019409 -0.2481610069 0.2661436062 0.0003130150 0.1597812003
-0.0467660718 0.5453274914 -0.4022727552 0.2659463867 -0.0002177645 0.1589263589
0.0865841941 0.2600792031 -0.1803431803 0.2660552369 0.0005262372 0.1595416349
-0.2880621461 0.3247668262 0.0696736934 0.2662488556 0.0000211428 0.1589915026
-0.3625709544 0.6334755906 -0.1614160585 0.2658671805 -0.0005339218 0.1593534596
-0.2251787944 0.6393583741 -0.3341902381 0.2659876890 0.0005449835 0.1594588373
-0.1442147764 0.3961775966 -0.1433662201 0.2656364060 -0.0003290786 0.1591303949
-0.0311830683 0.3265833137 -0.1781225934 0.2662708687 0.0003404490 0.1597235876
-0.0585390690 0.2749783703 0.2824833576 0.2663176933 -0.0002951533 0.1591999745
0.2595984807 0.3330351765 0.1801275458 0.2659857603 0.0005452977 0.1594569772
-0.3131920704 0.2279315666 0.0652734298 0.2660473630 -0.0001250289 0.1599247385
-0.0924533379 0.5119808963 -0.3056864390 0.2662947117 0.0002862079 0.1597534236
0.0011797048 0.2663500027 -0.2584960099 0.2663389666 -0.0000819624 0.1597795968
-0.4253399687 0.6079902006 -0.0559673762 0.2661886798 0.0000072569 0.1591323126
-0.0102486723 0.2634518894 0.1263099020 0.2658530150 0.0005279844 0.1593241578
0.3604936914 0.2818279224 0.1996580840 0.2662640313 0.0003502630 0.1597189257
0.2586477559 0.2830055101 -0.0796853803 0.2661583541 -0.0005050527 0.1594852896
-0.1147479411 0.6128512390 -0.3755985991 0.2662596107 0.0003382198 0.1597353090
0.3056180028 0.1988674412 0.2942725138 0.2663596010 -0.0000422631 0.1597995523
-0.3788807203 0.6070349965 -0.0904817855 0.2656209396 -0.0003238140 0.1591420603
-0.0005097094 0.4850584159 -0.3588612373 0.2664557032 0.0002313038 0.1594189230
0.2858357397 0.2109043600 0.3178502645 0.2663662859 -0.0000051247 0.1597932951
-0.3006185064 0.3245825664 0.0806671859 0.2655137609 0.0000527050 0.1596738587
0.1137140793 0.3219782979 0.4042873938 0.2661696664 0.0004773808 0.1595873183
-0.2364547761 0.6359179919 -0.3262366516 0.2659361712 -0.0005466967 0.1594023911
0.1900537765 0.3101798284 0.3419513645 0.2662016104 0.0004415350 0.1596416921
-0.3286349297 0.4203239665 0.0590988520 0.2658794651 0.0002031109 0.1599287659
0.0123012500 0.2684136426 -0.1490373307 0.2657561319 -0.0004698266 0.1592344526
-0.4171237663 0.6288275638 -0.0720106434 0.2656748434 -0.0004243023 0.1592467487
0.0207406893 0.2843898165 -0.1888064342 0.2656891039 -0.0003979991 0.1591650183
0.2302311921 0.2431248633 0.3671384244 0.2655705992 -0.0001607995 0.1590788930
-0.2948833314 0.5843013502 -0.1539367939 0.2662971170 0.0003047047 0.1597334851
0.0703986065 0.3037495547 0.2225122690 0.2660903473 -0.0005161571 0.1595582853
0.2077880893 0.0078233396 -0.1610389374 0.2661563273 -0.0004380516 0.1592282645
0.0931589964 0.2656558578 0.0263481631 0.2658426196 0.0005260880 0.1593260426
0.2318482265 0.3003850521 0.3042660505 0.2656971949 -0.0004190245 0.1591931317
-0.3522224961 0.5565648810 -0.0624135823 0.2663150742 0.0002877012 0.1597295399
0.1824703576 0.3228506605 0.1705514920 0.2658475327 0.0005266490 0.1593242000
-0.1367403985 0.3536726484 -0.0962561553 0.2662780088 0.0003380942 0.1597186274
-0.3920138578 0.5867862602 -0.0260489961 0.2664455672 0.0002437068 0.1594425396
0.0877090811 0.1817895257 -0.1486236925 0.2655585856 0.0000518106 0.1590654376
-0.0886281361 0.2491886930 0.0516722041 0.2659117277 -0.0005450383 0.1593911710
0.2334731227 0.2551082446 -0.1472583978 0.2663175310 -0.0003177543 0.1591625445
0.1500742970 0.3041751424 0.1251752520 0.2658183872 0.0005144204 0.1592998947
0.3673324824 0.2704330001 0.2049239452 0.2662879786 0.0003063471 0.1597414916
0.1389580065 0.2947974861 0.0998232681 0.2658154423 0.0005134349 0.1592991894
-0.2406649647 0.6169863513 -0.2472724436 0.2662634791 0.0003539230 0.1597118767
-0.0431716210 0.2945358073 0.2947297652 0.2663294481 -0.0000021042 0.1590275902
-0.2160511679 0.6330087993 -0.3203506880 0.2658725762 -0.0005332796 0.1593431026
0.3543264604 0.2738060544 0.2081460523 0.2656389664 -0.0003269689 0.1591273573
-0.1752060957 0.2670745057 0.0736571891 0.2661355887 0.0004958638 0.1595750727
-0.0951754255 0.2622749373 0.1975738004 0.2658816346 0.0005321269 0.1593213599
-0.3845731858 0.5678327295 -0.0127008224 0.2663878915 0.0002810173 0.1596210056
0.0286887698 0.2650615578 -0.3063836463 0.2657141161 -0.0002169655 0.1590429578
-0.2050215686 0.6327214821 -0.3122883534 0.2661312410 0.0004794690 0.1595928730
-0.1693133381 0.5819308451 -0.2945534801 0.2656284509 -0.0003058958 0.1591148929
0.2269674213 0.2015801738 0.3819427677 0.2663647104 -0.0000288603 0.1597949370
0.0246235953 0.2477537950 -0.0447977324 0.2659463928 -0.0005476415 0.1594108512
0.2208394563 0.0070158312 -0.1403079796 0.2659063222 -0.0005125909 0.1594984769
-0.3701631844 0.6306753804 -0.1241363504 0.2661929117 0.0004429784 0.1596288427
0.3740272799 0.3333179421 0.0184004006 0.2660873898 -0.0005268278 0.1593679849
-0.1011936003 0.2499901137 0.0587928821 0.2659024735 -0.0005432028 0.1593834688
0.1302569723 0.2596107722 -0.2060529950 0.2659796808 0.0005361686 0.1595365919
0.1825091592 0.2638019989 -0.1692635077 0.2661624764 -0.0004731938 0.1592582897
0.0064412605 0.2500407891 -0.0622891194 0.2658974058 -0.0005407828 0.1593661889
-0.0018758914 0.3038473246 0.3435082154 0.2660997083 -0.0005136493 0.1595313668
-0.1878108217 0.6309394025 -0.4319397158 0.2660415287 -0.0005391754 0.1594837969
-0.0726097380 0.3045241814 -0.1157245748 0.2656528090 -0.0003501698 0.1591372372
-0.1925424600 0.2979876027 0.0322388040 0.2662631467 0.0003698363 0.1596929878
0.3240428330 0.3332238207 0.1215961623 0.2660233714 0.0005394546 0.1594975863
0.4105163455 0.2340888481 0.1759092426 0.2655734103 -0.0001124257 0.1590561544
0.2395374756 0.2541810224 -0.1354485815 0.2662537429 -0.0004355284 0.1592943603
0.2371046427 0.2101441599 0.3658681044 0.2655520882 0.0000117943 0.1590611168
0.3817703905 0.2141291533 0.2089732668 0.2655604792 -0.0000029147 0.1590513993
-0.0662245165 0.0120165987 0.2957955836 0.2656531215 -0.0002498795 0.1597507425
-0.3615192188 0.6360639935 -0.2325088520 0.2658408149 0.0005176241 0.1593137751
0.0470830446 0.2700150439 -0.3141852398 0.2663660101 -0.0000184650 0.1591102255
0.3097108701 0.3340633817 0.1053394990 0.2659425836 0.0005467778 0.1594239063
0.1208114692 0.3223898610 0.2518970074 0.2660605848 -0.0005291804 0.1595293728
-0.0055236280 0.3136612129 0.3527397028 0.2661604539 0.0003331109 0.1590485772
0.0928013893 0.2871646887 0.1351976556 0.2660965304 -0.0005137124 0.1595615285
-0.1438964304 0.2539643295 0.1500901763 0.2659754203 0.0005475757 0.1594108441
-0.1462631198 0.3036471663 -0.0266019253 0.2662696134 0.0003527846 0.1597096447
-0.3679064819 0.6006947944 -0.0887208931 0.2662988028 0.0003181140 0.1597173327
-0.2324980322 0.3502824069 0.0135244843 0.2662830754 0.0003387369 0.1597121109
0.1671885792 0.2681623399 -0.1908865757 0.2659596452 0.0005476459 0.1594359693
-0.3556930021 0.4507017236 0.0287938947 0.2654813646 -0.0001816023 0.1595516683
-0.2131801666 0.2931089587 0.0624307701 0.2662582468 0.0003829095 0.1596800644
0.1198424418 0.2530587298 -0.2434404813 0.2664324206 0.0002417803 0.1593302620
-0.4529811781 0.6435238784 -0.0897479269 0.2660466101 0.0005284000 0.1594125359
0.2247365630 0.2729269641 0.3501635834 0.2656294024 -0.0003223081 0.1591322610
0.0285516713 0.1881695758 -0.0794231997 0.2656916188 0.0003958911 0.1591803689
0.0390904981 0.2851520254 -0.2087499794 0.2656907392 -0.0003955346 0.1591591866
-0.0162836834 0.3557483387 -0.2271494590 0.2662699156 0.0003380443 0.1597273282
-0.0629087152 0.2667813305 0.1923344152 0.2658560054 0.0005253888 0.1593095716
0.2778325340 0.2883011732 -0.0768829782 0.2655920074 -0.0000025391 0.1598320210
0.0086313555 0.2506061027 0.0509381031 0.2660091197 -0.0005433701 0.1594794964
-0.4833611446 0.6483373206 -0.1106043347 0.2660508020 0.0004230892 0.1591027295
0.0456717271 0.2992694203 0.2150017591 0.2658227436 0.0005143222 0.1592948768
-0.3671567918 0.5551978457 -0.0434436003 0.2663194816 0.0002863285 0.1597256392
-0.2863731169 0.5474832444 -0.1352378463 0.2656122245 -0.0002856853 0.1591132433
-0.0471251854 0.3105425904 0.3196478077 0.2655785762 0.0003054253 0.1596723567
0.2289214179 0.2932593453 0.0070473339 0.2661075389 -0.0005128684 0.1595526905
-0.1282358072 0.4759851807 -0.2354423444 0.2662923712 0.0002996633 0.1597435355
-0.3035694038 0.6134132890 -0.1820645093 0.2656544772 -0.0003580250 0.1591519928
-0.0974580347 0.1803064289 0.0525777538 0.2655702927 -0.0000076962 0.1590720803
0.0073526846 0.3118539297 0.3625511147 0.2658806634 -0.0004561601 0.1597158388
-0.2886214520 0.0383828936 0.0780499138 0.2662564015 0.0004054594 0.1595334935
-0.0903170984 0.2642650578 -0.0145731402 0.2661272213 0.0004991388 0.1595778925
-0.0396075963 0.3557251092 -0.2096199992 0.2656450305 -0.0003368641 0.1591298865
-0.0746337816 0.6185925056 -0.4071534749 0.2658118920 -0.0003085061 0.1590018157
0.1117072399 0.3195212693 0.2277997401 0.2658393095 0.0005223359 0.1593113133
0.2398254586 0.0098960937 -0.1340886424 0.2662350207 -0.0003519757 0.1591356710
0.0259487749 0.3709262721 -0.3160769713 0.2655618205 -0.0002995070 0.1592804360
-0.0206560737 0.2518827484 -0.0113124655 0.2659855991 0.0005467153 0.1594514839
-0.4333986548 0.6292390599 -0.0621391178 0.2661532250 -0.0002809022 0.1590378402
-0.0154228343 0.2480228037 0.0270908579 0.2659658958 -0.0005479437 0.1594391982
0.2587450268 0.2342645557 0.3395196904 0.2655611208 -0.0001149708 0.1590696986
0.3028875806 0.3087374158 -0.0211582019 0.2661188977 -0.0005155232 0.1595241549
0.0349211610 0.0672322126 -0.3120556946 0.2662068640 0.0002866373 0.1597835726
0.3523615024 0.0247073972 -0.0258117346 0.2660622953 0.0004539967 0.1592126852
0.0852764698 0.2574782815 0.0128988721 0.2660602525 -0.0005314414 0.1595163271
0.1294004249 0.2568184950 -0.0718096148 0.2658861835 0.0005400995 0.1593703304
0.0106471650 0.0274393401 0.3607486507 0.2657654151 0.0004632382 0.1594858846
0.3188800260 0.2157590223 0.2764786552 0.2655572157 0.0000030485 0.1590551031
0.4935219464 0.2152531870 0.1076496803 0.2664026082 0.0000073123 0.1596904422
-0.2542599064 0.6108397471 -0.2260120708 0.2662811511 0.0003265680 0.1597273211
0.3578470315 0.3367583912 0.0028408607 0.2655882071 0.0002540917 0.1597360976
-0.1148221470 0.2504438839 0.2428589589 0.2660065795 -0.0005218144 0.1595863773
-0.3481566020 0.6379539175 -0.2383165258 0.2658691081 0.0005330981 0.1593397410
-0.2917285264 0.6378126019 -0.2978201460 0.2658693253 0.0005345448 0.1593488366
-0.2242033398 0.6290117227 -0.2806187377 0.2661837168 0.0004477604 0.1596399422
0.2521856118 0.3154824873 0.0754332187 0.2660885995 -0.0005214387 0.1595372034
0.0320264615 0.3945888473 -0.3340439348 0.2661296177 -0.0001555119 0.1589343989
-0.4225302532 0.6173100189 -0.0280550156 0.2659153953 0.0002296531 0.1599202406
0.1011643463 0.0910752818 0.4327879124 0.2659137249 0.0002802074 0.1589929010
-0.0017811004 0.0237090006 0.3525998931 0.2656905291 0.0004075148 0.1596331098
-0.0807650895 0.6313087919 -0.4141664506 0.2658325379 -0.0003745470 0.1590597508
-0.0156577027 0.4525364868 -0.3277499897 0.2662645775 0.0003112986 0.1597598677
-0.2263445664 0.4147781388 -0.0736644942 0.2656291200 -0.0003206229 0.1591291840
0.1520489122 0.2314065245 0.4867223421 0.2663446847 0.0000802317 0.1598038155
0.0345371109 0.0676143499 -0.3262696205 0.2663413208 0.0000067178 0.1590514552
0.0234656724 0.2213697673 -0.3122232854 0.2656463034 -0.0000082802 0.1598568095
-0.0027538103 0.3072151406 0.2896030064 0.2658386816 0.0005142175 0.1592801135
-0.2454071464 0.4759733990 -0.1159374361 0.2656162448 -0.0002957055 0.1591181745
-0.2288073520 0.2372941948 0.1274232037 0.2660606309 -0.0002022800 0.1589474062
-0.1783579888 0.3502774528 -0.0538960040 0.2656388238 -0.0003370111 0.1591367327
-0.0759232636 0.4185037632 -0.2329893992 0.2662789279 0.0003240855 0.1597331889
0.0419920087 0.0309099613 -0.2974754584 0.2655317154 -0.0002228975 0.1596118118
0.1897796212 0.2634810426 -0.1017787038 0.2658422089 0.0005301324 0.1593513548
0.1296025919 0.2508564516 0.4812162109 0.2663015727 -0.0000072355 0.1590055629
-0.0331330398 0.5083775089 -0.3643450088 0.2656160775 0.0000180679 0.1598377040
-0.0624454051 0.3780288838 -0.2035030839 0.2662758728 0.0003315617 0.1597283225
-0.1484415999 0.6409091663 -0.4121331353 0.2659870222 0.0005416509 0.1594847703
0.3952885236 0.3086405497 0.1247751043 0.2661944017 0.0004326587 0.1596654168
-0.1833744678 0.2490119813 0.1968286872 0.2656188842 -0.0002114448 0.1598002674
-0.3172070878 0.2026834217 0.0589896766 0.2661601008 -0.0001412707 0.1598696200
-0.3145648628 0.0563867092 0.0677839367 0.2657422882 0.0001003007 0.1598769449
-0.3022017663 0.2507527240 0.0658799047 0.2663838850 -0.0001492196 0.1596747855
0.1752653568 0.2565665733 0.4216255990 0.2655802696 -0.0002259739 0.1591023527
-0.2496294852 0.2600635048 0.1290319853 0.2655482280 -0.0000855983 0.1597294856
0.0430173688 0.3361600244 0.3764653889 0.2662318225 0.0002777292 0.1590916887
0.0905230642 0.2799450272 0.0930278310 0.2658231138 0.0005159926 0.1593011061
0.1917532065 0.3287049598 0.2860145978 0.2660796124 0.0005206584 0.1595329593
0.1535018095 0.1975382456 0.4848070466 0.2663889275 -0.0000418869 0.1597595436
-0.2688310715 0.6336110154 -0.2487320610 0.2661218859 0.0004900679 0.1595796798
0.0549343934 0.0413053112 0.4088806613 0.2656673644 -0.0001121263 0.1598325436
0.1022985050 0.2977451704 0.4386121208 0.2657903807 -0.0003906561 0.1591366696
0.0204588779 0.1245989741 -0.3266796108 0.2663347971 0.0000611278 0.1598059767
0.1588281492 0.2646796672 -0.0533133355 0.2658408521 0.0005267033 0.1593313653
0.1704724240 0.2634010297 -0.2036912592 0.2662367410 0.0003737957 0.1591433402
0.4526843379 0.3049917421 0.0543337671 0.2661643914 -0.0002164922 0.1589726406
-0.3247098160 0.1571499395 0.0487678150 0.2663013819 -0.0000973931 0.1598184658
0.4099839510 0.2119994408 0.1789408558 0.2655639478 0.0000027135 0.1590479932
0.1071730821 0.2800489725 0.0927522115 0.2660989335 -0.0005143990 0.1595561597
-0.0077520135 0.2487631558 -0.0366223316 0.2659128245 -0.0005443336 0.1593814995
-0.1044563167 0.4967515175 -0.2862792050 0.2656216668 -0.0002890667 0.1591061493
0.4261996623 0.3140196569 0.0773616849 0.2657907821 -0.0004468451 0.1591640739
-0.2869778435 0.3167187833 0.0998203984 0.2654844213 -0.0001678497 0.1596387703
0.1281124405 0.2972585305 0.4646742216 0.2662555526 0.0003642306 0.1597078937
0.1907066175 0.2398591516 -0.1708983803 0.2660338144 -0.0005383660 0.1594135756
-0.0366850822 0.1901302749 -0.0006476530 0.2659048706 0.0005046310 0.1593776355
-0.2408689053 0.4458639146 -0.0905202942 0.2656246846 -0.0003147458 0.1591278547
0.1288400151 0.3160364376 0.2127885607 0.2660803155 -0.0005220705 0.1595436289
-0.2884908470 0.0168499223 0.0888220356 0.2656077803 -0.0003736257 0.1595635679
0.0692938692 0.3258262262 0.2988363183 0.2658585302 0.0005278824 0.1593189146
0.1476453007 0.1860200482 0.4750231483 0.2664791388 -0.0000978872 0.1594618019
0.2934413306 0.3232562658 0.0444841235 0.2658345456 0.0005247313 0.1593290582
-0.0907892113 0.3260166445 -0.1214794980 0.2656436140 -0.0003388033 0.1591336008
-0.0808176728 0.2690728932 0.2165034410 0.2658605197 0.0005237069 0.1592987809
-0.4192492611 0.5759775041 -0.0240962300 0.2654613093 -0.0001871553 0.1595468085
-0.2902552200 0.4144094190 -0.0009024198 0.2656212160 -0.0003255129 0.1591436841
-0.2057571672 0.5982564096 -0.2717759859 0.2656320073 -0.0003170490 0.1591223614
-0.2239658946 0.4493029242 -0.1128454567 0.2656246999 -0.0003127447 0.1591257779
-0.1027630363 0.6247136721 -0.3992577270 0.2662168294 0.0003881516 0.1597111435
0.0085859178 0.2476561760 -0.0105185096 0.2659663806 -0.0005481707 0.1594323362
0.0464626877 0.3253440053 0.3182509496 0.2658613719 0.0005263458 0.1593092897
0.0108062541 0.2862965098 0.2001333600 0.2658245994 0.0005139850 0.1592917411
-0.1089991429 0.6541901804 -0.4531042942 0.2661188588 0.0005089787 0.1593363941
-0.0769043080 0.0228808177 0.2680812892 0.2661854689 0.0004107569 0.1591834383
0.1894188339 0.3155978294 0.1289173419 0.2658253710 0.0005188256 0.1593107671
0.0393572643 0.2640255374 -0.1518187633 0.2661037440 0.0005086156 0.1595728539
-0.1830377128 0.4757455260 -0.1838833066 0.2656184740 -0.0002926427 0.1591128517
0.3188895363 0.3226191061 0.0295088754 0.2660817808 -0.0005272780 0.1595142454
0.0288467879 0.2777388329 -0.1759607149 0.2661873099 0.0004434922 0.1596504966
-0.2562768537 0.5007251981 -0.1267757638 0.2656119251 -0.0002834105 0.1591115164
0.1319714481 0.2112738668 -0.2020411573 0.2660725930 0.0003816707 0.1597342045
0.0148259909 0.1505850105 -0.3419785429 0.2660027391 0.0000297454 0.1589061621
0.2616168556 0.3255131355 0.1180595254 0.2660526534 -0.0005341368 0.1595073981
-0.2512946828 0.4525638999 -0.0859043830 0.2656227361 -0.0003116369 0.1591268073
0.2866634558 0.3025302288 0.2487568884 0.2662238943 0.0004122848 0.1596715544
-0.2586051852 0.5877827013 -0.2039382778 0.2656233405 -0.0003086575 0.1591230744
-0.1032032513 0.2603441953 -0.1534186582 0.2660157218 -0.0005129967 0.1594795458
0.1309732252 0.2805518119 0.0503746218 0.2658214522 0.0005166891 0.1593058370
0.3866848238 0.3184333847 0.1132362933 0.2661522949 0.0004696533 0.1596277350
0.0905752126 0.3352860550 0.3411018124 0.2659564443 0.0005469259 0.1594021487
-0.0858687281 0.4172035371 -0.2212950593 0.2662800230 0.0003240975 0.1597320219
0.2308517876 0.2712909536 -0.0939556554 0.2661143817 -0.0005186436 0.1595144883
-0.0761391536 0.6088439869 -0.3985088063 0.2658069334 0.0001650682 0.1599229935
0.3915324650 0.3368101712 0.0441565398 0.2659963465 0.0005370137 0.1595247170
-0.2420595469 0.3451724421 0.0236806588 0.2656309703 -0.0003401452 0.1591494565
0.1879931901 0.2794972817 -0.0009234732 0.2660990294 -0.0005161687 0.1595488288
0.0339340421 0.2521858984 -0.0189228040 0.2659396223 0.0005478165 0.1594155729
0.2008065136 0.2072933746 0.4060721342 0.2655480833 0.0000165286 0.1590657699
0.4070902561 0.1973400286 0.1803256980 0.2655654120 0.0000417076 0.1590481999
-0.1460755132 0.2665868957 0.2280993250 0.2656132484 0.0003097186 0.1597161575
0.1255420535 0.2635702602 -0.0012418526 0.2660801246 -0.0005241302 0.1595337463
0.3154996370 0.2906132376 -0.0539419271 0.2661103093 -0.0005058216 0.1595387120
0.0633453480 0.3091278251 -0.2763031483 0.2655043346 -0.0001688527 0.1596161353
0.1289596329 0.2505096884 -0.1638169557 0.2659558355 -0.0005463978 0.1593894337
0.2088084201 0.3023449983 0.0682958136 0.2660993437 -0.0005156406 0.1595507278
0.1998599873 0.2630477061 -0.1231150067 0.2658418053 0.0005317611 0.1593644516
-0.3845940051 0.6277305077 -0.2261093718 0.2660228564 -0.0005403441 0.1594958424
-0.0742548529 0.2495644585 0.0296802151 0.2659028399 -0.0005430306 0.1593818653
-0.1393807491 0.2546353624 0.1627236298 0.2659613425 0.0005467866 0.1593909971
-0.1754350063 0.6404395640 -0.4051390375 0.2659281318 0.0005438253 0.1594226148
-0.1502700040 0.2609969190 0.0688366934 0.2660880456 0.0005202580 0.1595357567
-0.1901712858 0.3636012098 -0.0490020971 0.2662806076 0.0003356566 0.1597185841
0.4371077112 0.0622052779 0.0559761373 0.2662529971 -0.0004031874 0.1595833957
0.0544702465 0.2482255230 -0.0486791490 0.2659745659 -0.0005477732 0.1594375295
0.1696596571 0.2619571946 -0.1793127327 0.2662134573 -0.0004065233 0.1591650161
-0.1090003483 0.4813536442 -0.2675377486 0.2656221773 -0.0002925451 0.1591087679
0.0457828684 0.2673000354 -0.1675952972 0.2661240099 0.0004940799 0.1595925703
-0.1973386310 0.4199510290 -0.1039083993 0.2662880652 0.0003192728 0.1597284612
0.3592250287 0.2179532001 0.2328860401 0.2655591213 -0.0000181727 0.1590540052
0.3454809222 0.3229483969 0.1428420164 0.2661265687 0.0004929941 0.1595931829
0.4031177557 0.0361271070 0.0332435955 0.2659225837 -0.0003782525 0.1597823541
-0.2904636794 0.3094591576 0.0807197862 0.2662677554 -0.0001530831 0.1598240079
-0.4575537607 0.6340474141 -0.1312784915 0.2660198556 -0.0005359975 0.1595259613
-0.0458481542 0.2999316164 -0.1377452492 0.2656546823 -0.0003549425 0.1591415157
-0.0129005036 0.3292399653 0.3307054228 0.2658768624 0.0005109249 0.1592569532
0.2572412593 0.0075377141 -0.1101037048 0.2660073593 -0.0005229397 0.1593862003
-0.1815405414 0.5150469015 -0.2209613506 0.2656154025 -0.0002819469 0.1591064536
0.2651780331 0.2919665828 -0.0441945797 0.2661240905 -0.0005119175 0.1595336640
-0.2348280368 0.4250494458 -0.0752418463 0.2656271282 -0.0003172048 0.1591277143
-0.1754080281 0.2671810784 -0.0665761747 0.2663548914 -0.0000298430 0.1597909929
-0.2118205286 0.2753366641 -0.0355686887 0.2660156001 0.0005129178 0.1594790873
-0.0803835834 0.2620521693 0.2046316611 0.2660524198 -0.0005269413 0.1595469039
-0.0098354356 0.3060434109 0.3039358565 0.2660537354 -0.0005103085 0.1595999402
-0.0488478865 0.2654167723 0.1742486400 0.2658534943 0.0005259317 0.1593140673
0.1692994473 0.2552439710 -0.1038886516 0.2660526408 -0.0005364647 0.1594902213
-0.2105047714 0.5925373677 -0.2607540180 0.2656302442 -0.0003127957 0.1591198317
-0.0606241976 0.5483811797 -0.3683596917 0.2662757932 0.0002839512 0.1597731252
0.0398362552 0.3024367430 0.2329551416 0.2658243241 0.0005138676 0.1592915750
0.3778551425 0.2013867267 0.2116242529 0.2655615568 0.0000318310 0.1590518078
0.3773543283 0.2977172549 0.1614713328 0.2662298817 0.0003968403 0.1596918801
0.0648520423 0.2543445968 -0.0139635274 0.2659031568 0.0005436054 0.1593825837
-0.2043496654 0.6272032012 -0.2980259944 0.2662181384 0.0004153503 0.1596725152
0.1433355018 0.2702510666 0.0101531366 0.2660905666 -0.0005195830 0.1595434567
0.0611358568 0.2492925045 -0.0275559245 0.2659976731 -0.0005458916 0.1594582659
0.4217095197 0.3257329417 0.0634519964 0.2661019003 0.0004794542 0.1596479126
0.0842539882 0.3359622428 0.3765643635 0.2660367741 0.0005403907 0.1594632574
0.4759006241 0.1366895391 0.0828250732 0.2663708332 -0.0000495836 0.1591221920
0.1843329940 0.2291901718 0.4237106607 0.2655514789 -0.0000812391 0.1590742508
0.4544945671 0.2792938763 0.1012982569 0.2657119033 -0.0003292881 0.1590710274
-0.1268617766 0.6504527738 -0.4678449920 0.2658759258 -0.0005081994 0.1595935815
0.1102373637 0.2613798142 -0.0163810091 0.2658555420 0.0005308514 0.1593385350
-0.1446534515 0.3216950299 -0.0574934841 0.2656420769 -0.0003436565 0.1591409992
-0.1592690667 0.6107926866 -0.3267256671 0.2662774768 0.0003269294 0.1597310831
0.4410336112 0.3153910772 0.0709164664 0.2658278525 0.0002645238 0.1598662293
-0.2939914548 0.2645009972 0.0437442233 0.2655537866 -0.0001723339 0.1591730155
-0.1554049712 0.5324558989 -0.2568541080 0.2663021403 0.0002824026 0.1597489679
-0.4296319278 0.6441386121 -0.0636830320 0.2663299345 0.0003461232 0.1592410174
-0.4130543247 0.6352568668 -0.1670975793 0.2660328772 -0.0005376180 0.1595066606
-0.2505189182 0.4391400637 -0.0724324324 0.2656245584 -0.0003152947 0.1591285539
-0.0614621852 0.0092156229 0.2821666525 0.2661840563 -0.0004176777 0.1591798408
-0.2676437438 0.2825344013 0.1134162098 0.2655007854 -0.0002921634 0.1595002394
-0.2307422613 0.6076894274 -0.2476056505 0.2662827014 0.0003236884 0.1597295448
-0.0644161623 0.3845291123 -0.2155750468 0.2656409872 -0.0003297383 0.1591262249
-0.0405723731 0.3047481713 -0.1492360165 0.2656508446 -0.0003490769 0.1591379978
0.0995949602 0.3311511099 0.3496638737 0.2659142273 -0.0005432664 0.1594099573
0.1166495464 0.2557334554 -0.1742055126 0.2659909328 0.0005437013 0.1594886381
-0.1455350858 0.1739816234 0.1297280568 0.2661981511 -0.0003598830 0.1597261464
-0.2629891565 0.5134429568 -0.1236780608 0.2663072760 0.0002821065 0.1597436643
-0.1659484675 0.3540608488 -0.0645870753 0.2662785215 0.0003375074 0.1597187470
0.2772849204 0.3260648099 0.1847946030 0.2658662494 -0.0005300907 0.1593381325
0.1491858012 0.0060552106 -0.2014428913 0.2657576613 -0.0004216985 0.1596546282
-0.3035980551 0.2386344695 0.0590286455 0.2664837771 -0.0001191062 0.1594127942
-0.0268730013 0.2477555016 0.0044850384 0.2659364888 -0.0005472922 0.1594105381
0.3012362108 0.3161891335 -0.0017008446 0.2658136962 0.0005184818 0.1593240278
-0.2989026334 0.3363482337 0.0759886168 0.2655636494 -0.0003243843 0.1592463182
-0.2347522916 0.2897869648 0.1191118802 0.2663609479 0.0003646677 0.1594091506
0.2928004556 0.0068117891 -0.0751137349 0.2659395477 -0.0005402388 0.1594197083
-0.3242802453 0.6168928326 -0.1630701101 0.2656646406 -0.0003732051 0.1591614976
0.0814445403 0.3358285246 0.3579942632 0.2659784886 0.0005453641 0.1594156935
0.1250753626 0.3129676537 0.1856245012 0.2658289136 0.0005174744 0.1593010956
0.0426010188 0.2772841255 0.1488426804 0.2660919694 -0.0005159877 0.1595572526
0.3376129971 0.0072489507 -0.0318100778 0.2659386527 -0.0005110560 0.1595255220
-0.1078374208 0.6176415192 -0.3870828059 0.2662416678 0.0003577333 0.1597269899
0.1228110122 0.2690787512 0.4797665019 0.2656752997 0.0000648816 0.1598906520
-0.3703042998 0.6322386245 -0.2223665431 0.2660351306 -0.0005370833 0.1595074875
0.0513738493 0.2492901278 -0.0153666448 0.2659970896 -0.0005459645 0.1594579138
0.3594569346 0.3355776240 0.0577282850 0.2659521717 0.0005451836 0.1594491395
0.0400297532 0.2609043545 -0.3194329382 0.2660995137 0.0000758900 0.1589454413
-0.1042430040 0.2493588108 0.1258703857 0.2659690080 -0.0005475894 0.1594492305
0.0187779989 0.3418769576 0.3769106239 0.2656609510 0.0004172022 0.1596172886
-0.4589673881 0.6551818686 -0.0754941530 0.2659704173 0.0005388563 0.1594927862
0.1289762597 0.1446386819 0.4551268319 0.2661199934 0.0001005085 0.1589548013
0.4675352569 0.3088433863 0.0747999751 0.2663930031 0.0003295233 0.1594075707
-0.0327717507 0.2543090000 0.0870099825 0.2659118933 0.0005437880 0.1593763293
-0.0598862223 0.2543815997 0.1109639967 0.2659188020 0.0005446489 0.1593811118
-0.2849121615 0.6295798648 -0.3234636204 0.2660154323 -0.0005396410 0.1594729453
0.0139480051 0.2926453475 0.2215365215 0.2658259983 0.0005143211 0.1592916320
-0.2184942722 0.4211183409 -0.0819113228 0.2662891170 0.0003198897 0.1597266515
-0.0505128834 0.2782448190 -0.0935582338 0.2662045865 0.0004283510 0.1596607839
-0.0593364228 0.5529216297 -0.3950273548 0.2663023525 0.0002776902 0.1597117182
0.1926337111 0.2665736745 0.3999194214 0.2663128597 0.0002783911 0.1597381903
0.4779205503 0.1823916578 0.0924373341 0.2657126640 0.0001367217 0.1590045873
0.0310545555 0.3246397019 0.3903931185 0.2657134931 -0.0003454394 0.1597678386
0.4655626587 0.2478864751 0.1154128194 0.2656297468 -0.0001656731 0.1590272420
0.2869883930 0.3189352534 0.2034893187 0.2657975713 -0.0004987659 0.1592741931
0.2730214280 0.3212431336 0.0595209584 0.2658317362 0.0005229578 0.1593227594
-0.0607503178 0.2827267275 0.2522870153 0.2658439506 0.0005156570 0.1592807694
-0.0441954078 0.2521302857 0.0167432024 0.2659956588 0.0005456876 0.1594562023
-0.1456346291 0.2655653678 0.0438196258 0.2661269465 0.0005002910 0.1595720938
-0.1604888281 0.2453574167 0.2130614898 0.2657110506 -0.0003647905 0.1597455569
0.3426311416 0.0176165047 -0.0172126709 0.2655875243 0.0000308164 0.1598171875
0.2327051277 0.2722391624 -0.1474224740 0.2661951426 0.0003119956 0.1590467297
-0.2937965512 0.6178189839 -0.1907848229 0.2662567645 0.0003679005 0.1596975324
0.2864386955 0.3205990789 0.0599122967 0.2660776821 -0.0005265092 0.1595240567
-0.2811569485 0.3052716292 0.1029106908 0.2654791858 -0.0002210439 0.1595541410
0.0585075561 0.3248720597 0.3224275496 0.2660471980 -0.0005299904 0.1595371770
-0.0743004074 0.1729540878 0.0328679390 0.2657100465 -0.0003935538 0.1591961078
-0.2956461424 0.6323743174 -0.2284363975 0.2658743815 -0.0005362487 0.1593518062
-0.3236299647 0.2071823671 0.0438933716 0.2657631360 0.0001419995 0.1589796578
0.0582631314 0.3670602352 -0.2910170686 0.2662694182 0.0003375030 0.1597267107
0.3527932568 0.3307066443 0.0828107640 0.2659157381 -0.0005417819 0.1593679525
-0.0481576077 0.5705032045 -0.4098149124 0.2662421284 -0.0000660732 0.1589697982
0.4014766490 0.1995555779 0.1922018289 0.2663549029 -0.0000329826 0.1598052627
0.1601397890 0.2552696436 -0.1469486539 0.2659081209 0.0005457605 0.1594223170
0.0155902914 0.2806598911 0.1740423940 0.2658271664 0.0005160381 0.1592971609
0.2021533992 0.2226121054 0.4101659262 0.2663661817 0.0000368559 0.1597894816
0.0654175236 0.2586021808 0.0425209643 0.2660680320 -0.0005282081 0.1595264806
0.0820909717 0.2820847145 0.1275970495 0.2660950322 -0.0005145904 0.1595596771
0.3151968182 0.0068897883 -0.0603575400 0.2661022699 -0.0004529553 0.1592467569
-0.0945945979 0.2539649820 0.1339143282 0.2659313552 0.0005462108 0.1593914249
0.2536890102 0.2338421312 0.3515750183 0.2663556926 0.0001099914 0.1597870423
-0.0117324722 0.2551459001 0.0744625593 0.2659025772 0.0005420792 0.1593687954
-0.0367644424 0.2784252626 0.2161785598 0.2658357916 0.0005164692 0.1592907019
-0.2235807400 0.2596303696 0.1311728900 0.2661679949 -0.0002568277 0.1590358901
-0.3331799314 0.1785122331 0.0525953513 0.2655772699 0.0000064897 0.1598125854
-0.0054385106 0.2797058079 0.1914832228 0.2658291955 0.0005161807 0.1592956726
0.0422941370 0.3203938995 -0.2978068578 0.2654399142 0.0001024696 0.1594996389
-0.4351111811 0.6373508317 -0.1248259930 0.2659636567 -0.0005431014 0.1594668466
-0.3753532460 0.5137087523 0.0102589399 0.2658875270 0.0001709706 0.1599222170
0.0918273407 0.3354900296 0.3663877631 0.2660276071 0.0005412889 0.1594613073
-0.3110530533 0.2800133757 0.0623139721 0.2655462763 0.0001541289 0.1591594883
0.3262835865 0.3290093146 0.0653831152 0.2660324067 -0.0005402602 0.1594751537
-0.3022476219 0.3135602300 0.0677037395 0.2656025349 0.0001612393 0.1590591519
-0.1368210980 0.2726915435 0.2170078784 0.2659283457 0.0005317891 0.1593147720
0.1225927958 0.2570619315 -0.0608832403 0.2658827379 0.0005392270 0.1593666397
-0.2562623942 0.2603281290 0.0098256199 0.2659051261 -0.0005152523 0.1593780956
0.0557595448 0.3244635424 0.3052781395 0.2658566388 0.0005259235 0.1593115678
0.4954847371 0.2023244918 0.1148606975 0.2663159022 -0.0000253446 0.1598400144
0.4686906193 0.2939007896 0.0968938508 0.2660537288 0.0003187145 0.1598632214
0.1561344113 0.2628104451 -0.1855230330 0.2656778525 0.0003357986 0.1597523399
-0.3611012960 0.6181900470 -0.1161558027 0.2662622583 0.0003650691 0.1596948639
0.0353984453 0.3993563000 -0.3161918445 0.2663432144 0.0002972728 0.1595996375
-0.1311767973 0.2571231509 0.1870289216 0.2659338943 0.0005430465 0.1593580343
-0.4000890791 0.6025295576 -0.0369427862 0.2664536379 0.0002084061 0.1593324002
-0.0704644281 0.4559645181 -0.2774675148 0.2662852503 0.0003079375 0.1597429783
0.0594944908 0.0176228118 -0.2809923782 0.2655833543 -0.0002265596 0.1596845694
0.1332255427 0.0103395376 -0.2342436364 0.2662850287 -0.0001585193 0.1590745530
-0.4278515219 0.6011534179 -0.0362781465 0.2664505472 0.0001943387 0.1592984123
-0.3580764269 0.5914818833 -0.0973560729 0.2656184971 -0.0003137636 0.1591338706
-0.3611721216 0.5828818320 -0.0847870605 0.2656128705 -0.0003028473 0.1591291593
-0.3115517754 0.2551744007 0.0537682277 0.2658319270 0.0001285885 0.1589487021
0.1155526412 0.2798131840 0.0825658710 0.2660987201 -0.0005149940 0.1595540094
-0.2991467060 0.0328672900 0.0832652794 0.2656449823 0.0000557437 0.1598415856
0.0779572983 0.3256139846 0.3106072573 0.2660425948 -0.0005329056 0.1595248162
0.3289913067 0.3184594257 -0.0580501621 0.2661815101 0.0002979934 0.1590271899
-0.1782017782 0.3335655628 -0.0346775650 0.2656405156 -0.0003414542 0.1591401053
-0.1642008633 0.2749621203 -0.0908667893 0.2658581677 0.0004823465 0.1593342883
-0.2940655603 0.6348090872 -0.2571508648 0.2659181576 -0.0005444658 0.1593910942
0.1444682545 0.3290336480 0.2423354094 0.2658714926 0.0005340918 0.1593414931
0.0179996064 0.3939551018 -0.3329568200 0.2657362701 -0.0003136243 0.1590446738
-0.0649231191 0.2606258729 -0.1985897298 0.2658642444 -0.0004910747 0.1593414892
0.1323491220 0.3230654795 0.2440350319 0.2660578368 -0.0005303095 0.1595258220
0.2961949279 0.2750287283 0.2686850781 0.2656371907 -0.0003264589 0.1591280872
0.0597096443 0.3246477348 -0.2966534362 0.2659400550 -0.0002661158 0.1589847875
0.3046074915 0.0070725219 -0.0676938652 0.2660389644 -0.0004937788 0.1593037208
0.0185666106 0.3842841025 -0.3231082222 0.2655690763 -0.0003083954 0.1592469160
-0.2716680329 0.5649301648 -0.1606556572 0.2663008905 0.0002945013 0.1597392706
-0.2311670790 0.6347515837 -0.2914761275 0.2660775872 0.0005178550 0.1595419864
-0.5000000000 0.6299946409 -0.1000188161 0.2661949046 0.0001306302 0.1589531989
0.0366031274 0.2290325217 -0.3108279667 0.2662761530 -0.0001624184 0.1598162766
-0.3748718614 0.5686810263 -0.0545096338 0.2655964527 -0.0002936293 0.1591396940
0.0616307637 0.3351037705 0.3568154707 0.2659290268 0.0005425162 0.1593648541
-0.1260392526 0.6394685612 -0.4125947717 0.2660471991 0.0005281182 0.1595402064
-0.2882078467 0.6315943022 -0.3106684093 0.2660299877 -0.0005359509 0.1594872474
-0.0623299961 0.5649912833 -0.3852820492 0.2657175748 -0.0002837895 0.1590267649
0.1631957866 0.2974792739 0.3957668366 0.2662481498 0.0003959201 0.1596727894
-0.1737931379 0.5742489790 -0.2824292679 0.2656252648 -0.0003003246 0.1591128512
-0.0749174510 0.2486298894 0.0501637693 0.2659281943 -0.0005463956 0.1594053387
0.2453852041 0.2769781639 -0.1098928018 0.2656002827 0.0002828791 0.1596699618
0.1588967319 0.3094189587 0.1370908557 0.2658239770 0.0005168887 0.1593039939
0.1132520579 0.0142597964 -0.2535153119 0.2663129957 0.0000641111 0.1590445356
-0.0925367481 0.2910966633 0.2668288935 0.2657238901 0.0004925921 0.1594288923
0.1813403239 0.2632817041 -0.0909343679 0.2658439056 0.0005298445 0.1593469024
-0.3681531654 0.6398520756 -0.1876587033 0.2659707447 0.0005470635 0.1594331763
0.0102035362 0.4060005559 -0.3123420752 0.2657111164 -0.0003186481 0.1590598495
0.1182295763 0.1865076082 -0.1908873457 0.2655474104 -0.0001830901 0.1592045662
-0.0666463560 0.3311546915 -0.1458110985 0.2662725193 0.0003406892 0.1597215602
0.2572809022 0.2910241646 0.2908982541 0.2656748829 -0.0003924696 0.1591721414
0.1594645055 0.3261598685 0.2100138102 0.2658541068 0.0005285421 0.1593258628
-0.0877945664 0.2637996392 -0.1793145737 0.2656250087 -0.0002512960 0.1591203746
-0.2970633848 0.3331910525 0.0902859282 0.2654757205 -0.0001793402 0.1596145839
0.2338050809 0.2955054709 -0.0049461724 0.2658101794 0.0005139312 0.1593073989
-0.2637574904 0.6204541802 -0.2267056964 0.2662557626 0.0003675830 0.1597026116
-0.3055586040 0.0605844508 0.0553556630 0.2664038964 0.0001488862 0.1592331727
0.2573157350 0.3051069504 0.0059815572 0.2658059858 0.0005126485 0.1593072163
0.3143711393 0.3263798085 0.0602856943 0.2660563786 -0.0005345766 0.1594993653
0.0770340596 0.2554347408 -0.1422833560 0.2660163892 0.0005402859 0.1594931213
-0.2419167918 0.4296780260 -0.0649512934 0.2662913907 0.0003180125 0.1597261821
-0.1809681481 0.3791539211 -0.0839883346 0.2656360210 -0.0003318600 0.1591339271
0.0490853488 0.3573783579 -0.2831664733 0.2657890158 0.0001653792 0.1599187830
-0.3090773759 0.2864202867 0.0737198228 0.2655430123 0.0000301090 0.1597317955
0.1887611730 0.2564704771 -0.1247521891 0.2660659382 -0.0005354584 0.1594751723
-0.3260062938 0.4990672634 -0.0396094285 0.2663137317 0.0002864388 0.1597323757
-0.2492942366 0.5670438110 -0.1945535587 0.2656169621 -0.0002955097 0.1591171819
0.1258151959 0.2848306671 0.4503667764 0.2663362553 0.0000032191 0.1590329211
0.0959793562 0.0662632976 0.4353083018 0.2662207186 -0.0004072757 0.1596834863
0.1470043587 0.3237168311 0.2109266229 0.2658480794 0.0005261176 0.1593202856
0.2916428859 0.2351549934 0.3029094084 0.2655666842 -0.0001335674 0.1590695966
-0.0114532882 0.3007075483 -0.1760416819 0.2656545792 -0.0003536494 0.1591403230
-0.1310380257 0.2498523122 0.1064800965 0.2659177770 -0.0005459026 0.1594075367
0.0777917497 0.3433886225 0.4065077465 0.2662461975 0.0004341651 0.1592736140
-0.1979544363 0.2693025902 0.1677093686 0.2659409083 0.0005305837 0.1595546017
0.2085594564 0.3245047455 0.1737781575 0.2660528185 -0.0005334359 0.1595126304
-0.0130595592 0.4564472413 -0.3482128755 0.2654824082 -0.0001814586 0.1595472878
-0.0884263376 0.2648199283 0.2576077735 0.2659207948 0.0004854575 0.1592250400
-0.1697772168 0.0053461817 0.1920704875 0.2659141406 -0.0005136663 0.1594972490
0.0476083939 0.3102209311 0.2543197444 0.2658295119 0.0005160343 0.1592949054
-0.2678628804 0.6100209719 -0.2104602292 0.2662826328 0.0003283618 0.1597244316
0.2793441314 0.3048789775 -0.0052906088 0.2661124739 -0.0005141824 0.1595405694
-0.0549367531 0.2499480568 0.0993778072 0.2659946141 -0.0005452823 0.1594704682
0.2083465830 0.3238269848 0.1464686716 0.2658419243 0.0005255703 0.1593243870
-0.1587007238 0.2673741745 0.2113869914 0.2657260152 0.0004606827 0.1596022314
0.4192394876 0.2422271128 0.1632734847 0.2655835402 -0.0001546405 0.1590620644
0.1405110088 0.3298485405 0.3393845837 0.2660796585 0.0005222257 0.1595248332
-0.3007622992 0.3458445795 0.0660986645 0.2656905917 -0.0003335326 0.1590912450
-0.2588631486 0.6346807581 -0.3272006251 0.2660331882 -0.0005378017 0.1594880875
-0.2169166355 0.0084267610 0.1370680260 0.2662505869 -0.0002706368 0.1591067125
0.1953922494 0.3282856310 0.2624870619 0.2658884708 -0.0005392325 0.1593674957
0.3250861672 0.3089503605 0.1963412028 0.2661976537 0.0004377752 0.1596532556
0.2298187878 0.2880548577 -0.0148491276 0.2661085446 -0.0005132561 0.1595498383
-0.0387622783 0.5684514132 -0.3894298141 0.2664184804 0.0002654040 0.1595584772
0.3045290471 0.2895939356 -0.0683000143 0.2661902515 -0.0004558031 0.1594254972
0.0086049800 0.1238620275 -0.3402391728 0.2656508391 -0.0000564687 0.1590173456
0.1084407079 0.2628527361 -0.2507591838 0.2659403582 -0.0004071485 0.1591281393
0.0354664757 0.2600301674 -0.1298092684 0.2660719486 0.0005227483 0.1595422085
0.2506804131 0.3183376570 0.2556844035 0.2661563465 0.0004774575 0.1596071285
-0.1188340846 0.1706524664 0.0927613324 0.2660037805 -0.0005077305 0.1594694953
-0.0269684279 0.3520562524 -0.2115681966 0.2662706109 0.0003383634 0.1597262397
