-0.0181163994 0.8499999717 -0.1084083131 0.0664865811 -0.0166203161 -0.0069071331
0.2200729760 0.8499999717 -0.1228177626 0.0671494478 -0.0166335161 -0.0072305664
0.0391139320 1.0101729997 -0.4711574676 0.0668764644 0.0066410998 0.0075391997
0.4803843507 0.0666666644 0.2727734742 0.0666666478 0.0166666661 -0.0077376331
0.3249034558 0.8943819369 0.2252208592 0.0671323478 0.0165877661 -0.0092091997
0.0970518468 1.7638696745 -0.4744042842 0.0668053978 0.0010744000 0.0087475330
0.0557778815 0.8666666378 -0.3166016061 0.0666765144 0.0156272661 -0.0023186333
0.0521642649 0.8833333039 0.0066108331 0.0666360978 0.0166362494 -0.0083253497
-0.2038825432 1.1714249610 -0.5077376164 0.0666113811 -0.0003432167 -0.0243978492
0.0336097489 0.6456714451 -0.0244042992 0.0558373148 -0.0006018166 -0.0191460660
0.3763971708 0.8523188049 -0.0574243981 0.0675773977 -0.0165912994 -0.0065817164
0.1135439962 0.9205207526 -0.4449250685 0.0668060811 -0.0114812663 -0.0197447993
0.0270893991 0.8685781210 0.4717726343 0.0666085644 0.0159493995 -0.0030799666
0.3100267730 0.9993990167 -0.4766049174 0.0676182311 0.0066897831 0.0073993998
-0.1220885959 0.8499999717 -0.2657285245 0.0663681478 -0.0166522494 -0.0079184997
0.0039929999 0.8611715713 0.4532525516 0.0665231144 -0.0157424328 -0.0131701662
0.0958476801 0.8666666378 0.4123221363 0.0667509644 -0.0165013161 -0.0099746997
0.1171145294 0.8892608370 -0.3582956214 0.0668760311 0.0147308828 -0.0000479667
0.2438150919 0.9306513190 -0.4217223359 0.0671590978 0.0124343996 0.0032971999
-0.0831617306 1.5779527807 -0.4910709503 0.0655793145 -0.0000781167 -0.0242841159
-0.3472733218 1.0509945816 -0.5077376497 0.0660162145 -0.0037675332 -0.0239318325
-0.0994759800 1.7999999400 -0.5031611832 0.0666043811 -0.0037978832 -0.0102902997
0.0205059326 0.8499999717 -0.1491641284 0.0665876478 -0.0166492161 -0.0074278664
-0.2512287916 1.6487527950 -0.4785197674 0.0650227145 0.0010647833 -0.0242210992
0.1270561458 0.8666667044 -0.2489180750 0.0668003144 0.0166608328 -0.0078412164
0.0421633153 1.7543626915 -0.4744042509 0.0668465978 0.0044258832 0.0081284497
0.1791517940 0.8940318202 0.3719427043 0.0669419478 0.0164826661 -0.0054512665
0.1502530617 1.3910916203 -0.4744042842 0.0667446144 -0.0012788166 0.0088476497
-0.1280855957 1.1401997453 -0.5077376164 0.0653974812 -0.0003000000 -0.0243076492
-0.1902988103 0.8666666378 -0.1771375441 0.0661079978 0.0165875994 -0.0091177164
-0.0594714647 1.1619486113 -0.4910709503 0.0658654978 -0.0008653000 0.0088463664
0.3120274896 1.4416465353 -0.4744042842 0.0675545644 -0.0005034333 0.0088764497
0.4258709358 0.8666666378 -0.3214189060 0.0673081311 0.0163825828 -0.0048421998
-0.2001516100 1.7387961754 -0.4801948007 0.0657190311 -0.0016516666 -0.0242441825
0.4625379846 0.0000000000 -0.2888569404 0.0666666478 -0.0166666661 -0.0077376331
-0.0994482467 1.6772587608 -0.4848439338 0.0659361978 0.0000052833 -0.0243805992
-0.1343820789 0.8781198874 -0.3415842219 0.0662582645 0.0151124828 -0.0010213166
-0.0598782313 0.8774516708 -0.3905819036 0.0663252478 -0.0143766329 -0.0159239328
0.0614444146 0.8666666378 -0.1762693108 0.0666874311 0.0166376328 -0.0086997830
0.0623672146 0.8833332372 0.1353222455 0.0666597811 0.0166507161 -0.0083860164
0.0192898327 0.9763425508 -0.4542422349 0.0668441144 0.0079859497 0.0068361331
-0.1237670125 1.7531091749 -0.4864898171 0.0659972978 -0.0026475666 -0.0241408659
-0.0164178161 0.0666666644 0.0397215653 0.0664146811 0.0164183161 -0.0074856664
0.4035569865 0.0666666644 0.2205942760 0.0666666478 -0.0166666661 -0.0077376331
-0.1810997106 0.8999999700 0.2841801572 0.0662702478 0.0166127494 -0.0085556164
0.3623023046 1.3807436206 -0.5077376164 0.0673552311 -0.0004625500 -0.0243114825
0.0630464312 0.8666666378 0.0532879316 0.0662176145 0.0046124498 0.0064854498
0.2261597925 0.8833333039 0.1470651784 0.0669666978 0.0166215661 -0.0087542330
-0.0967680634 1.4337462855 -0.4910709503 0.0661259811 0.0010162000 -0.0243555659
0.3059508398 0.8833333039 0.0129873662 0.0671947144 0.0166476661 -0.0079137331
0.3282218224 0.8750432042 -0.3985617867 0.0673455478 -0.0142019495 -0.0163172495
0.0565380814 0.8499999717 -0.2821416406 0.0666779811 -0.0166413828 -0.0082899831
0.1337978622 0.9125626529 -0.3995296700 0.0669281811 0.0134288829 0.0020370333
-0.1692950277 0.8833333039 0.4251568358 0.0662837311 0.0163690995 -0.0046609332
-0.3098262230 0.0666666644 0.0075451331 0.0666666478 0.0166666661 -0.0077376331
0.0166666494 0.8262693725 -0.0410025820 0.0547639315 -0.0012187000 -0.0179018827
-0.0759628308 0.8499999717 -0.1468667451 0.0663424311 -0.0166513828 -0.0075416497
-0.1466441284 1.7108207096 -0.4577376181 0.0666177311 0.0009651666 0.0088503830
-0.0162031161 0.8666666378 0.4347019022 0.0664483645 -0.0160417161 -0.0118690996
-0.2790719740 0.9413769686 -0.4631000679 0.0658486978 -0.0085080330 -0.0220100659
0.0565577481 1.0277701991 -0.4799560673 0.0668332811 0.0054975332 0.0079350331
0.1421105953 1.3681642711 -0.4744042842 0.0667339644 -0.0020287333 0.0087810830
0.4499999683 1.1787086107 -0.5171202161 0.0690576310 0.0008624000 -0.0194418827
-0.2403446920 0.8761150708 0.3761973208 0.0661002478 -0.0164220495 -0.0103198163
0.0082661664 1.7005469766 -0.4577376181 0.0669324311 0.0011493166 0.0088341497
0.4483515684 0.8499999717 -0.1008853633 0.0676774644 -0.0166178661 -0.0070950998
0.3805780373 1.2479526084 -0.5077376164 0.0674827644 0.0004297833 -0.0243728325
-0.1063394298 1.7790282574 -0.4910709503 0.0662899645 -0.0005893333 -0.0243251159
0.2675373744 0.8999999700 0.3223965893 0.0670639478 0.0165851828 -0.0069775164
-0.1760163775 0.9546727848 -0.4719639009 0.0660419811 -0.0079224831 -0.0223300826
-0.2859325405 1.6185163627 -0.4831691839 0.0660530145 0.0005199833 -0.0241833159
-0.3495312050 1.3731022709 -0.4910709170 0.0631541979 0.0017285833 -0.0239134159
-0.0755783141 1.4923541503 -0.4910709503 0.0663447645 0.0003337667 -0.0243852659
0.0899622137 0.0666666644 0.0150015828 0.0666666478 -0.0166666661 -0.0077376331
-0.0837753305 1.4109085863 -0.4925809002 0.0660856311 0.0013224833 -0.0243166492
0.2909200070 1.1994121100 -0.4910709503 0.0670013978 -0.0001124167 0.0089171497
-0.0262863825 0.9936916002 -0.4878923837 0.0662473978 -0.0058387831 -0.0233108992
0.3255832391 1.1614341280 -0.4910709503 0.0647359978 -0.0003026000 0.0087310330
0.4171607028 0.8833333039 0.1284262624 0.0673261311 0.0165940328 -0.0089431330
0.3430874219 0.8724646043 0.1874964604 0.0672046144 -0.0165880661 -0.0063276165
-0.0658850478 1.7421712919 -0.4654514512 0.0667888144 0.0052460665 0.0080100164
0.0559417815 0.0666666644 -0.0007110500 0.0666666478 -0.0166666661 -0.0077376331
-0.0570316481 0.9328201689 -0.4238911525 0.0664254811 0.0116192829 0.0040752499
0.2889995904 1.4915378003 -0.4958477835 0.0665259478 0.0024439833 -0.0241922159
0.0542096649 1.2628716412 -0.4910709503 0.0636899645 0.0091015997 0.0021823333
0.3339959222 0.8804747540 0.2417777586 0.0671714811 -0.0165658661 -0.0060312998
0.2990826400 1.4891850337 -0.4744042842 0.0672120811 0.0004010833 0.0088802330
-0.0042595499 1.6129269462 -0.4577376181 0.0672491644 -0.0029405832 0.0085384164
-0.1882952771 1.4790563674 -0.4744042842 0.0661403311 -0.0002339167 0.0089123164
-0.2521075083 1.1132695129 -0.5077376164 0.0696959643 0.0002018833 -0.0240372825
0.2169611928 0.9853587172 -0.4910709503 0.0667331311 -0.0065453164 -0.0230574992
0.0975510801 1.1255861625 -0.4910709503 0.0648696812 0.0000000000 0.0087980830
0.0179211161 1.3914427036 -0.5031349999 0.0658133978 0.0032238166 -0.0240249992
-0.2051816098 0.8657949878 -0.3717891876 0.0659923811 -0.0149315662 -0.0149814662
-0.1531301616 1.6813758273 -0.4826071839 0.0657936478 0.0000017000 -0.0243732992
0.1696871777 1.7370378588 -0.4910709503 0.0666271478 -0.0004842000 -0.0243621825
-0.0281493324 0.8801802040 0.2400105920 0.0665193478 -0.0166062494 -0.0064097665
-0.0831621306 1.7347995255 -0.4852812838 0.0660112978 -0.0012438666 -0.0242945992
0.0154248662 0.8499999717 -0.1052822298 0.0665863311 -0.0166152328 -0.0067839164
-0.3497241050 0.0666666644 0.0083825664 0.0666666478 -0.0166666661 -0.0077376331
0.0182651661 1.0478857984 -0.4900138337 0.0666069644 0.0039951332 0.0084239997
0.0358313155 0.9765348174 -0.4865386838 0.0664610311 -0.0071745498 -0.0227019826
-0.1580430281 0.8763220875 0.3722844043 0.0662364145 -0.0163961328 -0.0105773830
-0.3472777051 0.9080103864 -0.3904250870 0.0655769311 0.0139772162 0.0012697833
0.0602472980 1.2471707251 -0.5077376164 0.0666753144 0.0000014500 -0.0244039492
0.1454370118 1.1142833295 -0.4910709503 0.0658146145 0.0000000000 0.0088111330
0.1756566941 0.8689191544 0.1699584443 0.0668895811 -0.0165830328 -0.0061526998
0.0562977315 0.8857695038 0.1735459609 0.0666474311 0.0166337494 -0.0087142497
0.4074003198 0.8506952050 -0.0684580311 0.0676740477 -0.0165996328 -0.0067345331
-0.3295442557 0.8774170874 0.3758595041 0.0659599978 -0.0164811995 -0.0098262830
0.3522604049 1.2554459415 -0.5077376497 0.0670686978 0.0007447166 -0.0243620992
0.0737606809 0.8909773870 -0.4118604196 0.0666525478 -0.0136007829 -0.0171772994
-0.1152427962 1.1916942269 -0.4910709503 0.0666666478 -0.0003221333 0.0089245664
0.0006355833 0.0666666644 -0.2038745932 0.0666666478 -0.0166666661 -0.0077376331
0.1755101441 1.6922384269 -0.4631527012 0.0672945644 0.0001121167 0.0089116997
-0.2561610915 1.1062680131 -0.4910709503 0.0679323477 0.0004480667 0.0088155497
-0.2783978907 1.1337757955 -0.5077376164 0.0687873477 -0.0002027667 -0.0240148325
-0.2077439431 0.9130405696 -0.4004855033 0.0658622145 0.0138267495 0.0014750166
-0.1868588938 0.8991072700 0.2628208412 0.0662547811 0.0166022161 -0.0090395997
0.0164704328 1.7475968084 -0.4896131670 0.0663011978 -0.0018974666 -0.0242798325
-0.1163000461 0.8817802706 -0.0686089477 0.0661973978 0.0165848994 -0.0091706497
-0.2749001908 0.8999999700 0.3557327215 0.0661321478 0.0164703495 -0.0054196665
0.0495034650 0.8666666378 0.0786657640 0.0666559644 -0.0166273661 -0.0066703331
0.3701297543 1.7347218255 -0.4716563009 0.0676101477 0.0023560833 0.0086731164
0.0557339981 1.4266006024 -0.4990841667 0.0662251978 0.0004169500 -0.0239793159
0.2633899746 1.3977725534 -0.4744042842 0.0670810978 -0.0008151666 0.0088895664
-0.2371398088 1.0221515326 -0.4938134335 0.0661642811 -0.0066167664 -0.0229545826
-0.0679147811 1.2195566427 -0.5077376164 0.0665857478 -0.0001121500 -0.0243993492
0.0413086986 0.8499999717 -0.2306829590 0.0666515644 -0.0166663494 -0.0077376331
-0.1779802774 0.8561966881 0.4632021512 0.0663010145 -0.0156316161 -0.0134911162
-0.2813604073 1.5966786134 -0.4577376181 0.0669683811 -0.0005692833 0.0088636997
0.3158137228 0.8809497540 0.3517966883 0.0671246311 -0.0165153494 -0.0097292997
0.4011599866 0.8833333039 0.4350450022 0.0671321144 0.0164113328 -0.0048768498
0.0302253657 1.7236452092 -0.4902112170 0.0662761311 -0.0003988167 -0.0243693992
0.0666666478 0.2712232743 -0.0128227829 0.0802535973 0.0016257333 -0.0145434328
-0.0536864982 0.8499999717 -0.2814764240 0.0664867978 -0.0166385494 -0.0082749331
0.2750908575 0.8666666378 0.0482904151 0.0671893978 -0.0166016328 -0.0065301664
0.1781715607 0.8666666378 0.0491746817 0.0669465144 -0.0166249661 -0.0067353498
0.0682695477 1.4046690198 -0.4744042842 0.0666737144 -0.0016496333 0.0087927997
0.3022878066 1.0163287828 -0.4847473505 0.0675749977 0.0056913998 0.0078798164
-0.0679353311 0.8544409715 -0.0310916156 0.0664247311 -0.0165702661 -0.0060242498
0.3928016369 1.1113549130 -0.5162330995 0.0661931478 -0.0004884833 -0.0241203325
0.0940262469 0.8510563216 0.5089289830 0.0666666478 0.0000000000 0.0089290330
0.1170213628 1.3381339554 -0.5077376164 0.0647012645 0.0002069167 -0.0241832325
0.4389914854 0.0000000000 0.2813900240 0.0666666478 -0.0166666661 -0.0077376331
-0.0106501330 0.0666666644 0.1604512613 0.0666666478 -0.0166666661 -0.0077376331
-0.1918033769 0.8648268045 0.4459420018 0.0661077478 -0.0161098995 -0.0115566829
-0.3091112564 0.8686275210 0.1706944110 0.0660687478 -0.0166178661 -0.0067020331
-0.1240121125 1.7999999400 -0.5065319164 0.0666666478 0.0012056833 -0.0077376331
0.0170557661 0.8741567875 0.3789685207 0.0665600144 -0.0164689161 -0.0102395997
0.3932967202 0.9000000367 0.2610568246 0.0672444478 0.0166172494 -0.0087722164
0.4375894187 0.8898905203 0.1982727934 0.0673486144 0.0165885828 -0.0091536164
-0.1887863937 0.9588159847 -0.4454789685 0.0661605645 0.0095406163 0.0058235831
0.0966075968 1.1595149613 -0.5077376164 0.0669928811 -0.0000823667 -0.0243829825
0.4605299680 0.0454204985 -0.2926281236 0.0590497647 0.0124710663 -0.0001207500
-0.1033114632 0.8499999717 -0.2682642577 0.0664007145 -0.0166503161 -0.0079758997
-0.0990966967 0.8809620873 0.2447017918 0.0664057811 -0.0165944994 -0.0063006998
-0.2680080411 0.8833333039 0.1368128954 0.0661336145 0.0166014328 -0.0089144664
0.0525377482 1.4537517015 -0.4744043175 0.0666669978 -0.0003555500 0.0088992830
0.2528191916 0.8666666378 0.0512521316 0.0671277144 -0.0166090494 -0.0065999998
0.3643869045 1.1370124454 -0.4910709503 0.0660329645 -0.0008581166 0.0086239997
0.3262128891 0.8499999717 -0.1765527941 0.0671457644 -0.0166566828 -0.0077376331
0.0848246805 0.8781460707 0.4526369349 0.0667433478 0.0157827328 -0.0024429666
0.4340102189 0.8499999717 -0.2665350244 0.0673544978 -0.0166242994 -0.0080717831
-0.0106282163 0.8666666378 -0.2979534901 0.0665631811 0.0160854161 -0.0044903665
-0.3028642066 1.1350318455 -0.5077376164 0.0657625978 0.0003563500 -0.0242974659
0.1877011104 1.1662080945 -0.5077376497 0.0686120144 -0.0000393833 -0.0242286825
0.4271674524 0.8999999700 0.2623254746 0.0673067644 0.0166226828 -0.0086627497
0.3426802719 0.8893275870 -0.4137319029 0.0673740478 -0.0129893662 -0.0179592661
-0.2401610087 0.8833333039 -0.0563492815 0.0658270978 0.0165989828 -0.0088057330
0.4398715020 1.6088351630 -0.4910709503 0.0685390810 0.0003280000 -0.0242319992
-0.1918658269 0.8999999700 0.3204382893 0.0662646311 0.0165946161 -0.0072794498
-0.2834544239 1.2120887429 -0.5077376164 0.0660031145 0.0000211667 -0.0243738159
-0.0841872305 0.8499999717 -0.3033887399 0.0664300311 -0.0166096161 -0.0088064164
-0.0133096996 1.4129558029 -0.4969547668 0.0660033478 0.0021964999 -0.0241907825
0.2975385734 0.8500000383 -0.1004701133 0.0673689978 -0.0166193161 -0.0070167831
0.1938067269 1.1803958440 -0.4910709503 0.0666666478 -0.0001311833 0.0089282997
0.4344968522 0.8937721035 0.2215617093 0.0673336311 0.0166010994 -0.0090020497
-0.1229226792 0.8906291703 0.2027045599 0.0663568978 0.0165787661 -0.0093620997
-0.1380050121 0.8863147371 0.4051900698 0.0663061478 0.0163959161 -0.0048013165
0.0431582152 0.3775308541 -0.0244042992 0.0562652148 0.0007159500 -0.0195862993
0.2940888069 1.4392651354 -0.4744042842 0.0674677311 -0.0005031666 0.0088803330
-0.0465720818 0.8666666378 -0.1972367268 0.0664991311 0.0166422994 -0.0084481831
0.3740606042 0.8833333039 -0.0291209824 0.0674813478 0.0166258161 -0.0082790331
0.2655162245 1.7840339072 -0.4751049175 0.0671805644 0.0047692498 0.0081203164
-0.1612571113 1.2616207913 -0.4910709836 0.0659005311 0.0000687500 0.0088035664
-0.1000782133 0.9879295004 -0.4600357180 0.0665787811 0.0074498664 0.0071620831
0.0617330313 0.6864367605 -0.0244042992 0.0666666478 -0.0008618666 -0.0243658492
-0.0997687633 0.8999999700 0.2851659405 0.0663982645 0.0166038328 -0.0085983997
-0.1081879464 0.8779726374 0.2267649424 0.0663945145 -0.0165824828 -0.0061578331
0.4676744844 0.0666666644 -0.3384630387 0.0666666478 -0.0166666661 -0.0077376331
-0.0616704813 0.0666666644 -0.3024585899 0.0666666478 -0.0166666661 -0.0077376331
0.0267786824 0.8666666378 0.4939464169 0.0665787644 0.0166346994 -0.0074136831
0.1075348297 1.2049079432 -0.4910709503 0.0666666478 -0.0000490000 0.0089287664
-0.4563311848 0.0082906331 -0.0077376331 0.0666666478 0.0000000000 -0.0244042992
-0.0124210663 0.8999999700 0.2695612577 0.0665285478 0.0165852494 -0.0091403664
0.0286012157 0.0666666644 -0.0376126654 0.0552275315 0.0063235331 -0.0134571829
-0.2280875257 1.0833332972 -0.4914049836 0.0687589644 0.0040494165 0.0075153331
-0.0303089323 1.7999999400 -0.5056328498 0.0666380144 -0.0017466666 -0.0089116330
-0.0269235491 0.8609324546 -0.3572019381 0.0664303645 -0.0157326995 -0.0128366662
0.0119891329 1.1774451774 -0.5077376164 0.0669732478 -0.0003745833 -0.0243946825
-0.2068198931 1.4169215694 -0.4910709170 0.0660069645 0.0006368500 -0.0243720992
-0.2668020078 1.7999999400 -0.5068528664 0.0666666478 0.0008847666 -0.0077376331
-0.0820570806 1.7999999400 -0.4871102838 0.0667205311 0.0159928495 -0.0055284331
-0.2923534736 0.8788413707 0.2319774923 0.0660982145 -0.0165661161 -0.0060496331
0.2132200596 1.1332384289 -0.5077376164 0.0683690977 -0.0004741167 -0.0242875659
0.1232385126 0.0666666644 -0.0808672473 0.0666666478 0.0166666661 -0.0077376331
0.3329356722 0.9211917526 -0.4455961018 0.0672855644 -0.0108869330 -0.0202960660
0.1991613100 0.8960016535 0.3651631212 0.0669796978 0.0164988661 -0.0055830831
0.0969265301 0.8833333039 0.3194177894 0.0667058811 -0.0165178661 -0.0092614664
-0.2971529734 0.8499999717 -0.1257474291 0.0658776811 -0.0166351661 -0.0073913331
0.4114861196 1.2082948931 -0.4910709503 0.0681634311 -0.0002330667 0.0087942664
0.2201605927 1.7846368905 -0.4923746836 0.0669088644 -0.0038124332 -0.0239027325
0.0131523662 0.0666666644 0.1524407449 0.0666666478 0.0166666661 -0.0077376331
0.0304350323 0.2853647072 0.0060307498 0.0550802648 0.0019306166 0.0038487499
-0.0391300820 0.8666667044 0.0849157972 0.0665106811 -0.0166351161 -0.0068088831
-0.3180349394 0.8658461045 0.0373395321 0.0658560145 -0.0165570161 -0.0060339831
-0.0744815142 1.1213553960 -0.4910709503 0.0675342144 -0.0005396166 0.0087582997
0.3997879367 1.6766949441 -0.4723121176 0.0678616644 0.0001535000 0.0088807997
0.2696188910 0.8744273209 -0.3360452888 0.0671730644 0.0154406828 -0.0019534833
0.1875724437 1.3290834557 -0.5077376164 0.0667630311 0.0005160000 -0.0242590825
-0.3500000050 0.8559832048 -0.1878415104 0.0659234311 -0.0047167998 -0.0080820831
0.3548141215 0.0666666644 0.1700662277 0.0666666478 0.0035884499 -0.0077376331
-0.0375530654 1.3230353892 -0.5077376164 0.0672955478 0.0007560833 -0.0241776159
0.4269564691 1.5281792491 -0.4744042842 0.0687381144 -0.0000477000 0.0087395830
0.2874128738 0.8761145541 0.4566997348 0.0670689144 0.0156165995 -0.0020993666
0.1413278286 1.5926478802 -0.4672870844 0.0646045145 -0.0079738664 0.0053149832
-0.1992532434 1.7327998589 -0.4577376181 0.0665910478 0.0040433332 0.0082434331
-0.1017174133 1.5324684823 -0.4744042842 0.0666666478 0.0000000000 0.0089290330
0.0075374664 1.3729795709 -0.4744042842 0.0666666478 0.0000000000 0.0089290330
-0.1370745954 0.8666665711 -0.2889630570 0.0663473645 0.0165336661 -0.0063401331
-0.3484687884 0.8833333039 0.2762577075 0.0659983978 -0.0165619328 -0.0064258831
0.1776945441 0.8666666378 -0.2226374926 0.0668881478 0.0166499328 -0.0081498664
0.0770875974 0.8788483707 0.2320192756 0.0666909811 -0.0166185828 -0.0065209331
0.4499999683 1.0927877636 -0.4935933502 0.0715981809 0.0001686500 0.0055862331
-0.1004581800 0.8833333039 0.1193501127 0.0663996645 0.0166443494 -0.0083269497
-0.0571587481 0.0666666644 0.3034276899 0.0666666478 0.0166666661 -0.0077376331
-0.0347195988 0.0666666644 -0.2819867573 0.0666666478 -0.0166666661 -0.0077376331
0.4019697533 1.7258660091 -0.4730406509 0.0677315644 0.0013115333 0.0087774330
-0.0796595140 1.7740363409 -0.4910709503 0.0663769811 -0.0000112333 -0.0243785492
0.1021955966 0.8999999700 0.3459326718 0.0667505311 0.0166222494 -0.0068618498
-0.1472659784 0.8833333039 0.4374227688 0.0664812311 0.0163049828 -0.0043504999
-0.2917875403 1.1635904612 -0.5077376164 0.0673070144 -0.0016338499 -0.0239337992
-0.2182698594 1.7787631407 -0.4910709503 0.0660811478 0.0001836333 -0.0243589992
0.0860589305 1.5967173968 -0.4910709503 0.0637188979 -0.0008392000 -0.0241079825
0.1852366772 0.9703349177 -0.4568732681 0.0672092811 0.0090430330 0.0061903498
0.4499999683 1.5132594496 -0.4774664008 0.0693345310 0.0000702000 0.0027625332
0.1568757614 1.7384842587 -0.4686464177 0.0671614478 0.0040722665 0.0083487831
-0.0463081985 0.8943485035 0.3758834375 0.0665192311 0.0164936661 -0.0055196331
0.0059502998 0.8666666378 0.0949824802 0.0665846311 -0.0166236328 -0.0066395498
0.3805957873 0.0666666644 0.2432652586 0.0666666478 0.0166666661 -0.0077376331
-0.1176425961 1.3968941534 -0.4929439336 0.0660359645 0.0012743500 -0.0243132159
-0.2754618408 0.8833333039 0.2770964574 0.0661139811 -0.0165772328 -0.0065970498
0.2375357254 0.8833333039 0.1164731961 0.0669888978 0.0166381661 -0.0083991331
0.2488200584 0.8666666378 -0.2746527242 0.0670086811 0.0165914494 -0.0069817998
0.2564410415 0.8666666378 0.1270784958 0.0670505311 -0.0166182328 -0.0066621831
0.2333333089 1.3186905727 -0.5006657333 0.0677917644 -0.0003117500 -0.0102535997
0.1418752619 0.8682692544 -0.3806364206 0.0668221478 -0.0150596828 -0.0147649495
0.3819990206 0.8953694368 0.3607843046 0.0673747144 0.0164147161 -0.0049567665
0.3489499050 0.8797440540 0.3566194381 0.0671885478 -0.0165081994 -0.0097542830
0.3852217705 1.0932920802 -0.5151502662 0.0648656645 0.0008189666 -0.0237009825
0.3813537873 0.8833333039 -0.0066744164 0.0674032478 0.0166365994 -0.0080666164
0.0870635971 0.9218555859 -0.4129265029 0.0667633311 0.0125307496 0.0032013832
0.3859420538 0.8616242379 -0.0019893999 0.0675348811 -0.0165576328 -0.0061126331
0.0965467801 1.4016746033 -0.5034481166 0.0662224478 0.0022145166 -0.0242403992
-0.2919445403 0.9860751838 -0.4591085514 0.0660215978 0.0074458498 0.0071540664
-0.0765230808 0.8967434201 0.2418606419 0.0664262978 0.0165789328 -0.0093728164
0.3905846036 1.0591017647 -0.4910709503 0.0667478644 0.0036842665 0.0083255331
0.1873179771 1.0282523824 -0.5025854499 0.0666020644 -0.0048116165 -0.0236795492
-0.2170057428 1.6632726779 -0.4577376181 0.0663707811 -0.0001677833 0.0089144997
0.0560658815 0.1443273452 -0.0350050655 0.0674005311 0.0026859166 -0.0199691660
-0.0902964970 1.1123117629 -0.5077376164 0.0664366645 0.0002285667 -0.0243266325
-0.0432173319 1.4522553349 -0.4744042842 0.0665498811 -0.0000519000 0.0089253164
0.4171637528 1.3941616869 -0.5077376164 0.0681123977 0.0002256000 -0.0242684659
0.2868568404 0.8744315209 -0.1210172460 0.0671748478 0.0165617661 -0.0094663830
0.0432184319 0.8499999717 -0.1997949767 0.0666548811 -0.0166664161 -0.0077376331
0.2946988402 0.8499999717 -0.2369967088 0.0670910978 -0.0166578328 -0.0077376331
-0.2768269908 1.5177137494 -0.4910709503 0.0653810312 0.0008669000 -0.0241788159
0.4499999683 0.8712273043 -0.0564202648 0.0677727144 0.0015669833 -0.0076941997
0.2793449240 0.8852523538 0.4012527033 0.0672085811 0.0164065161 -0.0048900998
-0.0592711814 1.5063763498 -0.4910709503 0.0664987978 0.0002272667 -0.0243954992
0.0926259136 0.8172583561 -0.0194263160 0.0787135974 -0.0036389332 -0.0176024994
0.2438832252 1.1900804770 -0.4910709503 0.0668069144 -0.0001331500 0.0089235664
0.0425563819 0.0808588140 -0.0244042992 0.0564030981 0.0035235165 -0.0193085160
0.0221764993 0.7999999733 -0.0409886653 0.0591739147 -0.0061454665 -0.0200931660
0.0895385137 1.0949119135 -0.5077376164 0.0654331478 0.0000000000 -0.0243383992
0.1461319785 0.8909263870 -0.3607940213 0.0669665478 0.0146533662 0.0000950667
-0.1124858796 0.8745975208 0.2065141931 0.0663912811 -0.0165701328 -0.0060084331
-0.2190241594 0.8666666378 0.0912319970 0.0661581978 -0.0166156661 -0.0066673164
-0.0379627654 1.0872788304 -0.5077376164 0.0682372477 0.0008888500 -0.0242400325
0.4499999683 0.8528042882 -0.2546980415 0.0673604978 -0.0110484663 -0.0077376331
0.1918630436 1.4607561180 -0.4744042842 0.0671959478 -0.0002088000 0.0089000330
-0.0394820987 1.2024383099 -0.5077376164 0.0665292644 -0.0003954167 -0.0243909159
0.1003537467 1.0346492988 -0.5021603333 0.0665248644 -0.0045586165 -0.0237526325
0.1724117109 0.0666666644 0.0650520312 0.0666666478 -0.0166666661 -0.0077376331
0.1207819960 1.5835170139 -0.4744042842 0.0659843978 -0.0029068666 0.0081745331
-0.0592055314 1.2627999246 -0.4910709503 0.0664235978 -0.0012482666 0.0088356997
0.0179442161 0.8791129707 -0.0872801638 0.0665778144 0.0165873994 -0.0093151664
0.2183774427 1.4367360021 -0.4744042509 0.0671490978 -0.0004392000 0.0088961997
0.2940976069 0.8978762701 -0.3712187376 0.0674281478 0.0143045662 0.0007281333
-0.2377027587 0.9011769866 -0.3767583708 0.0659587978 0.0141914329 0.0009550666
0.1134742129 0.8748289375 0.2079028097 0.0667635478 -0.0165966661 -0.0062742998
0.2165990928 0.9599928180 -0.4510638016 0.0672093478 0.0099717497 0.0055609665
-0.0666666811 0.0285029324 0.4911284670 0.0801986640 0.0075677164 -0.0077376331
-0.3329639556 0.8691240044 -0.3280903391 0.0659929478 0.0161776995 -0.0041914332
0.3440033385 1.1553288448 -0.4910709503 0.0652508478 -0.0006556833 0.0086308664
-0.1927915102 0.8775868374 -0.0979627801 0.0660328145 0.0165755328 -0.0092320164
0.3861762705 0.9096669197 -0.4340712355 0.0674622644 -0.0113866330 -0.0198470827
-0.1993144100 0.8499999717 -0.1687938277 0.0662126478 -0.0166554661 -0.0076976997
-0.2772639741 0.8505075883 -0.0546917982 0.0657470478 -0.0165993994 -0.0067139831
0.3530586216 0.0666666644 -0.2169278761 0.0666666478 -0.0166666661 -0.0077376331
-0.0258784991 0.0666666644 -0.2307377590 0.0666666478 -0.0166666661 -0.0077376331
-0.2921901403 1.2517540749 -0.5077375831 0.0656483145 0.0003875667 -0.0243612325
0.4130253862 0.8866508871 -0.3543806882 0.0676250644 0.0149268162 -0.0009669000
-0.3314516723 1.2131324429 -0.5077376164 0.0652657645 0.0001346333 -0.0243222992
-0.1931158269 1.4543492182 -0.4744042842 0.0662058645 -0.0002048000 0.0089143997
0.3166666228 1.6126400796 -0.4907747336 0.0522085316 -0.0077382331 -0.0074458664
0.4731080009 0.0273014824 -0.2910709570 0.0666666478 0.0000000000 0.0089290330
0.1004105800 0.8499999717 -0.1616698613 0.0668089644 -0.0166588494 -0.0076255164
-0.3104085730 1.4824668339 -0.4910709503 0.0661494811 0.0003148000 -0.0243720159
0.2472462418 1.6093050130 -0.4741748009 0.0688539310 -0.0022639166 0.0085515164
0.0642100145 0.8173045894 0.0465885318 0.0662681311 -0.0079186831 0.0054089165
-0.0856587638 0.8499999717 0.5058381498 0.0664672811 -0.0166244161 -0.0069401498
-0.1744063942 1.0279377991 -0.4800398673 0.0663099978 0.0061384165 0.0077107164
0.0916927303 1.3392643720 -0.4842109839 0.0633749812 -0.0060856665 0.0073016164
-0.2442165752 1.7998793900 -0.4910709503 0.0663273478 -0.0078976497 -0.0220328326
0.0300567823 0.8469094384 0.0507132150 0.0603918980 0.0039104832 0.0042750665
0.1993983434 1.1630544946 -0.4910709503 0.0677505977 -0.0003038333 0.0088558664
-0.0904412303 1.2677408411 -0.4910709503 0.0660120645 0.0006705000 0.0087761330
0.0210411493 0.8692399044 0.1743688942 0.0666091478 -0.0165789994 -0.0060515831
0.1505002283 1.7610233913 -0.4744042842 0.0669579144 0.0021789666 0.0085623497
-0.0465846651 1.2911338403 -0.5077376164 0.0669538811 0.0013134333 -0.0242716659
0.3744639042 0.8779524874 0.3637855712 0.0672371144 -0.0164881661 -0.0098812163
0.0007618000 0.8499999717 -0.1637898612 0.0665404978 -0.0166607494 -0.0076620831
0.3469878884 0.8605668713 -0.0067106664 0.0674362811 -0.0165586161 -0.0060836831
-0.0351773655 1.1088117797 -0.5077376164 0.0675604144 0.0004122667 -0.0243024159
-0.1643860279 0.8833333039 0.2999805067 0.0662790978 -0.0166129328 -0.0075112164
-0.1313688123 1.4193501360 -0.4744042842 0.0665586811 -0.0000479833 0.0089255997
0.3089626730 1.6388074954 -0.4685277177 0.0678119144 -0.0007655500 0.0088575830
-0.1918618436 1.7999999400 -0.5074602831 0.0666666478 0.0002773167 -0.0077376331
0.3897298203 1.4238161192 -0.5077376164 0.0671406478 0.0005339833 -0.0243142492
-0.0464080985 0.8318357889 -0.0077376331 0.0666666478 0.0000000000 -0.0244042992
0.4033890032 1.0786457974 -0.4910709503 0.0686853810 0.0011583000 0.0084836997
0.4154276862 0.8672374378 -0.3904867370 0.0675810144 -0.0145730162 -0.0157450495
0.0769910808 1.0768438641 -0.4910709503 0.0658323311 0.0015613666 0.0087946330
-0.1958099768 0.8499999717 -0.1002805967 0.0659657978 -0.0166279494 -0.0071910831
0.3616720879 0.8499999717 -0.2554716748 0.0672072811 -0.0166554161 -0.0077376331
0.0015502833 1.0458765985 -0.5056758998 0.0664944311 -0.0043786332 -0.0237709159
0.2738035909 0.0666666644 -0.1940087935 0.0666666478 0.0166666661 -0.0077376331
0.1060017465 0.8499999717 -0.1123875629 0.0668396311 -0.0166204661 -0.0068979664
-0.3154702562 1.4843314672 -0.4734610342 0.0662058311 -0.0010033333 0.0088215997
-0.2454539085 0.8666666378 -0.2550218082 0.0661541478 0.0166550494 -0.0077695331
0.1422665953 1.4320317189 -0.4744042842 0.0668150144 -0.0003929333 0.0089122997
-0.2060023431 1.2537665915 -0.5077376164 0.0659370978 0.0003222333 -0.0243716659
0.4288808524 1.1647694445 -0.4910709503 0.0694815810 -0.0001097167 0.0085128830
0.3033046899 1.4141163695 -0.5060045331 0.0666247478 0.0015163999 -0.0243194992
0.4222883859 0.8833333039 0.0271261324 0.0673382644 0.0166520161 -0.0077398997
-0.0689076644 0.0043715999 0.4922623503 0.0666666478 0.0000000000 0.0089290330
0.4033909199 0.8833333039 0.0216343659 0.0673267478 0.0166499328 -0.0077935164
0.3735516209 0.8781542874 0.2259996758 0.0672504478 -0.0165643661 -0.0060425831
0.3894951204 1.5581341481 -0.4744042842 0.0675637644 0.0000000000 0.0087461997
0.3477907551 0.8652591378 -0.3811821706 0.0673859478 -0.0149059995 -0.0149740828
0.0491654650 0.8666666378 -0.0299454490 0.0664675145 0.0142062162 -0.0104635330
-0.3021085733 0.8953068702 0.2408288753 0.0660764811 0.0166051161 -0.0089673830
-0.1859036605 0.8666666378 0.1304337790 0.0662702478 -0.0166279161 -0.0067758164
0.2764928908 1.5057392831 -0.4923680169 0.0662058978 0.0028731499 -0.0241295992
-0.3500000050 0.8827029872 0.1995077267 0.0660040311 0.0018744666 -0.0078818997
0.0963317301 0.7999999733 -0.0045815332 0.0777236807 -0.0076486331 0.0018032499
0.3415444053 0.8833333039 0.4217038693 0.0671842144 0.0164086161 -0.0048853832
-0.1619255279 0.8833333039 0.0452981652 0.0663011978 0.0166588494 -0.0077587831
0.2395056420 1.2163159261 -0.4910709836 0.0669710144 -0.0000748500 0.0089183830
-0.2197972760 1.1970442101 -0.4910709503 0.0663126811 -0.0004971833 0.0089056997
0.0435099652 0.8736288375 0.2007024100 0.0666401811 -0.0165984994 -0.0062795498
0.2284972257 0.8819370039 0.3478477384 0.0669545978 -0.0164973328 -0.0099366830
-0.1252898292 0.8666666378 0.1386954954 0.0663696311 -0.0166154828 -0.0065874831
-0.3454066052 0.8671569544 -0.1709718443 0.0657300145 0.0165498661 -0.0094633164
-0.1714549443 0.8742086709 0.2041814432 0.0662954978 -0.0165732161 -0.0060770331
-0.1682189444 1.7612376580 -0.4910709503 0.0660189478 -0.0034457999 -0.0239461659
-0.2597882413 0.8499999717 -0.1991461767 0.0661292811 -0.0166554828 -0.0077376331
0.2806174240 0.8999999700 0.2766536908 0.0670457811 0.0166098661 -0.0085464497
-0.1726961109 1.0689754144 -0.5077375831 0.0658376645 0.0013548000 -0.0242866659
-0.0988698634 1.2191391927 -0.4910709170 0.0664870478 -0.0002706833 0.0089169830
0.3006119566 1.2125458596 -0.5077376497 0.0670694144 0.0001716167 -0.0243886659
0.4499999350 1.3820101039 -0.4938010002 0.0698653477 -0.0014490500 0.0030430332
-0.0098896497 1.0129153829 -0.4725286676 0.0667662811 0.0066825664 0.0075189831
0.4137758862 1.4637932679 -0.5064677331 0.0673786811 0.0017584999 -0.0242908659
0.1233167126 1.1804448107 -0.5077376164 0.0666666478 -0.0003135333 -0.0243994992
0.0004549000 0.8675564877 0.4053695865 0.0665393478 -0.0164899661 -0.0100757663
0.0978117967 1.4861988838 -0.4744042842 0.0667324978 0.0000658500 0.0089278330
0.4042096865 1.7080405597 -0.4910709503 0.0674637144 0.0001913667 -0.0243800492
-0.1745067108 1.2142125095 -0.5077376164 0.0663101311 -0.0000403500 -0.0243877492
0.1164179628 0.8666666378 -0.3216733393 0.0667799978 0.0156744495 -0.0023345166
0.3198387893 1.3746713875 -0.5077376164 0.0657582478 -0.0013380833 -0.0242624492
0.1958328935 0.8499999717 -0.1535935282 0.0670101478 -0.0166516494 -0.0075557497
-0.0859962971 0.8666666378 -0.3162192228 0.0664345478 0.0159301828 -0.0033994332
-0.1978386934 0.8588807214 -0.3510463550 0.0660612978 -0.0156839828 -0.0129542662
0.1726666276 1.5178583327 -0.4744042842 0.0668346811 0.0001680333 0.0089259830
-0.1515981783 0.8720905043 0.1914720103 0.0663276311 -0.0165809661 -0.0061635831
0.1316725289 1.0693182310 -0.5077376497 0.0666138644 -0.0003327500 -0.0242443992
0.3416464219 0.8666666378 0.1200588460 0.0672149478 -0.0166314828 -0.0068892831
-0.3113711063 1.2560247581 -0.4910709836 0.0666744144 -0.0002076833 0.0086378830
0.0105056163 1.7651570078 -0.4910709503 0.0665407978 -0.0006868666 -0.0243174992
0.1411079620 0.8833333039 -0.0355377988 0.0669020478 0.0166071328 -0.0088316497
-0.1602696947 0.8666666378 -0.3098448563 0.0663077811 0.0162130161 -0.0045874998
-0.3057286565 0.8999999700 0.3237115392 0.0660786145 0.0165328494 -0.0067119498
0.2518455583 1.0584081981 -0.5077376164 0.0669932311 -0.0005151000 -0.0242192825
0.0025472499 0.8750683875 -0.1155918128 0.0665457978 0.0165980494 -0.0091698330
0.1101865630 1.4782310007 -0.4911694336 0.0662402145 0.0019021999 -0.0242729992
-0.3224452726 0.8833333039 0.0535803649 0.0660446645 0.0166503661 -0.0078425664
0.1211070293 0.8666666378 0.1546064115 0.0667894311 -0.0165878661 -0.0061792331
0.4030645032 0.0666666644 0.2678068411 0.0666666478 0.0166666661 -0.0077376331
0.2420282753 0.8666666378 0.1497697283 0.0670227978 -0.0166037494 -0.0064632665
0.2213889426 1.5474028984 -0.4744042842 0.0666666478 0.0000000000 0.0089290330
0.2251684092 1.3686743044 -0.5077376164 0.0667561311 0.0026437499 -0.0241708325
0.4186216027 1.7238119259 -0.4910709503 0.0674875644 0.0002419833 -0.0243798992
0.1470136951 0.0666666644 0.0205316660 0.0666666478 -0.0121164829 -0.0077376331
0.3205332560 0.8666666378 0.0489608817 0.0673009811 -0.0165914994 -0.0064428831
0.3823861706 0.9053515532 -0.3851074372 0.0677037644 0.0140722495 0.0011115000
0.3160340728 0.9020431866 -0.3784907207 0.0674966478 0.0141874329 0.0009405166
0.4260852525 1.6880056437 -0.4735051675 0.0678979311 0.0002451833 0.0088802330
0.3989100200 1.3632912546 -0.4910709503 0.0677402811 -0.0020799166 0.0084676331
-0.1476232951 0.8689207377 0.1724536609 0.0663335311 -0.0165958661 -0.0063468665
-0.1645647778 1.1949822268 -0.5077376164 0.0665159644 -0.0002011167 -0.0243951825
0.2811238906 0.0666666644 0.1591106114 0.0666666478 0.0166666661 -0.0077376331
0.2358185421 1.4633943679 -0.4990860667 0.0668283811 0.0016267499 -0.0243116325
0.1046285465 0.8499999717 -0.2002974933 0.0667614144 -0.0166646994 -0.0077376331
0.3502887717 1.6924979603 -0.4704406177 0.0677085644 0.0002036333 0.0088903830
0.2801770073 0.8816297873 -0.0775496141 0.0672788478 0.0165867661 -0.0090882997
-0.1454505118 0.8666666378 0.0904270637 0.0663155645 -0.0166314994 -0.0068196998
0.0123289829 1.1592678947 -0.5077376164 0.0675658144 -0.0007165000 -0.0243433325
0.3679881711 0.8666666378 -0.2188821760 0.0672570644 0.0166208994 -0.0084184997
0.2941043069 0.9668764511 -0.4800997173 0.0669684478 -0.0077362831 -0.0223770826
0.1592240947 1.6828897606 -0.4910709503 0.0666026311 0.0000240667 -0.0243976325
0.1436552785 0.9635409345 -0.4517437183 0.0670673644 0.0093786164 0.0059819165
0.3899755537 1.2890376570 -0.4910709503 0.0669293644 0.0000441000 0.0088810664
0.4170359694 0.8884624204 0.3884126204 0.0675051644 0.0164136161 -0.0049801832
-0.0050510498 1.6902535270 -0.4887771670 0.0661430311 0.0000517167 -0.0243898659
0.0499999817 0.0936306635 -0.0382912154 0.0553182648 0.0032868999 -0.0192617660
-0.3492958384 1.3529665216 -0.4763039675 0.0640317312 -0.0008779333 0.0086854497
-0.0212793160 1.2651268912 -0.5077376497 0.0666366311 0.0003747000 -0.0243902325
0.4499999683 1.6530171116 -0.4906869003 0.0677679644 0.0000077500 -0.0236007159
-0.0947764302 0.0368667821 0.4641525845 0.0756477475 0.0049784498 -0.0207213660
0.4499999683 1.2891728237 -0.4934238502 0.0684688811 -0.0004012833 0.0041205332
-0.3204164560 1.6361963288 -0.4577376181 0.0655782311 -0.0000373167 0.0088864330
0.3992319200 0.8666666378 0.1256112791 0.0673333811 -0.0166300994 -0.0069124498
-0.0855418305 0.0666666644 -0.3608832213 0.0666666478 0.0166666661 -0.0077376331
0.3507107216 0.8499999717 -0.1824029939 0.0671882644 -0.0166557994 -0.0077376331
0.0610282313 0.2727561909 -0.0300427157 0.0768954974 0.0015075499 -0.0204875827
0.0936505135 0.0666666644 -0.0727700976 0.0666666478 -0.0166666661 -0.0077376331
0.3330081722 0.8916290703 0.3757459208 0.0672876978 0.0164112161 -0.0049248832
0.4071503364 1.6357849788 -0.4726188842 0.0680976477 -0.0010077166 0.0088296830
0.3071189898 1.7796732073 -0.4910709503 0.0672125644 -0.0034379499 -0.0239244659
0.2649544912 0.8833333039 -0.0515523983 0.0672598811 0.0166048161 -0.0087742830
0.0257001658 0.8970912034 -0.4200410693 0.0665366311 -0.0131693996 -0.0179028661
0.1252669125 1.4335893855 -0.4969635168 0.0662399478 0.0014490500 -0.0243339492
0.0666666478 0.7504691250 0.0014394166 0.0832739806 -0.0012772500 -0.0077376331
-0.0414656320 0.8666666378 -0.3151071728 0.0665105478 0.0158488161 -0.0031452332
0.0133409496 0.0666666644 -0.2167578594 0.0666666478 0.0166666661 -0.0077376331
0.3233029559 0.9811159506 -0.4895927170 0.0669286978 -0.0067518831 -0.0229482659
0.0777725474 0.9000000367 0.3362097721 0.0667017811 0.0166135828 -0.0072029831
-0.2006563933 1.0363430988 -0.5009091833 0.0662294978 -0.0053782332 -0.0233970992
-0.0203203993 0.8833333039 -0.0216693326 0.0664392311 0.0166158828 -0.0086640830
0.3610061713 0.8833333039 0.1013696300 0.0672213311 0.0166222494 -0.0084832831
0.2024797599 0.9405412353 -0.4625428679 0.0669288811 -0.0099191663 -0.0210222493
0.3569923714 0.8999999700 0.2988938567 0.0672166144 0.0165855328 -0.0074902498
0.2738609575 1.3810915206 -0.4744042842 0.0676861311 -0.0045339665 0.0069906331
0.0052985998 1.5336802989 -0.4910709503 0.0681463644 0.0016386666 -0.0242338492
0.1159435461 0.8710859710 0.3912515203 0.0667506144 -0.0164886161 -0.0101165830
0.1407481453 0.8545746882 -0.0340363655 0.0669200144 -0.0165716994 -0.0060381665
0.4499999350 1.6387655287 -0.4757919175 0.0681493811 -0.0010070000 0.0060530498
0.3915137036 0.9141586695 -0.4027216366 0.0677325144 0.0139235662 0.0013407333
-0.1055459798 1.1697098610 -0.4910709503 0.0667221311 -0.0004174167 0.0089232164
0.3748645542 1.7571438581 -0.4910709503 0.0672027811 0.0001781833 -0.0243680825
0.0699920477 0.8499999717 -0.0712002310 0.0667536311 -0.0165866494 -0.0062268831
-0.0048953332 1.4844654839 -0.4744042842 0.0665453978 -0.0000538833 0.0089251830
0.4203342527 1.5964320635 -0.4910709503 0.0683534977 0.0003497167 -0.0242332325
0.0693425310 0.3543622882 0.0062531498 0.0783763641 0.0009754000 0.0039720832
0.4495931017 0.8904787370 -0.4148830195 0.0676543977 -0.0125594162 -0.0184482327
0.1345828955 0.8834281039 0.1594976614 0.0667941644 0.0166325161 -0.0087055830
-0.0149207995 0.8499999717 -0.1466208951 0.0664840978 -0.0166500161 -0.0074706831
-0.1327486956 1.4691043344 -0.4910709170 0.0661051478 0.0007492500 -0.0243594825
0.0656570978 0.8666666378 -0.0560870981 0.0666666478 0.0078426497 -0.0219254326
-0.0068524164 1.3120301063 -0.4897944003 0.0700226643 -0.0016741166 0.0080049997
0.0193548494 0.8855220538 0.4023627199 0.0666465311 0.0164042161 -0.0048110165
0.0161660495 0.8499999717 -0.2252659092 0.0666079644 -0.0166654494 -0.0077376331
0.0122988163 0.8931912369 0.3793552874 0.0666177311 0.0165055994 -0.0056127665
-0.0582611647 1.4849118005 -0.4744042842 0.0664275311 -0.0001062667 0.0089214330
-0.1998629433 0.8499999717 0.4809775840 0.0662008645 -0.0160855161 -0.0108471996
-0.4532700849 0.0564876981 0.0089290330 0.0693152310 0.0026485832 0.0077385164
-0.1924239936 0.8870416371 0.4044592699 0.0661928645 0.0163955161 -0.0048138665
0.2929378402 0.8538459549 -0.0447838318 0.0673381811 -0.0165793661 -0.0063200498
0.0498933483 0.8819993039 0.2509249250 0.0666414144 -0.0166282661 -0.0066414998
-0.2154099262 1.0654930978 -0.4910709503 0.0678978811 0.0031213332 0.0085584330
-0.2618489913 0.9560254015 -0.4689746010 0.0658344478 -0.0073549831 -0.0225412992
0.0468413318 0.8833333039 0.2776433574 0.0666281811 -0.0166048494 -0.0074453664
-0.0290751157 0.8666666378 -0.2231141259 0.0665294811 0.0166518661 -0.0081442664
-0.2848480238 0.8827106872 -0.3484704217 0.0659639145 0.0151414162 -0.0014248500
0.0175331994 1.0710612976 -0.4910709503 0.0672308311 0.0009333333 0.0088714830
-0.1218374959 1.2110508763 -0.4910709503 0.0664911811 -0.0003050500 0.0089167830
0.0177543994 0.8508231216 0.4739493509 0.0665204811 -0.0160575828 -0.0121449496
-0.0181619494 0.8710562710 -0.1436768452 0.0665011978 0.0166073828 -0.0090360164
-0.1905799770 0.8833333039 -0.0125805162 0.0659899645 0.0166316828 -0.0082106997
0.2052435598 0.8666665711 -0.2814563240 0.0669319644 0.0165656494 -0.0066777831
-0.1127714129 0.0499999983 -0.4859693005 0.0666666478 0.0166666661 -0.0077376331
0.0411108320 0.8699717543 0.1787598607 0.0666402644 -0.0165855661 -0.0061221998
0.2061230598 1.4191183194 -0.5015384499 0.0663677645 0.0014613833 -0.0243291825
0.2493616250 0.8666666378 -0.1903252270 0.0670581478 0.0166116328 -0.0087935164
-0.0583329814 0.8727761876 0.3844908539 0.0664190145 -0.0164272661 -0.0104555330
0.2764436408 0.8666666378 0.1083849631 0.0670890644 -0.0166310328 -0.0068427331
-0.0380405654 0.0666666644 0.2828654906 0.0666666478 0.0166666661 -0.0077376331
0.0479846817 1.6166666128 -0.4761669841 0.0675679144 -0.0162678161 -0.0085259330
0.0950755302 0.8759537708 0.2146518262 0.0667278311 -0.0166046661 -0.0063611498
-0.2436489752 0.0666666644 -0.0140629829 0.0666666478 0.0166666661 -0.0077376331
0.2131772096 1.1664187945 -0.5077376164 0.0690368477 -0.0000212833 -0.0241904659
-0.0196952660 0.8833333039 0.0403750820 0.0665194478 0.0166629828 -0.0077539164
0.2064381598 0.8666666378 0.1216774626 0.0669539978 -0.0166158661 -0.0065999831
0.0370948321 0.0666666644 -0.0556549148 0.0628105812 0.0098245163 -0.0154497495
0.1355499288 1.3429390719 -0.4802061173 0.0658209145 -0.0035139499 0.0081001497
0.1851057938 0.8999999700 0.3145300728 0.0668880644 0.0166169328 -0.0076211331
0.0827617639 0.0666666644 -0.0227314992 0.0666666478 -0.0166666661 -0.0077376331
0.2941032402 0.8833333706 0.2744502909 0.0670940311 -0.0165956994 -0.0068005664
-0.2563379415 1.2098378097 -0.4910709503 0.0660736145 -0.0006089166 0.0088925330
0.2187408094 1.0752977642 -0.4910709503 0.0683286311 0.0024109666 0.0086237664
0.0155805495 0.8666666378 -0.3061495565 0.0666078978 0.0158792828 -0.0035189832
0.2109133430 0.8599994380 -0.0043025665 0.0670808144 -0.0165774661 -0.0061794831
0.0367904488 0.0666666644 0.0690969810 0.0663955478 0.0151476328 -0.0057221831
-0.2774718741 0.9176836361 -0.4420878853 0.0658741145 -0.0109769663 -0.0200427660
0.3071240898 1.1885711270 -0.5077376164 0.0669301311 -0.0010767500 -0.0242402659
-0.0769508141 0.8833332372 0.3470447384 0.0664036145 -0.0165112828 -0.0098328497
-0.2486299584 0.8833332372 0.2841789572 0.0661530978 -0.0165867494 -0.0068649164
-0.1172036794 1.7781567241 -0.4744042842 0.0663411645 0.0008717166 0.0088647664
-0.1518968283 1.4097137030 -0.4744042842 0.0665729311 -0.0000416500 0.0089260497
-0.1886065104 0.8726615042 -0.1324404956 0.0660974311 0.0165636994 -0.0094305997
0.3899148037 1.3344269555 -0.4910709503 0.0679075477 -0.0007574500 0.0086883664
0.4231087359 1.7418278419 -0.4739597509 0.0676837644 0.0026895332 0.0086262997
0.1158265295 0.8550330882 0.5089290164 0.0666666478 0.0000000000 0.0089290330
0.3028416232 1.6861991271 -0.4683324011 0.0676094644 0.0001813000 0.0088949497
-0.3062913065 1.1200433960 -0.4910709503 0.0654488978 0.0002421500 0.0087477664
0.1422640619 0.8819744373 -0.0697353810 0.0668898811 0.0165802494 -0.0093335330
0.2415598086 0.8499999717 -0.1348863622 0.0671708478 -0.0166412494 -0.0073922664
-0.2662554745 1.2974980234 -0.4774492341 0.0669135478 -0.0019675833 0.0087409330
-0.1600977280 0.8499999717 0.5050852665 0.0663698478 -0.0166037661 -0.0065504331
-0.3211800060 0.9754473675 -0.4729764676 0.0656220478 -0.0053905332 -0.0233773826
-0.1306740956 0.8716720209 0.1889612437 0.0663618478 -0.0165803328 -0.0061451498
0.0262661491 0.4695147010 -0.0077376331 0.0613417980 0.0000000000 -0.0227920659
0.1338215789 1.6639041279 -0.4910709170 0.0665533478 0.0000350833 -0.0243986492
-0.3318894389 0.8856183705 0.4157309028 0.0658587478 0.0163845328 -0.0048006998
0.0678005977 1.6295941123 -0.4592761847 0.0672396644 -0.0005178833 0.0089072164
0.0903324470 0.9629754012 -0.4774990174 0.0666257311 -0.0082899331 -0.0220086159
0.0809421140 1.6443539452 -0.4590268514 0.0671776311 -0.0003661833 0.0089134664
0.0990960300 0.8854761538 -0.3526185882 0.0668198144 0.0148618495 -0.0003083333
0.0422688986 0.9437618019 -0.4348328355 0.0667212478 0.0105371663 0.0050863998
-0.1333333456 0.0261757325 -0.4877792837 0.0499999817 0.0000000000 -0.0077376331
0.4499999683 0.8636915545 -0.2740667575 0.0673577478 0.0106414996 -0.0070079831
0.3333333056 1.3277287391 -0.4923928669 0.0640981312 0.0000835500 0.0060920831
-0.3485461050 0.8815646206 -0.3967512868 0.0656745145 -0.0136902329 -0.0170437828
0.0358032155 1.4607164513 -0.4912374003 0.0662631978 0.0014831333 -0.0243303492
-0.1995136600 0.8833333039 0.0399514153 0.0662299145 0.0166570328 -0.0077575664
-0.1848379605 0.8833332372 0.4471283184 0.0664376478 0.0161874328 -0.0039037332
0.0111299830 1.4948738835 -0.4744042842 0.0665807978 -0.0000381500 0.0089262997
0.3150254562 0.8813153373 0.2468214751 0.0671349811 -0.0165730328 -0.0061075331
-0.3039901732 1.3628531879 -0.4948843168 0.0669795311 0.0038887832 -0.0230242492
0.3631048546 1.6760082941 -0.4910709503 0.0671404311 0.0000742667 -0.0243921325
0.3391378054 1.4205878693 -0.4744043175 0.0675289311 -0.0007097666 0.0088722830
-0.2973781734 1.1025869632 -0.4910709503 0.0655797645 0.0002915333 0.0087247830
0.3510025383 1.4908403503 -0.4744042842 0.0673864811 0.0003928000 0.0088696830
0.1369830954 0.8666666378 0.1062305131 0.0668198978 -0.0166171328 -0.0065728831
-0.0030592666 0.8880913704 0.1874775271 0.0665504144 0.0166122661 -0.0089705497
-0.1491821450 0.8833333039 0.1211854293 0.0663222145 0.0166341494 -0.0084517331
0.1983697101 1.0445916152 -0.5077376164 0.0667025478 -0.0036182832 -0.0239543325
-0.0573238648 0.8833333039 0.0374793321 0.0664452811 0.0166603661 -0.0077788831
-0.3424481053 1.1392908287 -0.5077376164 0.0643325479 0.0000571000 -0.0242120325
0.3772745541 0.8844190872 0.4045860198 0.0674416978 0.0164103828 -0.0049543665
0.1348695122 1.7887562404 -0.4953144168 0.0665618978 -0.0046257832 -0.0233336826
-0.1828309106 1.0064175665 -0.4859464171 0.0660074311 -0.0056520998 -0.0233507992
0.3967481701 1.4405540020 -0.4744042842 0.0683584977 -0.0032800832 0.0075965997
0.0496865650 0.2652395412 0.0252822825 0.0592676980 0.0016068666 0.0068375498
0.2588343580 0.8855059705 0.1719652109 0.0670253478 0.0165975661 -0.0091008830
0.3437291219 0.8666666378 0.4862266171 0.0673100978 0.0162818661 -0.0047971165
0.3243219059 0.8833333039 0.2773659574 0.0671508478 -0.0165909328 -0.0068408331
-0.1015000133 0.8709179876 0.1844372272 0.0664095311 -0.0165802828 -0.0061297665
0.2423975753 0.8999999700 0.3372117888 0.0670360811 0.0165649161 -0.0064674831
0.1477303617 0.8746673875 -0.1183991961 0.0668639978 0.0165869828 -0.0092719497
-0.2058617431 0.8709780043 -0.1442245952 0.0660585145 0.0165656994 -0.0093907997
-0.2113089596 0.8666666378 0.0609243646 0.0661184645 -0.0165967494 -0.0064507165
-0.1325705789 0.8499999717 -0.1477229617 0.0662475311 -0.0166496828 -0.0075477331
-0.0924816803 1.3501104550 -0.5077375831 0.0661781311 -0.0008697000 -0.0238567992
-0.2775774741 0.8833332372 0.0624185313 0.0661162978 0.0166522328 -0.0078780664
-0.0275295657 1.6069663464 -0.4910709836 0.0676486644 -0.0010106000 -0.0241657492
0.0361174655 0.8666665711 -0.1815159106 0.0666425644 0.0166398661 -0.0086328164
-0.0284004157 0.0666666644 0.3200664727 0.0666666478 -0.0166666661 -0.0077376331
-0.2823290573 0.8714002876 0.3920212703 0.0660086478 -0.0163414328 -0.0108358996
-0.2130396929 0.8765083041 -0.1055127965 0.0659888645 0.0165731494 -0.0092465997
0.1391476954 1.3202846060 -0.4910709503 0.0649087645 -0.0022106333 0.0083206164
0.0666666478 0.2717396409 0.0222404659 0.0833041806 0.0006714166 -0.0077376331
-0.0444603485 0.0666666644 -0.2278441257 0.0666666478 0.0166666661 -0.0077376331
-0.2971447734 0.8770206874 -0.1019258633 0.0657444145 0.0165800661 -0.0090437497
