-0.0764760931 1.0473791508 0.2753234068 -0.0012187611 -0.0018000646 -0.4636730348
0.4744726267 1.0961759378 -0.3311929990 0.0007193169 0.0020831048 -0.4634444500
-0.1410427763 1.1116070684 0.2436646902 0.0000000000 0.0022321427 -0.4631696464
-0.1913947930 1.0940811232 0.3891776715 0.0000000000 0.0019068749 -0.4620102916
0.1613326142 1.1144582133 0.0100446076 0.0000000000 0.0008974575 -0.4651078026
0.0036369730 1.0564872842 0.0652357467 0.0003661049 0.0021808369 -0.4629905594
0.1728532027 1.0299304556 0.4512226963 0.0000000000 0.0006659263 -0.4610404769
0.0546136325 1.0758927851 0.1018349363 0.0000000000 -0.0022321427 -0.4631696464
-0.0479503718 0.4421238253 0.4431334938 -0.0000025022 -0.0002394286 -0.4609531086
0.3927035072 1.1149419990 0.1111803999 -0.0000036562 0.0022312878 -0.4631089277
-0.1116071354 0.3672504174 0.4145813729 -0.0022321427 0.0000000000 -0.4631696464
-0.1153960057 1.0758927851 -0.0073426457 0.0000000000 -0.0022321427 -0.4631696464
-0.2212622352 1.1308990805 -0.4013071952 0.0000000000 0.0015983459 -0.4616117381
0.3205737174 1.1093749257 0.3297914210 0.0000000000 0.0022233726 -0.4629976665
-0.0267857125 1.0311851497 0.0598389034 -0.0022029507 0.0002927857 -0.4630797893
0.0664380491 0.5683989820 0.4408481502 -0.0003228951 0.0000000000 -0.4653437668
-0.2963073730 1.0758927851 0.1827786518 0.0000000000 -0.0022321427 -0.4631696464
-0.3796815616 1.1116070684 0.2287804233 0.0000000000 0.0022321427 -0.4631696464
-0.4540733982 1.0924662126 0.0154951273 0.0014575044 0.0016865088 -0.4631717915
0.0441845461 0.9348243370 -0.2078458778 0.0009195781 0.0018851717 -0.4636241263
-0.0464712424 1.1120742336 0.1543809573 0.0000143371 0.0022304507 -0.4630840259
-0.0206849875 0.8913082483 -0.0307058584 -0.0000216027 -0.0022211338 -0.4633623875
-0.0557385811 0.9291721811 -0.3286196889 -0.0021670668 -0.0004010915 -0.4632193005
0.0847111037 1.0442029390 0.4009714877 -0.0014431472 0.0010891673 -0.4618607135
0.2251204961 1.0758927159 0.2041006973 0.0000000000 -0.0022321427 -0.4631696464
0.3420732137 1.0758927851 -0.0083429135 0.0000000000 -0.0022321427 -0.4631696464
-0.3453161822 1.1155229231 -0.3794834802 0.0000000000 0.0020565490 -0.4623059411
-0.0802982312 1.0047184416 0.4296874366 -0.0000121562 -0.0001003304 -0.4609443810
0.0838345569 0.9262168799 -0.4344487176 -0.0006287924 0.0020060691 -0.4636549678
0.0163377802 0.2197215589 0.4223549081 0.0000000000 -0.0002603236 -0.4609527403
0.2038584819 1.0758927851 0.2899286558 0.0000000000 -0.0022321427 -0.4631696464
0.4999999665 1.1005159732 -0.4049955588 0.0022321427 0.0000000000 -0.4631696464
0.0514038180 0.9058665621 -0.1355569608 0.0018550244 -0.0012245847 -0.4633637737
-0.1343816428 1.0985628483 0.3839986741 0.0000000000 0.0018680401 -0.4619723028
-0.0808399187 1.0758927851 0.1344803649 0.0000000000 -0.0022321427 -0.4631696464
-0.0855987688 1.1117439881 -0.2592001467 0.0000000000 0.0022312007 -0.4632344746
0.2962019578 1.0555838155 0.4185896650 -0.0001870268 0.0017845601 -0.4618872380
-0.0646373417 0.9017857231 -0.4539565131 0.0001448683 0.0020647365 -0.4634702290
0.4067058634 1.0284518508 -0.4178776249 0.0006088013 -0.0020799976 -0.4635486799
-0.1699460288 1.0269884379 0.3770027928 0.0000581183 0.0008214285 -0.4652372869
-0.0424672851 1.0810374499 0.2839829040 0.0002532522 0.0021139887 -0.4625083384
0.3866071438 1.0758927851 0.0533705065 0.0000000000 -0.0022321427 -0.4631696464
0.1071428589 0.5070894437 0.4252481512 0.0022321427 0.0000000000 -0.4631696464
0.0598758286 1.0772175752 -0.2620036086 0.0000000000 -0.0022320557 -0.4631892268
0.0527987866 0.8771027247 0.2244634124 0.0018552432 -0.0012322298 -0.4633056308
0.2376978569 1.0162704342 -0.4075138354 0.0000539375 -0.0018143057 -0.4619082983
-0.0905020096 1.0840687712 0.4073786792 0.0000000000 0.0017799396 -0.4618258519
0.2272347571 1.0764923051 -0.1815032323 0.0000000000 -0.0022320557 -0.4631894522
0.3667348884 1.0758928543 -0.0630869143 0.0000000000 -0.0022321427 -0.4631696464
0.1071428500 0.3422889815 0.3959531175 0.0022321427 0.0000000000 -0.4631696464
-0.3960661967 1.0763614480 -0.1669737154 0.0000000000 -0.0022320534 -0.4631895125
-0.0259747349 0.3822833204 0.4386893713 0.0000000000 -0.0002561183 -0.4609523386
0.0257969603 1.0416628276 0.0217590309 0.0020967878 0.0006990245 -0.4630551732
-0.0583781903 1.1128474590 0.1381220387 0.0000120826 0.0022306427 -0.4630889098
0.4464361710 1.0535637286 -0.2117224289 -0.0016955177 -0.0013949887 -0.4631687268
-0.1586980362 1.0438706511 0.4007093627 0.0001215469 0.0022002878 -0.4634051219
-0.2018893146 1.0758927851 0.0881458635 0.0000000000 -0.0022321427 -0.4631696464
0.3119038653 1.0758927851 0.2242801044 0.0000000000 -0.0022321427 -0.4631696464
0.0016639932 1.0592993978 0.0374476549 0.0002442120 0.0021977744 -0.4629861799
-0.3123374456 1.1120136063 -0.0498167076 -0.0000031317 0.0020383101 -0.4639389165
0.0187214586 1.0926871925 0.3559199148 -0.0000839933 -0.0019067811 -0.4642990638
-0.4475272758 1.0547046637 -0.2137835917 0.0016693905 -0.0014796695 -0.4631662134
0.3017321785 1.1049106403 0.3592002829 0.0000000000 0.0022128324 -0.4628897581
0.1028189239 0.2140060013 0.3770770428 -0.0021428458 0.0000415960 -0.4635240437
-0.2891194963 1.1330779554 -0.4420030206 -0.0000002768 -0.0010273727 -0.4651510704
-0.3083983633 1.1116070684 0.2188126204 0.0000000000 0.0022321427 -0.4631696464
0.0709551269 0.0000000000 0.3618777916 0.0000000000 -0.0022321427 -0.4631696464
-0.0520318068 0.9056852965 0.0764220719 -0.0017097030 0.0013915870 -0.4630803585
-0.0370766158 0.9442183006 -0.3228869237 -0.0000027433 0.0022287208 -0.4630513719
0.4637737993 1.0235275542 0.4158924710 0.0000000000 -0.0010254486 -0.4651511932
-0.1570620431 1.1157580034 0.0613842314 0.0000050402 0.0022309909 -0.4630982290
-0.0376552073 1.0779726131 -0.3458165806 0.0000000000 -0.0022320579 -0.4631891866
0.4702741114 1.0982142122 0.1921029302 0.0001132165 0.0022193682 -0.4631696464
-0.0998173036 1.0758927851 -0.0950776800 0.0000000000 -0.0022321427 -0.4631696464
0.0391404081 0.9220155365 -0.0492917791 0.0000198884 0.0022230690 -0.4629799344
0.1987323282 1.0758927851 0.2020897376 0.0000000000 -0.0022321427 -0.4631696464
-0.1181769899 1.1141329433 -0.1795682101 0.0000000000 0.0022311762 -0.4632353250
-0.0557339405 1.1116070684 -0.3610491778 0.0000000000 0.0021984284 -0.4628083317
-0.0472097357 0.1906657082 0.4189224307 0.0000000000 -0.0002638906 -0.4609531600
-0.3554528199 1.1116070684 0.2092571456 0.0000000000 0.0022321427 -0.4631696464
-0.4545358624 1.0929286768 -0.0536757498 0.0014459530 0.0016973994 -0.4631711509
0.0731400799 0.0374507676 0.3992311686 0.0000000000 -0.0003137455 -0.4609616310
-0.1367845958 1.0230673377 0.4532482319 0.0000000000 0.0007511852 -0.4610731979
-0.0944320584 0.8284252146 0.4631695772 -0.0000019687 -0.0000269821 -0.4609386511
-0.2606490852 1.1106946756 -0.2941780930 -0.0000000045 0.0022312365 -0.4632332000
-0.4161863382 1.0341861584 -0.4211592519 -0.0008985245 -0.0017997744 -0.4640904410
-0.2225199114 1.1093749257 -0.3518801360 0.0000000000 0.0022151360 -0.4629391822
0.2428587337 1.1116070684 -0.3665999520 0.0000000000 0.0022220869 -0.4630651241
-0.3316766318 1.0213717731 -0.4052141592 -0.0001825513 -0.0016486561 -0.4616784702
0.4894552574 1.0519552889 -0.0286000773 0.0014600178 -0.0016741249 -0.4631705594
-0.2630563618 1.1160712846 -0.0951684836 0.0000000000 0.0022321427 -0.4631696464
-0.1062815286 1.0618264981 0.3263573074 -0.0016107878 -0.0015143883 -0.4634646777
-0.2282706521 1.1150413852 -0.3785205316 0.0000000000 0.0020367052 -0.4622607648
-0.0440120752 1.1118589055 -0.2553693054 0.0000000000 0.0022311918 -0.4632347647
0.0131466308 1.0758927851 0.0367493603 0.0000000000 -0.0022321427 -0.4631696464
-0.3595135987 1.0764646489 -0.1784336119 0.0000000000 -0.0022320534 -0.4631895013
-0.4959403797 1.1110134747 -0.2360019183 -0.0007468883 0.0020990066 -0.4632050705
-0.0640580783 1.1138392111 -0.0477810560 0.0000000000 0.0022321427 -0.4631696464
-0.4523632554 1.0907560698 -0.0802240672 0.0015346829 0.0016188169 -0.4631707826
-0.0166909230 1.0332822098 0.2750556970 -0.0014794285 0.0016460602 -0.4629839277
-0.4397343612 1.1116069992 0.2561241045 -0.0000000804 0.0022318079 -0.4631555348
0.2520500434 1.1196950433 -0.3886683746 0.0000000000 0.0018973637 -0.4620036019
0.0222868445 0.9978833885 0.2594625775 0.0018323659 -0.0012601160 -0.4632041219
-0.4264798219 1.0758927851 -0.0277396935 0.0000000000 -0.0022321427 -0.4631696464
0.1381433010 1.0189102711 -0.4029437219 0.0000098192 -0.0013757544 -0.4614597001
0.4969498105 1.0681564441 0.0666553248 0.0021966472 -0.0002312500 -0.4631692045
0.0117688831 1.0898273958 -0.4084712840 0.0011647075 0.0014477633 -0.4631142000
-0.2268409580 1.1148246977 -0.1565110576 -0.0000000246 0.0022312387 -0.4632330371
0.2773556868 1.1152978561 0.0830772210 -0.0000064554 0.0022314440 -0.4631144701
-0.0283578374 0.0511068626 0.4019623559 0.0000000000 -0.0004224687 -0.4609778877
-0.0352116271 1.1041053301 0.1894548478 0.0003002031 0.0021097253 -0.4625118005
-0.0475002156 1.1158051418 -0.1238295955 0.0000000000 0.0022311583 -0.4632359121
-0.4836818515 1.0466438674 -0.0129123753 -0.0010811160 -0.0019392655 -0.4631686040
-0.1220222463 1.0751472159 0.3125602994 -0.0012960780 -0.0018133191 -0.4632317357
0.2675486964 1.0758927851 -0.0129388061 0.0000000000 -0.0022321427 -0.4631696464
-0.2067971089 1.1153015347 -0.1406160341 -0.0000000089 0.0022311874 -0.4632348830
0.4997742188 1.1096006065 0.1009188649 0.0019481628 0.0010686071 -0.4631696464
-0.4346828861 1.1102039413 -0.3105360227 -0.0000083817 0.0022311963 -0.4632338384
0.4057409148 1.1540177799 -0.4354972309 0.0000000000 0.0022321427 -0.4631696464
0.3923169626 0.9772157694 0.4631695772 0.0000000000 0.0000000000 -0.4609375037
0.3925511567 1.0626466588 0.3779078285 0.0000000000 -0.0019656606 -0.4642162669
0.4155951284 1.0773646444 -0.2783359289 0.0000000000 -0.0022320557 -0.4631894634
0.0535714250 0.9169723716 -0.2143599689 0.0021429441 -0.0004632366 -0.4630490706
-0.4330907255 1.1451892090 -0.4119303262 0.0000000000 0.0015524753 -0.4615726041
-0.2302138306 1.0298890382 0.4131911877 0.0000000000 -0.0012033794 -0.4650446843
-0.1856798157 1.1049106403 0.3639681084 0.0000000000 0.0022111628 -0.4628664433
-0.0228938110 1.0462598094 -0.3365496013 -0.0018821695 -0.0011623280 -0.4633739098
0.1916247640 1.0758927851 0.0928396087 0.0000000000 -0.0022321427 -0.4631696464
-0.3520107041 1.0121671822 0.3943028519 -0.0002551495 -0.0021127923 -0.4638020281
0.1287854824 1.1146543294 -0.1621892693 0.0000000000 0.0022311695 -0.4632355571
0.0034503547 0.6116071019 0.4433624446 0.0000216451 0.0022016115 -0.4632954589
0.4712431113 1.0028004663 0.4591212985 0.0000000000 0.0003748482 -0.4609700685
0.4174337109 1.1128785884 -0.2213805600 0.0000043616 0.0022312521 -0.4632313094
0.1026785646 0.7408916803 0.4171799977 -0.0021633280 0.0000168281 -0.4635151129
0.3308560961 1.1127423496 -0.2259209346 0.0000000000 0.0022311807 -0.4632352000
-0.2622741789 1.0758927159 -0.0607994926 0.0000000000 -0.0022321427 -0.4631696464
-0.0945326544 1.1451407068 -0.4118818039 0.0000000000 0.0015638369 -0.4615810863
0.4764741511 1.0821746374 0.4100126589 0.0000000000 0.0017273615 -0.4617577046
-0.1629712480 1.1138392803 -0.1033711036 0.0000000000 0.0020305333 -0.4639993964
0.1830268293 1.0007083080 0.4596442516 0.0000000000 0.0003249040 -0.4609630417
0.0445296019 1.1248954291 -0.3959964925 0.0000000000 0.0015494195 -0.4615651399
0.0172704408 0.0022321427 0.3632301018 0.0000000000 0.0022293994 -0.4632560929
0.3110308787 1.1129700728 -0.2183311182 0.0000000000 0.0022311829 -0.4632351063
0.0000978326 1.0128113206 0.4587052918 -0.0000010804 0.0005903861 -0.4610182604
0.0350777945 1.0296831810 0.2559722652 0.0007194062 -0.0018707677 -0.4641327312
-0.1661364911 1.0776660060 -0.3117778441 0.0000000000 -0.0022320557 -0.4631892580
0.4494700480 1.0507995725 0.0226631492 -0.0013458124 -0.0017757811 -0.4631682692
-0.4348249486 1.1108994412 -0.2873547921 -0.0000083973 0.0022312141 -0.4632331554
0.4999999665 1.0795880014 0.1767820161 0.0022321427 0.0000000000 -0.4631696464
-0.3429579168 1.0657947367 0.3695265322 0.0000000000 -0.0020654106 -0.4640155236
0.4551281280 1.0781249278 -0.3682547577 0.0000000000 -0.0022263057 -0.4633035884
0.2502382310 1.0761985061 -0.1488873862 0.0000000000 -0.0022320534 -0.4631895259
-0.0969993573 0.8597579112 0.4520088637 0.0003283393 0.0000000000 -0.4653733092
0.0041106180 0.7574744403 0.4609374345 0.0000000000 0.0000000000 -0.4609375037
-0.0823626798 0.2369840489 0.4132725225 0.0002748370 0.0002601294 -0.4653580436
-0.3027565623 1.0758928543 -0.0521888012 0.0000000000 -0.0022321427 -0.4631696464
0.0176171261 1.0758927851 0.0710389562 0.0000000000 -0.0022321427 -0.4631696464
-0.0820386016 1.0363488860 0.4493536295 0.0000000000 0.0009100490 -0.4611350193
0.0122543362 0.9045389104 -0.1937411042 0.0000264866 -0.0022214150 -0.4633795058
-0.0575268667 0.8012531963 0.4520088637 0.0001948147 0.0000000000 -0.4653713025
-0.0013425937 1.1095566690 -0.3321118472 0.0000000000 0.0022312342 -0.4632333161
-0.2444288743 1.0758927851 0.1151047702 0.0000000000 -0.0022321427 -0.4631696464
0.2486424610 1.0344815245 -0.3968553875 0.0000041116 -0.0002244241 -0.4609710015
-0.3932886879 1.1155813025 0.0487479778 -0.0000104777 0.0016508503 -0.4644881397
-0.2824034833 1.1138392111 -0.0895980040 -0.0000004754 0.0022210735 -0.4631229746
0.1653035604 1.0859726460 0.4045229696 0.0000000000 0.0018295959 -0.4618936488
-0.0695835824 0.9084925731 0.4542410064 0.0002976696 0.0000529866 -0.4653538271
-0.3890359829 1.0758927851 0.0907928879 0.0000000000 -0.0022321427 -0.4631696464
0.0308984265 1.0899375453 0.3985757892 0.0000000000 0.0019467320 -0.4620855327
0.3192085322 1.0517809028 0.3813499131 -0.0001568549 0.0014188771 -0.4648698963
-0.1607142750 1.0060832853 -0.4599969748 -0.0017373302 0.0010342700 -0.4636766754
-0.4632748574 1.0758928543 0.1621118496 0.0000000000 -0.0022321427 -0.4631696464
-0.0209144763 1.1098411355 0.1709009807 0.0001329687 0.0020894597 -0.4623981688
0.3778446153 1.0758927851 -0.0405352774 0.0000000000 -0.0022321427 -0.4631696464
0.4901343087 1.0612689401 0.3158392344 0.0020634240 -0.0006830937 -0.4627101509
-0.0379369104 1.0758927851 -0.0304957446 0.0000000000 -0.0022321427 -0.4631696464
-0.0077898209 1.0513913939 -0.4474924243 0.0000000000 0.0013988370 -0.4649082981
0.0957051967 1.1130489567 0.0047900320 0.0000000000 0.0017263950 -0.4645426263
0.1755893275 1.0770558587 -0.2440455830 0.0000000000 -0.0022320557 -0.4631893518
-0.3974082212 1.1097296243 -0.3263484882 -0.0000064531 0.0022311985 -0.4632339612
-0.4999999665 1.1035486582 -0.0628467246 -0.0022321427 0.0000000000 -0.4631696464
-0.4419642561 1.0718202564 0.1379600499 0.0022289641 0.0000286362 -0.4631694857
-0.0980273930 1.0586551233 0.2948475707 -0.0014028459 -0.0017075200 -0.4634670705
-0.2876298580 1.0915643778 0.3960655148 0.0000000000 0.0019994262 -0.4621824345
-0.0809097825 1.0758927851 0.1128496699 0.0000000000 -0.0022321427 -0.4631696464
-0.0302616163 1.0758927851 -0.1139117569 0.0000000000 -0.0022320958 -0.4631802447
0.0939616321 0.0022321427 0.3541976493 0.0000000000 0.0022282565 -0.4632919969
0.2567486257 1.1130227290 0.1682798068 -0.0000069353 0.0022313503 -0.4631111576
0.1035319082 0.1692473771 0.4164986674 0.0000000000 -0.0002581897 -0.4609524881
0.3637178038 1.0766705060 -0.2012838515 0.0000000000 -0.0022320534 -0.4631895259
-0.0378828278 0.4851465590 0.4363838648 0.0001827299 0.0000000000 -0.4653801731
0.0985440961 1.0758927851 -0.0742465720 0.0000000000 -0.0022321427 -0.4631696464
-0.1533683603 1.0401785018 -0.4329395569 -0.0006036942 0.0019389709 -0.4633533094
0.0437117114 1.0758927159 0.0204323346 0.0000000000 -0.0022321427 -0.4631696464
-0.4489086396 1.1145369611 -0.1661004565 -0.0000159286 0.0022314574 -0.4632210683
-0.2289205115 1.0462033384 -0.4520089329 0.0000262455 0.0006299107 -0.4653024521
0.4539212866 1.1160713538 -0.0969622759 0.0000095513 0.0022320936 -0.4631791978
-0.0429350284 1.1097837114 -0.3245421780 0.0000000000 0.0022312164 -0.4632339143
0.3188269273 1.0777660060 -0.3228832965 0.0000000000 -0.0022320601 -0.4631888094
-0.2738546111 1.1517511684 -0.4497767902 0.0000000000 0.0000000000 -0.4654017891
0.1633257413 1.1160713538 -0.0613112760 0.0000000000 0.0022321427 -0.4631696464
-0.0893843445 1.0338067321 0.3485884086 -0.0016226606 -0.0014875713 -0.4635211129
-0.1049107073 0.7939602459 0.4401593243 0.0009765356 0.0000066317 -0.4647794990
0.2980481006 1.0766393074 -0.1978227289 0.0000000000 -0.0022320557 -0.4631893183
0.4863955991 1.0766409435 -0.1979980504 0.0000000000 -0.0022320534 -0.4631895147
0.2879106124 1.1119813184 -0.0145089622 0.0000089777 0.0020851851 -0.4625579411
-0.0224567463 1.0758927851 0.1006555814 0.0000000000 -0.0022321427 -0.4631696464
-0.0819079320 1.0519885322 0.3913118566 0.0013782254 0.0012397075 -0.4619408095
-0.3969220158 1.1116070684 0.2027607844 0.0000000000 0.0022321427 -0.4631696464
-0.0186566996 1.1004173370 -0.4162656183 0.0000000000 -0.0017354285 -0.4645733495
-0.1665452947 1.1093749257 0.2998658717 -0.0000001585 0.0022296249 -0.4631056241
0.3389177786 1.0758927851 0.0512696294 0.0000000000 -0.0022321427 -0.4631696464
-0.2795751598 1.1129648273 0.1698163112 0.0000044196 0.0022310735 -0.4631011420
-0.1852692063 1.1116586354 0.1955965103 0.0000026897 0.0022306516 -0.4630908652
-0.0023247164 0.9919849135 0.1795717190 -0.0003691585 -0.0021870378 -0.4633465125
0.4983723863 1.1094901846 -0.2661927601 0.0016913102 0.0014217477 -0.4631833674
-0.1607142750 0.9904779047 -0.4468322011 -0.0019724709 0.0004685044 -0.4634035482
-0.4767857984 1.0618786789 0.3789694043 0.0000000000 -0.0018309776 -0.4644449209
-0.1505622087 1.0736606424 0.3444425830 0.0000000000 -0.0022137677 -0.4633116420
-0.2778936778 1.0758928543 0.0262341467 0.0000000000 -0.0022321427 -0.4631696464
0.1377135600 1.0635141609 -0.4299250304 -0.0000368058 0.0021581115 -0.4637286665
0.0963266587 0.7694790869 0.4511630914 -0.0003308348 0.0001642656 -0.4653665280
-0.0175185591 1.0047075421 0.0975288941 -0.0014587678 -0.0016587432 -0.4632749656
-0.2531061505 1.0764964614 0.4156909041 0.0000000000 0.0016208280 -0.4616371398
0.4642539734 1.1147221776 -0.3778820562 0.0000000000 0.0020303972 -0.4622483831
0.4999999665 1.1192054005 -0.4146738595 0.0022321427 0.0000000000 -0.4631696464
0.1067783678 0.9421050262 0.3712295209 0.0014288370 -0.0011752120 -0.4636931174
-0.1116071265 0.0957664177 0.4002759855 -0.0021402677 -0.0000873973 -0.4625456353
0.1063965822 0.6221803512 0.4527551137 0.0018775311 0.0000000000 -0.4620215974
0.0065211335 1.1180107867 -0.4338590881 0.0000000000 -0.0014264486 -0.4648859253
0.4419642561 1.0693969016 -0.1692322889 -0.0022299418 -0.0000488237 -0.4631676554
-0.4004145759 1.0758927851 0.1546782988 0.0000000000 -0.0022321427 -0.4631696464
0.1071428500 0.8639320069 0.4196365266 0.0022321427 0.0000000000 -0.4631696464
-0.2596627639 1.0758927851 0.3132038931 0.0000000000 -0.0022321427 -0.4631696464
0.0682346383 1.0764773185 -0.1798386632 0.0000000000 -0.0022320557 -0.4631894054
-0.1777702448 1.1099080306 -0.3203989395 0.0000000000 0.0022312342 -0.4632332804
-0.2932457728 1.1140476575 0.1192373123 0.0000011585 0.0022313190 -0.4631095839
-0.3282038954 1.1133400304 -0.2060008601 -0.0000029375 0.0022313235 -0.4632297647
0.0281602593 1.1146648204 -0.1618384189 0.0000000000 0.0022311695 -0.4632355839
0.0116494769 1.0038842475 0.2908023566 0.0003511071 -0.0018865825 -0.4643015973
-0.3436873743 1.1160713538 0.0506564174 -0.0000051116 0.0022098659 -0.4633359612
0.4866138536 1.0907692863 -0.0387714918 0.0013313213 0.0017889932 -0.4631681420
0.1026785646 0.7800245437 0.4358985813 -0.0012024843 0.0000218772 -0.4644961999
-0.4190910612 1.1071427830 0.3460161454 0.0000000000 0.0022122097 -0.4628839433
-0.0552698802 1.0281126142 0.4516771204 0.0000000000 0.0006359732 -0.4610327448
-0.3407278857 1.1143886642 -0.1710435901 -0.0000043415 0.0022313615 -0.4632278964
-0.1835795681 1.1147289901 0.0940684524 0.0000059196 0.0022311918 -0.4631050371
0.1050655086 1.0652738952 0.2867176337 0.0013665669 -0.0017279776 -0.4635285884
-0.2486377780 1.0618472749 0.4325721641 0.0000000000 0.0014594062 -0.4614848184
-0.1988162702 1.0792160684 0.4129712302 0.0000000000 0.0016185669 -0.4616361956
-0.4893938489 1.0887310789 0.1548394037 -0.0016056182 0.0015454486 -0.4631681040
-0.2037284908 1.0559505699 -0.4031223357 0.0000198259 0.0014496249 -0.4614790796
-0.1116071443 0.1673196272 0.3738292372 -0.0022321427 0.0000000000 -0.4631696464
-0.0224817418 0.8020835066 0.4520088637 0.0000710937 0.0000000000 -0.4653714387
-0.0735827384 1.0781763586 0.3357566527 0.0009482209 0.0018801606 -0.4624516085
-0.2566600007 1.0383419305 0.4069703712 0.0000000000 -0.0013373615 -0.4649506329
0.3618383508 1.1121789322 -0.2447024423 0.0000000000 0.0022311784 -0.4632352536
0.2822743985 1.1119261398 -0.1060268132 0.0000013728 0.0020239150 -0.4632191866
-0.4855025501 1.0758927851 0.1165725424 0.0000000000 -0.0022321427 -0.4631696464
-0.0903308243 1.1138392111 -0.0329016596 0.0000000000 0.0016795423 -0.4619487068
-0.0267857125 1.0187636104 0.1668303582 -0.0022181293 0.0000409821 -0.4630818161
-0.3117186823 1.0736606424 0.3451799780 0.0000000000 -0.0022255891 -0.4632749143
0.3716133077 1.1152035101 0.0975814812 -0.0000033817 0.0022313391 -0.4631109857
-0.2132990549 1.0341508727 -0.4520089329 -0.0000014643 -0.0002354844 -0.4653832668
0.1258659358 1.1125451442 0.1687041907 -0.0000089687 0.0022315088 -0.4631173697
-0.1764120418 1.0758927159 -0.0459845717 0.0000000000 -0.0022321427 -0.4631696464
-0.0434882493 0.3615733999 0.4274516153 0.0001538839 0.0001387946 -0.4653649097
0.1583349269 1.0758927851 0.2401424984 0.0000000000 -0.0022321427 -0.4631696464
0.4754897204 1.1144920013 0.1345834988 0.0000021853 0.0022312275 -0.4631079076
-0.4052348211 1.0758927851 0.3157602166 0.0000000000 -0.0022321427 -0.4631696464
0.0286107548 0.8951755338 0.2814461988 0.0000309710 0.0022192722 -0.4629392536
-0.2789147403 1.0766604926 -0.2001701283 0.0000000000 -0.0022320534 -0.4631894813
-0.4320024130 1.1020149441 0.3736422484 0.0000000000 0.0021175958 -0.4624637804
0.3715783613 1.0771260908 -0.2518542677 0.0000000000 -0.0022320557 -0.4631893920
0.0514352510 1.1123721867 0.1480775805 -0.0000121272 0.0022305333 -0.4630859232
0.2619155137 1.1138391419 -0.1081930497 0.0000000000 0.0022139463 -0.4631241688
-0.0081944146 0.8998600491 -0.4609375037 -0.0003548817 0.0001937723 -0.4650831173
-0.0557802954 0.8833005167 0.2341328537 -0.0021823838 0.0002121808 -0.4631544679
0.2437368810 1.0769166913 -0.2286170572 0.0000000000 -0.0022320557 -0.4631892871
0.2209295388 1.1128831532 -0.2212285332 0.0000000000 0.0022311940 -0.4632346888
-0.4142291620 1.0327589844 -0.3939102448 0.0000597254 -0.0021105646 -0.4624565081
-0.0867099027 1.1138392111 -0.0520611807 0.0000000000 0.0021336673 -0.4629089790
0.4568603757 1.0409301334 0.3656257311 0.0012424419 -0.0017440691 -0.4626041755
0.2248670050 1.0758927851 0.1178344575 0.0000000000 -0.0022321427 -0.4631696464
-0.3006515982 1.0758927851 0.1230853880 0.0000000000 -0.0022321427 -0.4631696464
0.4518779385 1.1145502423 0.1315536753 -0.0000003237 0.0022312275 -0.4631073406
-0.1308301095 1.1495534944 -0.4150038394 0.0000000000 0.0016396673 -0.4617387336
-0.0773539837 0.9887138802 0.4631695772 0.0000000000 0.0001489710 -0.4609480908
-0.0169795993 1.0945978798 0.2172757745 0.0002477411 0.0021212119 -0.4625207425
-0.0144880660 1.0758927851 -0.0284468430 0.0000000000 -0.0022321427 -0.4631696464
0.1024907677 0.0283986878 0.3984374387 0.0000000000 -0.0002556629 -0.4609522247
-0.0355219999 0.8708141292 0.2218348144 -0.0000740290 -0.0022257543 -0.4632615817
-0.1075164861 0.3380492184 0.3895088679 0.0012356205 0.0000589665 -0.4642764990
-0.2651103037 1.1155257155 -0.1331407601 -0.0000000804 0.0022313793 -0.4632279277
-0.4241836122 1.1102088453 0.2823906094 -0.0000003170 0.0022266740 -0.4630216398
0.0289732213 0.8600376790 0.4631695772 0.0000000000 0.0000000000 -0.4609375037
-0.0059921268 0.9261264871 -0.0999489118 -0.0000101786 0.0022257097 -0.4630074902
-0.0526974161 1.0759416958 -0.1203803256 0.0000000000 -0.0022320534 -0.4631895393
-0.3852342621 1.1118719858 -0.2549347720 -0.0000058549 0.0022312610 -0.4632317380
-0.0141201374 1.0117314881 -0.0192844172 -0.0010734910 -0.0019268191 -0.4633382603
-0.2660403929 1.0762104949 -0.1502255960 0.0000000000 -0.0022320534 -0.4631895594
0.0052470867 1.0851661081 -0.2893629728 0.0005282879 0.0021598615 -0.4630031643
0.0267857125 1.0164965904 0.2326126284 0.0022236271 0.0000381362 -0.4630687089
0.1488401954 1.0389246916 0.3874732497 -0.0000898482 0.0018741115 -0.4643672803
0.1463546152 1.1160713538 0.0338249855 0.0000000000 0.0017303414 -0.4620750729
-0.1783676019 1.0736605732 0.3481989019 0.0000000000 -0.0021708391 -0.4636299165
0.1026785646 0.0467080862 0.3766258196 -0.0010898258 0.0002160692 -0.4646014499
-0.0349475088 1.0334821428 -0.4473360158 0.0000623080 -0.0022011226 -0.4633984835
0.1589232907 1.0599953085 -0.4394933690 -0.0000360201 0.0018290936 -0.4644081999
-0.3732974951 1.1138392803 -0.0259982851 0.0000000000 0.0021063905 -0.4637023451
0.1266144938 1.0766589257 -0.1999973605 0.0000000000 -0.0022320557 -0.4631894098
0.4234488065 1.0775446845 -0.2983137356 0.0000000000 -0.0022320557 -0.4631894054
-0.1045276359 0.0344001450 0.3895088679 0.0003654754 0.0003189754 -0.4653475927
-0.2250031925 1.1513232421 -0.4162946540 0.0000000000 0.0003018482 -0.4610496377
0.0457542157 1.1152568472 -0.1421052639 0.0000000000 0.0022311650 -0.4632356866
-0.1116071354 0.9371335890 0.3930334435 -0.0021243816 -0.0002531875 -0.4633806375
0.2317540827 1.0453677157 0.3845726495 -0.0001220201 0.0016745735 -0.4646187334
0.1673975223 1.0642656564 -0.4215918791 -0.0000265491 0.0021935601 -0.4628100572
0.1026785646 0.2923191411 0.4050753512 -0.0011605758 0.0001609330 -0.4645411173
0.1786944233 1.0679044687 0.3643666776 0.0000000000 -0.0020915043 -0.4639467446
-0.0490033048 1.0687626405 0.3322366418 0.0007429933 0.0019259351 -0.4623393117
0.1071428500 1.0843367533 0.3754154023 0.0022321427 0.0000000000 -0.4631696464
-0.0409945642 0.9197982442 -0.3817757211 -0.0000284933 -0.0022171874 -0.4634238830
0.3139984745 1.0514616260 -0.4001120971 -0.0000463929 0.0006981674 -0.4610501019
0.0089253432 1.0204385343 -0.1466510538 0.0006027477 -0.0021409597 -0.4633426107
0.0845946707 0.3810862557 0.4385482284 0.0000000000 -0.0002644687 -0.4609532292
0.2676851227 1.0758927851 0.2694555835 0.0000000000 -0.0022321427 -0.4631696464
-0.4999999665 1.0939339848 0.0684338247 -0.0022321427 0.0000000000 -0.4631696464
0.3902536547 1.0810756642 -0.4170856808 -0.0003372946 0.0021884128 -0.4632865527
0.1588621032 1.1160713538 -0.0215639372 0.0000000000 0.0022321427 -0.4631696464
0.0238674783 1.0763899212 -0.1701300031 0.0000000000 -0.0022320557 -0.4631894522
0.1143312379 1.0758927851 0.0584355039 0.0000000000 -0.0022321427 -0.4631696464
0.0136628272 1.0334806428 -0.2865326226 0.0008889865 -0.0020286896 -0.4633612826
-0.1049107073 0.6388479885 0.4285720461 0.0012749553 0.0000059799 -0.4644751062
-0.4414418477 1.0758927851 -0.0615401242 0.0000000000 -0.0022321427 -0.4631696464
0.4282111164 1.0758927851 0.0968412937 0.0000000000 -0.0022321427 -0.4631696464
-0.3045978680 1.1138598518 -0.3761574804 0.0000000000 0.0019972320 -0.4621730684
0.2796589634 1.0535180210 -0.4489574844 -0.0000425379 0.0011885647 -0.4650107244
-0.4677411182 1.0427468833 0.1220647519 0.0002405312 -0.0022060690 -0.4631704076
-0.3108589435 1.1160713538 -0.0751512014 -0.0000040536 0.0022321226 -0.4631696464
0.1602999201 1.1138392111 0.0467751676 0.0000000000 0.0019169307 -0.4639053830
0.2370438078 1.1093749257 0.3112216120 0.0000000000 0.0022321427 -0.4631696464
0.1989703728 1.1537837218 -0.4182927677 0.0000000000 0.0019436159 -0.4620927737
-0.0094584056 1.1132615571 0.1184864976 0.0000057790 0.0022301561 -0.4630758228
-0.0010463727 0.9130599902 -0.2987434320 0.0000130156 -0.0022202722 -0.4633919500
0.0219780499 0.8920079046 0.3204795422 0.0000269509 0.0022191293 -0.4629369634
0.0189659117 1.0168555815 -0.0205355020 0.0017430713 -0.0013881227 -0.4632649433
0.4751476579 1.0803570013 -0.3846060133 0.0000000000 -0.0021534485 -0.4637509053
0.0744844370 0.9278499803 -0.4146517635 -0.0006002678 0.0021131226 -0.4633520906
-0.2907082506 1.1204263759 -0.3893997072 0.0000000000 0.0018230534 -0.4618868474
-0.0267857125 1.0347887432 -0.0203454819 -0.0022215356 0.0000914821 -0.4631569054
-0.4436600931 1.0599561388 -0.1410274426 0.0019565624 -0.0010285825 -0.4631708116
-0.1329849531 1.0758927851 0.0048197664 0.0000000000 -0.0022321427 -0.4631696464
-0.0522049206 0.6557477775 0.4465512592 0.0001823460 0.0002634710 -0.4653557847
-0.4618971722 1.0446948988 0.1787127972 0.0007087098 -0.0021160646 -0.4631732714
-0.1681643950 1.1025724351 -0.4194837275 0.0000000000 -0.0017365267 -0.4645720883
0.1973031966 1.0758927851 0.1487982166 0.0000000000 -0.0022321427 -0.4631696464
-0.4853359296 1.1151445860 0.0999065391 0.0000012879 0.0022312521 -0.4631078049
-0.0108433430 0.8849605925 0.4073207774 0.0000001496 0.0022198257 -0.4629402826
0.0975743819 1.0776344658 -0.3082788979 0.0000000000 -0.0022320557 -0.4631892402
-0.2712272899 1.1112168787 -0.2767726679 -0.0000000246 0.0022312856 -0.4632314656
0.0943312839 1.0978935046 -0.4137417747 0.0000000000 -0.0016451427 -0.4646738629
0.0625544489 1.1128082201 -0.0502232455 0.0000000000 0.0019197075 -0.4622177648
0.4395866090 1.1105325506 -0.2995837043 0.0000000000 0.0022311762 -0.4632352893
0.0373657140 0.9083213209 0.1194569306 0.0000290982 0.0022209307 -0.4629575036
-0.3329133773 1.0426302628 -0.4520089329 -0.0000110246 0.0000027500 -0.4653976351
-0.1049107073 0.6705678770 0.4386286101 0.0008314531 0.0000037098 -0.4649240972
0.4216273914 1.0758927851 0.2558670889 0.0000000000 -0.0022321427 -0.4631696464
0.0565591837 0.9951451856 0.3634536710 0.0014243213 -0.0014700825 -0.4640259700
-0.4522522219 1.0499798203 -0.0902359772 0.0014916115 -0.0016517454 -0.4631669790
-0.1956872815 1.0364214328 -0.3964411107 0.0000008326 0.0000842545 -0.4609485484
0.1540178468 1.0182016238 -0.4171096696 -0.0016863860 -0.0000445268 -0.4626133429
-0.0255758733 1.0457135594 -0.0530059641 -0.0021534150 0.0005658281 -0.4631111777
-0.0116358318 1.0290702414 -0.2412063064 -0.0008299464 -0.0020381874 -0.4633502603
-0.0018249865 0.3405576201 0.4251164749 0.0000038906 0.0002435803 -0.4653578494
-0.0409462673 0.7667222879 0.4507036919 0.0001426250 0.0002045089 -0.4653623807
0.4966844154 1.0670949352 0.0913590642 0.0021882365 -0.0003099799 -0.4631691621
-0.1085139280 0.9125869009 0.4631695772 -0.0007629888 0.0000000000 -0.4611713363
0.3343038682 1.0736607116 0.3460507503 0.0000000000 -0.0022175311 -0.4633394924
-0.0265494246 0.9489079923 -0.3806754779 -0.0000008147 0.0022290467 -0.4630545527
0.0267857125 0.9339438906 -0.4599137784 0.0014478169 0.0015648928 -0.4636851799
-0.0377151850 1.0527762666 -0.4461075940 0.0000008549 0.0015065557 -0.4648005169
0.0252615340 0.9168487332 -0.3454307592 0.0000396540 -0.0022223257 -0.4633698585
0.4948443686 1.0853221706 -0.3936084033 0.0003676473 -0.0019304061 -0.4641886531
0.3701386538 1.0374640042 0.4486101050 0.0000000000 0.0010446651 -0.4612024725
0.0393749907 1.1135861464 0.1154530648 -0.0000137790 0.0022303927 -0.4630825058
0.2843823917 1.0759879480 -0.1255193699 0.0000000000 -0.0022320534 -0.4631895906
0.4979227613 1.1478723026 -0.4497767902 0.0009066673 -0.0008458995 -0.4649104410
0.1055273858 1.0758927159 0.1585238543 0.0000000000 -0.0022321427 -0.4631696464
-0.3047004216 1.0762957114 -0.1596816846 0.0000000000 -0.0022320534 -0.4631895393
-0.0462597625 1.0573588756 0.3508777723 0.0006971718 0.0016874954 -0.4618920729
0.1636140069 1.0758927851 0.3084159715 0.0000000000 -0.0022321427 -0.4631696464
0.0892224248 1.1138392111 -0.0535324261 0.0000000000 0.0022321427 -0.4631696464
-0.0599189915 0.9856678447 0.3820935045 -0.0000117031 -0.0014879977 -0.4648170637
0.0445005305 1.0662531139 0.1891044416 0.0005011138 -0.0019197387 -0.4641815415
-0.4763888319 1.0758927851 0.2047602307 0.0000000000 -0.0022321427 -0.4631696464
-0.4573294136 1.1151304186 -0.1463185962 -0.0000178393 0.0022315021 -0.4632186844
-0.1195652576 1.0758927851 -0.0754278331 0.0000000000 -0.0022321427 -0.4631696464
0.0160431373 0.2833227913 0.4296697246 0.0000000000 -0.0002465000 -0.4609511555
-0.1440876957 1.0676537209 0.3651188539 0.0000000000 -0.0020740423 -0.4639903473
0.3119419099 1.0533912509 -0.4499568884 -0.0000509531 0.0010473325 -0.4650979209
0.0028323726 0.4021788726 0.4408481502 0.0000000000 -0.0001422589 -0.4609421019
-0.0268247728 0.9291822637 -0.1376046705 -0.0000089241 0.0022266003 -0.4630217737
-0.0897215364 1.0264531545 0.3680388001 -0.0016162968 -0.0013878392 -0.4638309812
0.0792550728 1.1121325438 0.1622339880 -0.0000086607 0.0022310088 -0.4630994723
0.3184128961 1.1119889479 -0.0498413326 0.0000036027 0.0021001784 -0.4638628339
-0.0258298800 1.0893619360 0.3625704992 0.0001316094 -0.0020430289 -0.4640269165
0.4871674629 1.0774239770 -0.2849144575 0.0000000000 -0.0022320557 -0.4631894500
0.1530079049 1.0758927851 -0.0178947097 0.0000000000 -0.0022321427 -0.4631696464
0.1266934268 1.0758927851 0.1695612710 0.0000000000 -0.0022321427 -0.4631696464
0.4999999665 1.0779948876 0.2139332145 0.0021940534 -0.0000919576 -0.4631696464
0.1383009037 1.1116070684 0.2343699095 0.0000000000 0.0022321427 -0.4631696464
-0.2486824655 1.0047016158 0.4208797095 -0.0001486495 -0.0016413213 -0.4617034657
-0.1038419618 1.0852303470 -0.3934706109 0.0000000000 -0.0019133057 -0.4643192825
0.0517257465 1.1128126487 0.0199997743 0.0000000000 0.0015783637 -0.4615912827
0.4840018091 1.0487339141 -0.3281378541 0.0015404798 -0.0015954329 -0.4632783563
0.0344406428 1.0770558587 -0.2440526165 0.0000000000 -0.0022320557 -0.4631893406
0.4979647568 1.1110968519 -0.1462818797 0.0016151294 0.0015273213 -0.4631846955
0.1607142750 0.9646214800 -0.4597779145 0.0019190133 0.0005451495 -0.4635762982
-0.4601750741 1.0452689434 -0.0212036872 0.0007873705 -0.0020835713 -0.4631704545
0.3035245422 1.0758927851 0.2838622656 0.0000000000 -0.0022321427 -0.4631696464
0.1720685153 1.1116070684 0.2359797108 0.0000000000 0.0022321427 -0.4631696464
0.0206595209 0.8842562354 0.0561938232 0.0000350022 -0.0022222856 -0.4633698228
0.0002175022 0.8720822429 0.2062085900 -0.0000029263 -0.0022233592 -0.4633347156
0.2119969501 1.0346587722 0.3779212481 -0.0000726116 0.0010280044 -0.4651390481
-0.0065441045 0.7798054031 0.4520088637 0.0000302478 0.0000959487 -0.4653681954
-0.0503109029 0.7236155297 0.4591441177 0.0000000000 -0.0001691585 -0.4609445082
0.4131779388 1.0758927851 -0.0406505029 0.0000000000 -0.0022321427 -0.4631696464
-0.1049106983 0.9237171636 0.4304923384 0.0012943504 -0.0001186071 -0.4644891441
0.0624404289 0.8328362322 0.4520088637 -0.0002108036 0.0000000000 -0.4653743182
-0.0153539365 1.0735251536 0.2917669302 0.0004325156 0.0021378436 -0.4627047224
-0.1840175770 0.9945539088 0.3891455867 -0.0001243661 -0.0019901517 -0.4641544366
-0.2276173173 1.1143394812 -0.0730448757 -0.0000015737 0.0016463436 -0.4616759300
-0.4805162312 1.1160713538 -0.0234344683 -0.0000433058 0.0022317052 -0.4631696464
-0.0668504397 1.1141864165 -0.1777871231 0.0000000000 0.0022311784 -0.4632352179
0.0008814107 1.1109494412 -0.2856837164 0.0000000000 0.0022312164 -0.4632339634
-0.1742780598 1.0758927851 -0.0228354929 0.0000000000 -0.0022321427 -0.4631696464
-0.2532771817 1.1097760150 0.2858537409 -0.0000004732 0.0022249574 -0.4629949411
-0.3703391649 1.0758927851 -0.0054190833 0.0000000000 -0.0022321427 -0.4631696464
0.4635827569 1.0441329792 0.0573533567 -0.0006008281 -0.0021402566 -0.4631734478
-0.1001973928 1.0767203699 -0.2068200319 0.0000000000 -0.0022320557 -0.4631894344
-0.3146930883 1.1093749257 0.3115415026 0.0000000000 0.0022321427 -0.4631696464
0.2232225476 1.0758927851 -0.0051479338 0.0000000000 -0.0022321427 -0.4631696464
-0.3174354810 1.1049106403 0.3615485015 0.0000000000 0.0022147298 -0.4628970282
-0.4225534092 0.9754463633 0.4418286635 0.0000000000 -0.0022321427 -0.4631696464
-0.0818624432 0.1410875307 0.4130041989 0.0000000000 -0.0002855536 -0.4609558631
-0.2469780616 1.0758929213 -0.1113898352 0.0000000000 -0.0022321427 -0.4631696464
0.0096637471 0.9782308207 0.3389977150 0.0004009799 -0.0018374619 -0.4643613539
-0.0465091085 1.0099993431 -0.4153140715 0.0000000000 -0.0021031874 -0.4624992358
0.0277329066 1.0538941080 0.2061397887 0.0003861160 -0.0019489775 -0.4641847267
-0.2144449120 1.1144623004 -0.0910249035 -0.0000019598 0.0016630423 -0.4616967180
0.2196639295 1.1134623741 0.1461812659 -0.0000073772 0.0022314262 -0.4631139366
0.3146142758 1.0781249278 -0.3641312223 0.0000000000 -0.0022305981 -0.4632177022
0.4994615491 1.0857207398 0.4001282355 0.0019106695 0.0009429888 -0.4625176509
0.0429174324 0.7442516109 0.4497767210 -0.0001528058 0.0000000000 -0.4653729811
-0.0884042418 1.0334820737 -0.4629211018 0.0012556517 0.0002272076 -0.4637689723
0.1070022004 0.2611187861 0.3825597166 -0.0000697009 0.0002408236 -0.4653274142
0.4425962695 1.0606038196 -0.2385763110 -0.0021539597 -0.0004576093 -0.4631700014
-0.2587204492 1.1116072046 0.2644598294 -0.0000003147 0.0022310043 -0.4631170460
0.4618364423 1.0549435588 0.4377012285 0.0000000000 0.0011986272 -0.4612905104
-0.4258370117 1.1093749257 0.3149034086 0.0000000000 0.0022321427 -0.4631696464
0.0727509371 1.0760715998 -0.1347976662 0.0000000000 -0.0022320534 -0.4631895795
-0.2697298681 1.0758928543 -0.1044886727 0.0000000000 -0.0022321427 -0.4631696464
0.1484390235 1.0663516831 0.4280676890 0.0000000000 0.0016477343 -0.4616707202
0.0159740213 1.0417549927 -0.3739787774 0.0011494642 -0.0018726159 -0.4633659835
0.2696809596 1.1535939406 -0.4497767902 0.0000000000 0.0000000000 -0.4654017891
-0.0083139749 0.9947518642 0.3054712976 -0.0002573437 -0.0018768905 -0.4643231754
0.0559219672 1.0097744123 0.4002705368 -0.0010790289 0.0004857477 -0.4612771443
0.0197876594 0.8692160422 0.2415284604 0.0000319219 -0.0022226963 -0.4633622000
-0.4464053808 1.0558382418 -0.0311769053 0.0017410334 -0.0013944307 -0.4631699969
0.1587434559 1.1113119747 -0.2736012417 0.0000000000 0.0022312052 -0.4632343406
0.4999999665 1.1041472921 -0.0768314045 0.0022321427 0.0000000000 -0.4631696464
-0.2520358224 1.1154719007 -0.1127232413 -0.0000075156 0.0014255512 -0.4614560528
0.4705340555 1.0915395832 -0.3598530484 0.0009525870 0.0019383101 -0.4637236062
0.0705301069 0.4729749148 0.4450731320 0.0000059933 -0.0015853548 -0.4615983519
0.0535714250 0.8771316087 0.2605455417 0.0020792990 -0.0001905424 -0.4625169947
0.2847183068 1.0758927159 0.1937503341 0.0000000000 -0.0022321427 -0.4631696464
0.0850026796 1.0808372446 0.3863163078 -0.0006351294 -0.0019022075 -0.4641032267
-0.4644297568 1.0882109182 0.3497762098 -0.0009760848 0.0018289575 -0.4623544813
0.1894324561 1.1137032446 0.1327132735 -0.0000077478 0.0022314798 -0.4631159768
0.3190834987 1.0758927851 0.2706728825 0.0000000000 -0.0022321427 -0.4631696464
-0.1195008670 1.0454170349 -0.4514927499 0.0000029174 0.0007660089 -0.4652557490
0.1263313219 1.0834371663 -0.3907808924 0.0000000000 -0.0019163905 -0.4643141419
-0.0459064009 1.0954454244 -0.4112937437 0.0000000000 -0.0016207298 -0.4646929142
0.1359977454 1.0839571908 0.4075462551 0.0000000000 0.0017780177 -0.4618231130
-0.0094878855 0.6268806723 0.4453124356 0.0000462946 0.0000000000 -0.4653746262
-0.4597236813 1.1138392111 0.0472731207 0.0000000000 0.0022004530 -0.4633038830
-0.4193263447 1.0758927851 -0.0623353161 0.0000000000 -0.0022321427 -0.4631696464
0.4171971997 1.1116069992 0.2621596353 0.0000002589 0.0022312320 -0.4631259344
0.0018140914 1.0765963252 0.2817840046 0.0000000000 0.0021535735 -0.4625834880
0.0066653366 0.9192087376 -0.0147044644 -0.0000099643 0.0022244418 -0.4629902938
0.0480642579 0.8941006745 -0.0376098825 0.0005488526 -0.0021452141 -0.4633057246
-0.1075809705 0.9569758734 0.4631695772 0.0000000000 0.0000000000 -0.4609375037
-0.1899581681 1.0777465908 -0.3207303747 0.0000000000 -0.0022320557 -0.4631892804
-0.0352146383 1.1473240772 -0.4497767902 0.0000000000 -0.0010374865 -0.4651456285
0.1955454735 1.0388811648 -0.3969971062 -0.0000030335 0.0002192924 -0.4609709234
0.0980919867 0.8924450273 0.4523728949 -0.0003789464 0.0002586808 -0.4653505749
-0.4140493941 1.0769178498 -0.2287400126 0.0000000000 -0.0022320557 -0.4631893228
-0.3864677375 1.1140754500 -0.1814847903 -0.0000085893 0.0022313771 -0.4632262067
0.3948212437 1.0758927851 0.0785860606 0.0000000000 -0.0022321427 -0.4631696464
0.1721803679 1.1121084278 0.1920536110 -0.0000081205 0.0022314173 -0.4631138005
0.1135663830 1.1144337580 0.0966690192 -0.0000033906 0.0022307632 -0.4630913630
-0.0390247965 1.0092819771 0.3914106312 0.0007765669 0.0006836495 -0.4611928564
0.3641934488 1.1481799320 -0.4140625069 0.0000000000 0.0011576830 -0.4613048452
0.0104450283 1.0288678574 -0.2435674669 0.0006783482 -0.0021125914 -0.4633476509
-0.1049107162 0.0783871867 0.3896441536 0.0006877500 0.0002915402 -0.4650142802
0.3815833584 1.0758927851 0.0304977870 0.0000000000 -0.0022321427 -0.4631696464
-0.3667607054 1.0758927159 0.2271540015 0.0000000000 -0.0022321427 -0.4631696464
0.4999999665 1.0928232282 -0.0972882290 0.0022321427 0.0000000000 -0.4631696464
-0.1116071354 0.8903402015 0.4419913331 -0.0022321427 0.0000000000 -0.4631696464
-0.0905843578 1.0092211467 -0.4631696464 -0.0001470067 0.0001616786 -0.4637017647
0.4275679312 1.0474115750 -0.3614425082 -0.0011957120 -0.0013855937 -0.4619305126
-0.1843464073 1.1094542159 0.2884281849 -0.0000004978 0.0022246874 -0.4629907536
-0.2980299823 1.0761126757 0.4160746898 0.0000000000 0.0016308325 -0.4616479434
-0.2316749622 1.1093749949 0.3006581707 -0.0000000312 0.0022311226 -0.4631316911
-0.4497170145 1.0881098289 0.2703155946 0.0016099820 0.0015440535 -0.4631751330
0.3419035954 1.0409158276 0.3749895184 -0.0000599085 0.0004583638 -0.4653408003
-0.0089300106 1.1071427830 0.3476736988 0.0000000000 0.0022192722 -0.4630149679
-0.0190567777 0.9985517099 0.1904752808 -0.0016048570 -0.0015256227 -0.4632436464
0.0385040064 0.5702251315 0.4408481502 -0.0000908348 0.0000000000 -0.4653727356
0.0762741846 1.0758927851 0.1352194630 0.0000000000 -0.0022321427 -0.4631696464
0.1562113154 1.0758927851 0.2823691519 0.0000000000 -0.0022321427 -0.4631696464
-0.1693292922 1.1131056308 0.1503245044 0.0000033638 0.0022311740 -0.4631041665
0.2746825709 1.0758927851 0.2348766506 0.0000000000 -0.0022321427 -0.4631696464
0.4212821280 1.1141861441 -0.3768099379 0.0000000000 0.0020069217 -0.4621943117
0.1811320481 1.1095613699 -0.3543537787 0.0000000000 0.0021990847 -0.4627903652
0.1364637855 1.1099179748 0.2852613726 0.0000001629 0.0022264039 -0.4630108786
-0.2088889079 1.1138392111 -0.0105546879 0.0000000000 0.0022321427 -0.4631696464
0.0126205594 0.8964965761 -0.0946386823 0.0000268594 -0.0022215244 -0.4633782089
0.4447440126 1.1158703338 -0.1216575331 0.0000172790 0.0022314954 -0.4632186888
-0.0937019089 1.0778527225 -0.3325111396 0.0000000000 -0.0022320579 -0.4631890616
0.4729785264 1.1149792602 0.1092420563 0.0000076964 0.0022313503 -0.4631137380
-0.4008563660 1.0798972625 0.3811034555 0.0007069843 0.0020572633 -0.4635545661
-0.4999999665 1.0164639610 0.4327596976 -0.0022321427 0.0000000000 -0.4631696464
0.2367437743 1.0728521982 0.3509471852 0.0000000000 -0.0021424351 -0.4637491129
0.0168975078 0.9097850060 -0.2583870218 0.0000311853 -0.0022217320 -0.4633761665
0.3626371543 1.0758927851 -0.0211284841 0.0000000000 -0.0022321427 -0.4631696464
0.0072477428 0.9392376670 -0.4060304829 -0.0000115960 0.0004424843 -0.4631890147
-0.3623747592 1.1154413829 -0.1359543023 -0.0000084353 0.0022314485 -0.4632232737
0.3104772024 1.1161179476 -0.4319662758 0.0000000000 -0.0013903057 -0.4649155035
-0.2925252036 1.1102921556 -0.3075954894 -0.0000010536 0.0022312565 -0.4632324366
-0.1038349372 1.0772536779 -0.2660110168 0.0000000000 -0.0022320579 -0.4631892112
0.0330473616 0.8707550020 0.2225632184 0.0000475491 -0.0022234039 -0.4633575527
0.4962879601 1.0672735446 0.2897405085 0.0021773235 -0.0001941808 -0.4629946822
0.4140154008 1.0743842763 -0.3714581481 -0.0014536651 0.0009818906 -0.4618311220
0.0808169031 1.1112568653 -0.2754375764 0.0000000000 0.0022311985 -0.4632345906
-0.1271845361 1.0758927851 0.2757549447 0.0000000000 -0.0022321427 -0.4631696464
-0.2965092458 1.1027106494 0.3715554740 0.0000000000 0.0021189195 -0.4624693831
-0.1049107073 0.0189157911 0.3574469526 0.0019356896 0.0000543884 -0.4637270102
-0.1027518279 1.0521457510 -0.4017282889 0.0000140134 0.0010625245 -0.4612451332
0.2018757409 1.1093749257 0.3010463158 0.0000000937 0.0022305824 -0.4631218094
-0.3460864099 1.1120651733 -0.0497651764 -0.0000048795 0.0019961427 -0.4640452111
0.4419642561 1.0630770382 0.2269593140 -0.0021946092 -0.0003888460 -0.4631728094
0.3242980877 1.1116873139 -0.2610921354 0.0000000000 0.0022311940 -0.4632346732
0.0262890005 0.8054845822 0.4612563698 0.0000026406 -0.0001650803 -0.4609443229
-0.1083367829 0.5144753115 0.4051338668 0.0010126562 0.0000000000 -0.4647144566
0.2412184325 1.1116070684 0.2226517050 0.0000000000 0.0022321427 -0.4631696464
-0.2555539427 1.0776455015 -0.3095082014 0.0000000000 -0.0022320557 -0.4631893161
0.3947445740 1.0758927851 0.1376774897 0.0000000000 -0.0022321427 -0.4631696464
0.2063063076 1.1116070684 0.2685618559 0.0000004330 0.0022273793 -0.4630478920
-0.3088031981 1.0758927851 0.1404357194 0.0000000000 -0.0022321427 -0.4631696464
-0.1115766086 0.3584467104 0.4315989410 -0.0021050534 -0.0000815848 -0.4624353764
0.2035118033 1.1127193250 -0.0133967056 0.0000011719 0.0018421003 -0.4640595236
0.2432969480 1.0242348399 -0.4492410380 0.0000220156 -0.0011182209 -0.4650952936
-0.4047597876 0.9985863148 0.4256942673 0.0000000000 -0.0004478415 -0.4653563249
-0.0655326764 1.0337559152 0.4016573157 0.0000437567 0.0022157052 -0.4632901754
-0.4845798381 1.1138392111 0.0188035601 0.0000000000 0.0022320378 -0.4631490482
0.2900923132 1.0758927851 -0.0206223881 0.0000000000 -0.0022321427 -0.4631696464
0.2883429673 1.0758927851 0.1419308755 0.0000000000 -0.0022321427 -0.4631696464
-0.0863947978 0.8072338924 0.4615478541 -0.0000091540 -0.0002190960 -0.4609484077
0.0480951709 1.1138392111 -0.0002164498 0.0000000000 0.0022321427 -0.4631696464
0.2666393683 1.1126861509 -0.3738100542 0.0000000000 0.0021027945 -0.4624990974
0.4371213614 1.0898121368 0.3414109872 -0.0010924218 0.0019138659 -0.4635050705
-0.1417246713 0.9754463633 0.4322738003 0.0000000000 -0.0022321427 -0.4631696464
-0.1999327321 1.1138700013 -0.1883358144 0.0000000000 0.0022311851 -0.4632350371
-0.0049931247 1.1042580555 0.1832247679 0.0000245558 0.0020726025 -0.4623424702
-0.2902616926 1.0574122127 0.4130601252 0.0002054353 0.0020814441 -0.4624246420
0.4390327295 1.1126031822 -0.2305595906 0.0000056830 0.0022312789 -0.4632299455
-0.4419642226 1.0780078296 0.1582647963 0.0020742365 0.0007989553 -0.4631690862
-0.0205399674 0.9235431859 -0.0681161506 -0.0000112411 0.0022257454 -0.4630095973
0.1034849641 0.1093244480 0.4087548309 0.0000000000 -0.0002940402 -0.4609569591
-0.1210037040 1.0758927851 0.0896198679 0.0000000000 -0.0022321427 -0.4631696464
0.4601606678 1.1152828695 0.0934588833 0.0000096004 0.0022314173 -0.4631167581
0.0950389691 1.0992287858 0.2830465335 -0.0008229977 0.0020306740 -0.4627542246
0.0280497481 0.9237437306 -0.0705870522 0.0000075424 0.0022239775 -0.4629880371
0.4869653178 1.0905348868 0.1424939536 0.0013134263 0.0018039084 -0.4631659679
-0.3596224201 1.0059999058 0.4587052918 0.0000000000 0.0003439308 -0.4609647716
-0.2700376158 1.1093749257 0.3096171924 0.0000000000 0.0022321427 -0.4631696464
-0.1116071443 0.2387885889 0.4034754964 -0.0022321427 0.0000000000 -0.4631696464
0.2868146705 1.0776707069 -0.3123113574 0.0000000000 -0.0022320624 -0.4631887134
-0.1049107073 0.0960489445 0.3785446789 0.0013846294 0.0001510067 -0.4642994209
0.3627158663 1.1160713538 -0.0065496301 0.0000047790 0.0022321315 -0.4631696464
0.3124393184 1.0758927851 -0.0168895044 0.0000000000 -0.0022321427 -0.4631696464
0.4999999665 1.0957828195 -0.1667536551 0.0022321427 0.0000000000 -0.4631696464
-0.3353001517 1.0758927159 0.2285477961 0.0000000000 -0.0022321427 -0.4631696464
