-0.4214626931 0.5200352100 -0.4558482632 0.2219768550 0.0004652198 0.0878750843
-0.4663608433 0.1074521802 0.6172039959 0.2216603189 -0.0013573588 0.0862923227
0.4987322228 0.5654309929 -0.5390420762 0.2232851329 -0.0001548397 0.0860882079
0.2599133561 0.9759756328 -0.6292159724 0.2219437401 0.0005448397 0.0878439624
-0.1349942706 0.1086401362 0.5680548544 0.2219631855 0.0013537389 0.0863316362
-0.4533290158 0.0977873723 0.0250861835 0.2219649061 0.0012701418 0.0863189171
0.0253362664 0.1323297290 -0.1680610706 0.2219843061 0.0014140453 0.0864238702
0.1237762699 1.0453470623 -0.6538067325 0.2219747004 -0.0007106879 0.0877615468
0.4353766085 0.4979588824 -0.5579597700 0.2224046380 0.0004073489 0.0876527368
-0.3240701122 0.0930649287 0.0076131619 0.2219619430 0.0011476723 0.0859694433
-0.1177224037 0.5801692075 -0.4877657093 0.2219936763 0.0004817702 0.0878693340
-0.4936128217 0.5767804574 -0.5811515259 0.2219346976 -0.0009525645 0.0854981965
0.4185639784 0.7037813640 -0.6098531113 0.2220275614 -0.0002620127 0.0851424803
0.2071865624 1.1538844439 -0.7756192182 0.2219858125 -0.0003171617 0.0851536618
0.2392277560 0.0691741458 -0.0900100317 0.2219845586 -0.0013235942 0.0870445624
0.1943959561 0.2055013100 0.4508511727 0.2219666678 0.0014060921 0.0867199951
0.2383774298 0.6582433386 -0.5985928624 0.2219858125 -0.0004178766 0.0851799682
0.0727683811 1.2146355449 -0.7110790025 0.2219858125 0.0010810808 0.0874124688
0.3052848680 0.0439716312 -0.1504872760 0.2219908735 -0.0013377588 0.0869449610
-0.0974907014 0.1186824206 0.1464523117 0.2219858125 -0.0013809020 0.0868585766
-0.0238476126 0.1117273998 0.3923617283 0.2219872210 -0.0013476879 0.0864391795
-0.3881403562 0.1890653011 0.0579560835 0.2220159330 0.0013810623 0.0862135029
0.1600350676 0.0712783230 0.7523663842 0.2219861018 0.0009135928 0.0861417823
-0.3730815984 0.0984144106 0.6373084556 0.2219707160 -0.0013901801 0.0862546461
-0.1452627423 0.6236618175 -0.5035529054 0.2219976834 0.0004728638 0.0878725127
-0.1043230017 0.0906328991 0.0248062019 0.2219858125 -0.0013834396 0.0868484248
-0.4929077579 0.5061013613 -0.4742382407 0.2205675076 -0.0000065021 0.0865339241
0.4744680655 0.0524506235 0.7394096603 0.2231466294 0.0006120326 0.0867000972
0.2048537696 0.6197617581 -0.5015295680 0.2219642806 0.0004740851 0.0878719609
0.4695351268 0.0763344957 0.2446173876 0.2227694947 -0.0007079730 0.0865683270
-0.4641746591 0.3508892509 -0.3951829153 0.2219047033 0.0004713475 0.0878704999
-0.0214389972 0.2476694363 -0.3668523456 0.2219875657 0.0005225390 0.0878539425
-0.1032644968 0.1812150009 0.0705288699 0.2219936947 0.0013795304 0.0862063000
0.2460648832 0.4148574453 -0.4279335558 0.2219597359 0.0005804000 0.0878290985
-0.1766790495 0.7586616611 -0.6465412989 0.2219561954 -0.0009483375 0.0854955653
0.1057575137 0.1653460559 0.7473305080 0.2219839203 0.0013990708 0.0867619908
0.4796548850 1.0632434342 -0.6547680573 0.2221656493 0.0004090269 0.0878783354
0.0485198834 0.8059650297 -0.6629516170 0.2219983061 0.0003527276 0.0855719441
-0.3559060903 0.1347517643 0.2727892326 0.2219772437 -0.0014181886 0.0865452419
0.4515325705 0.0751931596 0.3442788846 0.2212620905 -0.0007962099 0.0864930490
0.4460992730 0.0316719497 0.5096993618 0.2207119870 -0.0000973163 0.0868082036
-0.4363481701 1.1476175634 -0.6825836384 0.2219567501 0.0004844156 0.0878681241
0.1905811110 0.5289022761 -0.5519759448 0.2219858125 -0.0004975503 0.0852070349
-0.4046434388 0.1809489683 0.0205240448 0.2219975586 0.0013783942 0.0862013270
-0.3987681343 0.0976930589 -0.3500751665 0.2219599245 -0.0011631205 0.0857253072
0.3957495033 0.2843390751 -0.3703410886 0.2219533926 0.0004977617 0.0878629354
0.1798458847 1.0724504790 -0.7482042186 0.2219858125 -0.0004942751 0.0852057611
-0.2625762864 0.1536067673 0.8017974122 0.2219855671 0.0013567091 0.0869416447
0.4744680655 0.0688596905 0.6396869221 0.2231586393 0.0004701503 0.0866278362
-0.1006902204 0.1717580484 0.0256203168 0.2219928181 0.0013822666 0.0862172050
-0.3226108953 0.1152637386 0.2098171459 0.2219617259 -0.0013314552 0.0868444986
-0.2869409572 1.1966687006 -0.7697724824 0.2219814309 0.0011425801 0.0857038802
-0.0799873352 0.0590779252 -0.1294581554 0.2219858125 -0.0013997219 0.0867622404
0.4500080983 0.0881263517 0.6999904742 0.2221199869 -0.0013841148 0.0862586859
-0.1172921058 0.9330665363 -0.6150306244 0.2219957018 0.0004596539 0.0878770602
0.3235384470 0.0819876216 0.0442730333 0.2219888281 -0.0011690779 0.0873303808
0.4742162854 0.1316386907 0.5011579042 0.2223687458 -0.0013461162 0.0864542206
0.0744337214 0.1317832921 0.3849631642 0.2219858125 -0.0014156425 0.0864462688
-0.4919691154 0.1999572621 0.1819881137 0.2205993431 0.0001254298 0.0866835582
0.4802214722 0.1553620792 0.7805711172 0.2222230564 0.0013367630 0.0869386234
-0.4874328618 0.1371760719 0.1517240178 0.2209309331 -0.0008781248 0.0867252929
-0.0137133750 0.8000057478 -0.6647813729 0.2219980380 -0.0001159631 0.0851862476
0.4999999787 0.1900583351 0.3648203514 0.2234042521 0.0000000000 0.0865352929
0.3563614959 0.1165010307 0.1360400117 0.2220027969 -0.0013868226 0.0868324787
0.2997635890 0.0828725606 0.5861734646 0.2220040493 -0.0012171872 0.0861245908
-0.3413558728 0.1982452041 0.5182881343 0.2221603557 0.0013709985 0.0868372816
0.2735183978 0.6407269426 -0.5069399237 0.2219476408 0.0004656298 0.0878745411
0.3684399419 0.1003241296 -0.3540218031 0.2219953359 -0.0011490042 0.0857039653
-0.4320241973 0.1741184198 -0.3175039530 0.2219671018 0.0012478311 0.0872088745
0.0845341307 1.1705349208 -0.7771396422 0.2219779756 0.0008471333 0.0876037652
-0.0972207837 0.1083995674 0.0966182653 0.2219858125 -0.0013846283 0.0868429057
0.2204161757 0.0464409814 -0.1985710714 0.2220112649 -0.0008952765 0.0857813625
-0.4929077579 0.0938326081 -0.2582065058 0.2205686438 -0.0000309645 0.0865292844
0.2857991686 0.1842207554 0.6098945822 0.2219301926 0.0013979942 0.0867681582
-0.0199862526 0.5757805624 -0.5807103855 0.2219656210 -0.0009667077 0.0855053895
0.1033341904 1.0405438115 -0.7362070449 0.2219858125 -0.0005288837 0.0852199483
-0.0585478941 0.7758508061 -0.6407831291 0.2219858125 -0.0004972269 0.0852068604
-0.3811284134 0.1418053071 -0.2324377246 0.2220309557 0.0014123503 0.0866528376
0.1583329173 0.3272990779 -0.4797747793 0.2219858125 -0.0004877461 0.0852033512
-0.1699239308 1.0461626821 -0.7383749625 0.2219858125 -0.0005039872 0.0852094122
0.2274276433 0.6551898509 -0.5139803927 0.2219631359 0.0004754227 0.0878714858
0.0065984960 0.2469022123 -0.3667791030 0.2219855969 0.0005251234 0.0878529368
0.1638253624 0.4693717921 -0.5304273760 0.2219858125 -0.0005062936 0.0852103654
0.3551976506 0.1391022505 -0.2247543080 0.2218491061 0.0014085985 0.0866187383
-0.2532810232 0.0832108031 0.7078377772 0.2219858096 -0.0013916949 0.0862614249
0.4985815391 0.7827991163 -0.5946982130 0.2234035372 -0.0000346028 0.0865476759
-0.4173133841 0.1139117982 0.1144400159 0.2219169827 -0.0013864552 0.0868239085
-0.2675821215 0.9409830109 -0.7001998543 0.2219707174 -0.0003878681 0.0868931950
-0.0998712460 0.1304964454 -0.2061577844 0.2219929841 0.0014175035 0.0865525539
0.3231420427 0.0787707495 0.5995975616 0.2219969671 -0.0013545531 0.0864383171
-0.0577536572 0.1204952517 0.1543078871 0.2219858125 -0.0013762723 0.0868785213
0.0024194495 0.2106244104 0.2627863183 0.2219858905 0.0014146226 0.0864336873
-0.4928190615 0.1779530508 0.0497943166 0.2206273048 0.0002761064 0.0864706064
-0.1243016685 0.0541688277 -0.2181395042 0.2219858125 -0.0014154212 0.0864484788
0.4664760107 0.0019184935 -0.2855531324 0.2224179004 -0.0009878950 0.0865382773
-0.0363310983 1.1427457453 -0.7732323531 0.2219858125 -0.0003727078 0.0851668590
-0.3078424239 1.0743398845 -0.6559750827 0.2219868110 0.0004135120 0.0878920588
0.1964959475 0.8990561045 -0.6858944269 0.2219858125 -0.0004890142 0.0852038164
0.2496389894 0.2699676774 -0.3737262884 0.2219555841 0.0005073418 0.0878594106
-0.0931867499 0.8536037018 -0.5866517454 0.2219931401 0.0004759815 0.0878714446
-0.4716258827 0.2209934395 0.3043619596 0.2218478181 0.0014096581 0.0865287256
0.2233403046 0.9164674849 -0.6079763454 0.2219608678 0.0004658042 0.0878748191
0.4698861864 0.1602839810 -0.0571989190 0.2220465486 0.0013635432 0.0861508462
0.0489034309 0.2069868234 0.4266086381 0.2219825997 0.0014118538 0.0866708007
-0.3833978388 0.1067924058 0.5915300997 0.2219588621 -0.0013971176 0.0862922490
0.4054364204 1.1228807508 -0.7639035849 0.2220222962 -0.0002340695 0.0872757298
0.0136299835 0.8242564427 -0.5767182539 0.2219849827 0.0004768652 0.0878711666
0.0982309595 0.1347517643 0.3078701608 0.2219858125 -0.0014184396 0.0865352929
-0.3219788570 0.5512418350 -0.4718539316 0.2220926139 0.0004804113 0.0878655297
-0.2021733896 0.6270335988 -0.5811802252 0.2219607884 0.0010046836 0.0874349581
-0.0358019537 1.1229688842 -0.6720731257 0.2219858125 0.0004789049 0.0878703212
0.4302125152 0.9073346344 -0.7375059256 0.2214651487 -0.0003837617 0.0854500788
-0.2493285852 0.1299849192 0.4140547893 0.2219809557 0.0013147985 0.0869700050
-0.3738497331 0.0805161011 0.8045884064 0.2219335189 -0.0009597843 0.0875362319
0.1699761137 0.1661842076 0.7425539225 0.2219792082 0.0014004226 0.0867536631
-0.3308339330 1.0425641178 -0.7370150462 0.2219802394 -0.0005147787 0.0852139654
-0.2222724380 0.1339756551 0.2044531732 0.2219858125 -0.0013359035 0.0870118191
0.1880956360 0.2118424301 0.3682960873 0.2219684706 0.0014164680 0.0866068816
-0.1379079201 0.3298816877 -0.4806356346 0.2219858125 -0.0004863829 0.0852028576
0.0004259801 0.1335382792 -0.1535583396 0.2219860267 0.0014133247 0.0864150873
-0.3151995397 0.4251664985 -0.4284366834 0.2220844678 0.0005966425 0.0878180035
-0.0037814409 1.1686808372 -0.7937593844 0.2219959954 0.0003162851 0.0855491767
-0.0729594832 1.2048912178 -0.7526914707 0.2219858125 0.0013174708 0.0860114859
-0.4347300894 0.1404255228 -0.1984248473 0.2219595330 0.0014171446 0.0865190362
-0.4510611053 0.2201532537 0.2458468996 0.2219314224 0.0014089276 0.0863932561
-0.2802873037 0.0686320267 -0.2962751048 0.2219845983 -0.0013338737 0.0860544603
0.2744594161 0.7011386706 -0.5302356994 0.2219355926 0.0005509744 0.0878412659
-0.4606019387 0.6544597233 -0.6441271629 0.2213635260 -0.0004177886 0.0854294505
-0.0225405517 0.0834199676 0.7065828340 0.2219858125 -0.0013913446 0.0862595398
-0.0457328921 0.3609270233 -0.4916717417 0.2219858125 -0.0004563305 0.0851923285
0.2372520115 1.1575789330 -0.6851487588 0.2219858125 0.0005142922 0.0878572092
-0.2871722408 0.8608417793 -0.6715640661 0.2219841004 -0.0004789659 0.0852001980
0.4914893410 0.0986496021 0.5669993368 0.2220191884 0.0002256737 0.0860734008
0.4101944356 0.3239460399 -0.3843196962 0.2219735912 0.0004875688 0.0878670943
0.1720337831 0.1343825444 0.3420881117 0.2219858125 -0.0014172183 0.0864791284
0.4573047645 0.1950029178 0.5909003990 0.2220437727 0.0013965049 0.0867736901
-0.3573139682 0.1128929331 0.3775981037 0.2219759954 -0.0013676467 0.0862685511
0.3512598551 1.0725941059 -0.6553932133 0.2219840337 0.0004194723 0.0878902872
-0.0412707462 0.5845244768 -0.5629620122 0.2220011217 0.0001138113 0.0879372276
0.2408000935 0.2031221953 -0.4306286251 0.2219858125 -0.0006022936 0.0852512122
-0.0670896339 0.1580187429 0.7836298006 0.2219855784 0.0013837219 0.0868466575
-0.2891711641 1.1347663302 -0.6764134601 0.2219835756 0.0004933503 0.0878651397
-0.0960810065 0.1315224638 0.3888755597 0.2219858125 -0.0014155730 0.0864451880
0.4613742068 0.1170472193 0.3266278858 0.2221241727 0.0008649602 0.0865689483
0.4628401329 0.0494524606 0.5617239953 0.2221955075 -0.0007842326 0.0863953653
-0.1518668326 0.0733366520 0.7675049194 0.2219858125 -0.0014093730 0.0863853908
-0.3111349017 0.1635758744 0.7576497768 0.2219848550 0.0013874907 0.0868298773
-0.4555144199 0.8209368230 -0.6769272814 0.2218155501 0.0003061120 0.0873475624
-0.1681660741 0.1747585858 0.0370607231 0.2219988720 0.0013821588 0.0862169298
-0.1371303925 0.1368573797 -0.2643692601 0.2219965742 0.0013624879 0.0869196291
-0.0626369675 0.1908755563 0.1111576559 0.2219907316 0.0013873971 0.0862407610
-0.3864141876 0.7839858822 -0.5512136116 0.2220221727 0.0004395673 0.0878831510
-0.3161677907 0.9280904827 -0.6086911936 0.2220799486 0.0004675092 0.0878707808
-0.0119611255 0.2058293852 0.4328948476 0.2219869032 0.0014108652 0.0866815880
-0.4551456994 0.5610309208 -0.6096267624 0.2217999557 -0.0003900439 0.0854834235
-0.0981359213 0.1349137018 0.8212870180 0.2219858125 -0.0001521702 0.0879453042
-0.0562553098 0.6388774477 -0.5919200316 0.2219858125 -0.0004768241 0.0851996944
0.4994638653 0.6299970497 -0.5602388918 0.2233464649 -0.0000913489 0.0862403937
0.0337353950 1.1465472401 -0.6808311932 0.2219858125 0.0005080652 0.0878595850
0.2076098716 0.0905900934 -0.3394207672 0.2219858125 -0.0012014354 0.0857820533
-0.3449524016 0.1959985915 0.5639717767 0.2221628664 0.0013984481 0.0866916121
-0.4116726114 0.1051330059 0.0799916210 0.2219265316 -0.0013773105 0.0868671454
-0.1895865564 0.0780480077 0.6121781622 0.2219592040 -0.0010453928 0.0867490248
-0.4929077579 0.5674658878 -0.4953494776 0.2205673728 0.0000000000 0.0865352929
0.4999999787 0.1769711431 0.3006375598 0.2234037003 0.0000000000 0.0865028915
-0.4775560752 0.0516856278 0.7631697793 0.2219563841 0.0007713617 0.0868034348
-0.4917991254 0.7671849386 -0.5708426457 0.2205728906 -0.0000957092 0.0864782447
0.0802583792 0.2519513765 -0.3679359143 0.2219803983 0.0005127149 0.0878577850
-0.0245355573 0.0580834161 -0.2510662808 0.2219858125 -0.0014000198 0.0863139681
0.3227612981 0.0541581411 -0.2180379950 0.2219930295 -0.0014157290 0.0864546476
-0.2798171165 0.1799025826 0.6375037676 0.2220419217 0.0013965715 0.0867761936
-0.0644945348 0.7075197014 -0.6109969793 0.2219858125 -0.0002947447 0.0851480136
0.0116695425 0.0865955589 0.6146203039 0.2219899004 0.0000512397 0.0870696574
-0.2580666981 0.0519868746 0.7643583622 0.2219763529 -0.0013347134 0.0862071327
0.4273506161 0.0534279653 -0.1446703870 0.2220138564 -0.0000637305 0.0870255000
-0.4718541366 0.1397735185 0.3866492705 0.2215612777 -0.0013396056 0.0864457554
0.0434445518 0.9679212432 -0.7089183587 0.2219858125 -0.0003995134 0.0851742817
-0.2986977124 0.1650039453 -0.0138570353 0.2220530820 0.0013761801 0.0861993483
0.3806987766 0.8577945228 -0.6701325541 0.2220032579 -0.0004885120 0.0852038505
0.2994103748 0.0904542636 -0.0020463112 0.2219936068 0.0012991077 0.0860541866
0.1539070850 1.0029409629 -0.6429258538 0.2219714720 0.0005969602 0.0878216985
-0.0946636052 0.9954041180 -0.7148150463 0.2219858125 -0.0003050794 0.0851501001
-0.1066395675 0.2895231230 -0.4651209746 0.2219858125 -0.0005025220 0.0852088717
0.0331815993 0.1345401331 -0.3912671851 0.2219858125 -0.0009138269 0.0854504888
-0.4409007868 0.1499593108 -0.2733763602 0.2219545784 0.0013259957 0.0870270532
-0.3584899128 0.2291992900 -0.4589291098 0.2219563841 -0.0007377475 0.0853812505
-0.1182620887 0.2113475039 0.2559143017 0.2219941798 0.0014135134 0.0864191426
-0.2807478370 1.2095571608 -0.7066423972 0.2219850040 0.0007935390 0.0876980461
0.4914893410 0.0582124444 -0.3606677956 0.2220270947 0.0006472212 0.0864614929
-0.4519736457 0.4874849469 -0.4451871107 0.2219229841 0.0003927858 0.0878961397
-0.1018107139 0.1347517643 0.2750682466 0.2219858125 -0.0014184396 0.0865352929
-0.2758562373 0.1744208142 0.6680635926 0.2220473089 0.0013981347 0.0867659511
-0.0690517615 0.1727644781 0.0311474129 0.2219906919 0.0013815446 0.0862141171
0.3718441020 0.2084079041 -0.3413539799 0.2219001245 0.0004472468 0.0878783723
0.3053503772 1.1221718786 -0.6717884675 0.2219898933 0.0004799276 0.0878699808
0.4829889841 0.2401663985 -0.4637675520 0.2220177501 -0.0002049943 0.0853006802
-0.1954295688 0.1170120051 -0.3745649380 0.2219858125 -0.0010685162 0.0856030519
-0.0230382907 0.1372108421 0.2141020945 0.2219858125 -0.0013910084 0.0867838631
0.4713154487 0.1773827941 0.0114941971 0.2220874281 0.0013753871 0.0862045029
0.1962242468 0.9382275118 -0.6158661563 0.2219654564 0.0004769773 0.0878709155
-0.4140336326 0.1360959883 0.2887438868 0.2219309642 -0.0014165261 0.0865733653
0.4989696752 0.1599614463 0.5829096861 0.2234032592 0.0000087986 0.0864830589
-0.0687224749 0.1361702039 -0.1106545013 0.2219907940 0.0014184240 0.0865352929
0.3994085073 0.2128302897 0.4634541095 0.2219605756 0.0014074864 0.0867076688
0.4347618638 1.0184563591 -0.7785398152 0.2220380876 -0.0003328014 0.0855842760
0.4446808334 0.7969064615 -0.6911824960 0.2232359741 -0.0000912085 0.0862536589
0.0293265144 0.3986764208 -0.5028500927 0.2219858125 -0.0003583390 0.0851633668
-0.0781310871 0.1354542309 0.2114728749 0.2219859515 0.0013665006 0.0866064929
-0.4525073790 0.5068284591 -0.5609368577 0.2224126082 0.0003919205 0.0876068858
-0.2148995647 1.1405178334 -0.7725970680 0.2219858125 -0.0003832581 0.0851698334
0.1168518973 0.1383359881 -0.3943411920 0.2219858125 -0.0008655077 0.0854127611
0.3355244419 0.2113480231 -0.4510535415 0.2219883742 -0.0009850879 0.0855150122
0.0187765023 0.6117710877 -0.4996164419 0.2219848167 0.0004813049 0.0878695255
-0.4718087721 1.0610800187 -0.7361847952 0.2215567558 -0.0004644340 0.0852805143
-0.4356069177 0.5772423765 -0.5729180569 0.2219523501 -0.0005717432 0.0864685823
0.1996459430 0.7559217464 -0.5541857206 0.2219666891 0.0002427432 0.0879323794
0.2372272072 0.8477727248 -0.5830057400 0.2219584451 0.0004738298 0.0878719595
0.1072008980 0.6483014059 -0.5120710751 0.2219784224 0.0004648978 0.0878752772
-0.4914893183 0.0294046038 -0.0814217145 0.2208173076 -0.0003316695 0.0865779908
0.0976814050 0.1267692002 0.2319889430 0.2219907515 -0.0000669163 0.0870451780
-0.1584817003 0.2028368662 0.2086252495 0.2219996025 0.0014083488 0.0864225582
-0.0903513856 0.0571868644 -0.2453881280 0.2219858125 -0.0014042155 0.0863381383
-0.4146031205 0.2982709536 -0.4678098978 0.2219314238 -0.0004834099 0.0852036547
0.1146977244 1.1530459687 -0.6833355391 0.2219858125 0.0005128837 0.0878577581
-0.0196385462 0.1095321049 0.1022809387 0.2219858125 -0.0013865687 0.0868337908
-0.0512877626 0.2119636131 0.3391870155 0.2219895912 0.0014178098 0.0865771397
-0.1658845722 0.1134144479 0.3709923254 0.2219914720 -0.0012748184 0.0859999426
-0.2645862054 1.2047238689 -0.7531934310 0.2219837004 0.0013156084 0.0860066476
0.4460992730 0.0287037584 -0.0551596737 0.2208163941 -0.0005183503 0.0866152873
0.3451286910 0.8697272851 -0.5851184647 0.2218196536 0.0004770822 0.0878604446
0.4815343771 0.1432520460 0.2697503746 0.2225117997 -0.0012979999 0.0865515227
0.3413512203 0.5857063944 -0.4832014046 0.2218327572 0.0004762525 0.0878622659
-0.4617020862 1.0926090479 -0.7995111471 0.2209587062 -0.0002202993 0.0858811979
-0.4393280281 0.0877238765 0.0025923651 0.2218778877 -0.0013765105 0.0868590475
0.0661261659 0.4310813676 -0.4368156843 0.2219814238 0.0006495730 0.0877961028
0.0675184381 0.2923970788 -0.3837518962 0.2219809103 0.0005006539 0.0878623950
-0.4929077139 0.2941312985 -0.3846839600 0.2205817998 0.0000662312 0.0867106036
-0.4537837931 0.2203983899 0.3684168589 0.2219228437 0.0014143574 0.0866164702
-0.0508027059 0.1156812010 0.2136786690 0.2219769188 -0.0013209347 0.0868995752
0.0622088243 0.0749535753 -0.0500062840 0.2219858125 -0.0014032510 0.0867375638
0.2835533233 0.9316857562 -0.6978827708 0.2219875742 -0.0004562610 0.0851926051
0.3388857467 0.1039366088 0.0781682921 0.2219868181 -0.0013778410 0.0868720447
0.2270699923 0.5958511285 -0.4923138239 0.2219602068 0.0004978524 0.0878632375
-0.4734392755 0.9074941919 -0.5975019348 0.2218297657 0.0004607205 0.0878648375
0.0675167942 0.7948369793 -0.6405325830 0.2219861274 0.0005605305 0.0877668730
-0.2270637412 0.8962425132 -0.6009821076 0.2220121671 0.0004779333 0.0878703368
-0.4548844597 0.1595848364 -0.0596399145 0.2219233444 0.0013638623 0.0861536490
0.2406861928 0.0766925141 0.0230926120 0.2219982777 -0.0012565049 0.0869215922
0.4381452679 1.1909805705 -0.6986752743 0.2220235869 0.0005544241 0.0878397907
-0.4232352220 0.0534015270 0.7578155683 0.2219700323 -0.0013226850 0.0861120745
-0.0888953942 0.0902048906 -0.0029690034 0.2219696125 0.0011357829 0.0858367866
0.4303519010 0.6792407301 -0.6037437103 0.2220520309 -0.0004089617 0.0851794703
0.2213481515 1.0127241623 -0.6469412734 0.2219612834 0.0007534936 0.0877366801
0.4744680655 0.1040740471 0.3035528759 0.2231432322 0.0003636525 0.0865452036
0.2763964430 0.1182478916 0.5312742072 0.2219858125 -0.0013692212 0.0861661979
-0.1457637933 0.1603618321 -0.0202935058 0.2219964210 0.0013782921 0.0862006461
-0.1160898435 0.0902746040 -0.0027110530 0.2219681316 0.0011275531 0.0858292135
-0.4699595793 0.5673906538 -0.5584454976 0.2216131104 -0.0004551149 0.0852496136
-0.3677406342 0.6306427674 -0.5841877442 0.2219500834 0.0011465106 0.0871243723
0.4248226787 1.0055286805 -0.7515326694 0.2207153870 0.0001075901 0.0867924078
-0.3079082196 0.2029771825 0.1553409991 0.2220651188 0.0013997460 0.0863236022
-0.2279553738 0.1255506712 0.4909032197 0.2219882876 -0.0014130822 0.0866567752
-0.4631205258 0.0787036601 0.2418518020 0.2232056308 -0.0006183404 0.0865562717
-0.4827972635 0.1616002831 -0.0472779366 0.2217057657 0.0013433020 0.0861781412
0.1829328647 0.1713795009 0.6697315840 0.2219683132 0.0013975432 0.0867769270
0.1237772870 0.1214377353 0.5208036050 0.2219858125 -0.0013260439 0.0860349894
0.3102832251 0.1574799557 -0.3029230873 0.2218989330 0.0012050169 0.0872759638
-0.2203976636 0.8076481289 -0.5688885693 0.2220085146 0.0004706496 0.0878730546
-0.0614990726 0.1604310605 -0.0196818562 0.2219894437 0.0013790297 0.0862039568
0.0980125099 0.1160673243 0.1798658429 0.2220019401 -0.0007924581 0.0858719029
0.1316632510 0.6248732145 -0.5867856333 0.2219858125 -0.0004906411 0.0852044150
0.2973247905 0.4360428325 -0.5134137190 0.2219850621 -0.0006414893 0.0852702292
0.4066424713 0.0582603423 -0.3858051018 0.2220035784 0.0006618879 0.0860645639
-0.2209898778 0.8417634018 -0.5813325968 0.2220104323 0.0004730922 0.0878722801
-0.3636436160 0.1442893721 -0.2567786081 0.2220748990 0.0013751928 0.0868571695
0.1985251005 0.6916164953 -0.5279902556 0.2219657217 0.0005558893 0.0878398829
-0.0299420817 0.8276020354 -0.5774828368 0.2219885501 0.0004772978 0.0878710049
0.4355158638 0.5840687477 -0.4781840986 0.2220079784 0.0004850893 0.0878677794
-0.3441023251 0.3732800834 -0.4059515501 0.2221534451 0.0004932709 0.0878545340
-0.2802774342 1.1393489881 -0.7722074822 0.2219820905 -0.0003879915 0.0851713186
-0.4919134473 0.1460048926 0.5470900161 0.2205756438 -0.0000855801 0.0864360660
-0.4018836972 0.1787154493 0.6809091974 0.2219888252 0.0013945829 0.0867942362
-0.4631205258 0.0717017372 0.1692901726 0.2231559613 -0.0006328666 0.0866237213
0.1660442005 0.5185259108 -0.5480952345 0.2219858125 -0.0004997546 0.0852078178
-0.3160478858 0.0882437035 0.6856129730 0.2219810791 -0.0013908836 0.0862571156
-0.3167162857 0.1947572625 0.5517271292 0.2220884139 0.0014088070 0.0866612986
0.4417048932 0.4615674734 -0.5445382262 0.2225551841 0.0003928127 0.0876613666
0.1332135275 0.1305433801 -0.1933716335 0.2219765571 0.0014175020 0.0864870844
-0.2122181308 0.0439716283 -0.3666396307 0.2219771997 -0.0013720949 0.0865440319
-0.1944494994 0.1122638168 0.3855670876 0.2219810238 -0.0013619914 0.0863703213
0.2460582222 0.0737588604 -0.0617145258 0.2219852536 -0.0014156779 0.0866177440
0.4946306599 0.1418347425 -0.0903983409 0.2231304081 0.0005958581 0.0862316646
-0.4370696835 0.0638297831 -0.1686095429 0.2219618876 0.0012628127 0.0864714163
0.4676333411 0.0734738945 0.3672614548 0.2225927727 -0.0008004865 0.0864780674
0.0020979318 1.1443363821 -0.6800021549 0.2219858125 0.0005057517 0.0878604574
0.4639989130 0.6799967003 -0.6010995459 0.2222186167 -0.0003965305 0.0851977554
0.1652087226 0.1812733087 0.6142194202 0.2219717089 0.0013987077 0.0867703227
-0.1476913790 0.1985259232 0.1480045357 0.2219981018 0.0013980680 0.0862995256
-0.0482202692 0.0439716283 -0.3339895037 0.2219644054 -0.0013329545 0.0869965610
0.2779207152 0.4077766741 -0.4237465872 0.2219370337 0.0005548553 0.0878394219
-0.3274955261 0.1630773241 -0.0293819761 0.2221077089 0.0013733744 0.0862031823
-0.4840271869 0.1500349661 -0.0793732821 0.2215067075 0.0011993659 0.0860212774
-0.3416541664 0.0732997981 0.0095217434 0.2219712153 -0.0013403673 0.0868418177
-0.0652128454 0.2521940247 -0.4511225840 0.2219858125 -0.0005026000 0.0852089015
-0.3370724177 0.1347517529 0.3359839263 0.2219793728 -0.0014176935 0.0864899837
0.1664865707 0.1129102706 0.5551728879 0.2219858125 -0.0013932935 0.0862693951
0.1463216600 1.1208927368 -0.6713316136 0.2219858125 0.0004747305 0.0878717822
-0.4617020422 0.5117822631 -0.5900718360 0.2211010054 -0.0003127291 0.0857065540
-0.3664072967 0.1487030470 -0.4023616014 0.2219749288 -0.0008177163 0.0853784831
0.4999999787 0.1528190354 0.0945281066 0.2234042521 0.0000000000 0.0865352929
0.4486618842 0.1486078470 -0.2688714895 0.2220200933 0.0013494708 0.0869606191
0.0413104739 0.4753756172 -0.4521667187 0.2219849742 0.0003244397 0.0879153567
-0.3456243079 0.1391162647 -0.1737682688 0.2221185316 0.0014064765 0.0864100476
-0.2486725228 0.1329675247 -0.1846977163 0.2220217245 0.0014155985 0.0864602476
-0.4316137903 0.7925048306 -0.6614721419 0.2219666252 -0.0004801205 0.0852412462
-0.4792352780 0.9989816426 -0.7059092823 0.2212538622 -0.0002503617 0.0853601724
0.3592341524 0.0638297831 -0.3554650030 0.2220130238 0.0013585120 0.0866988433
-0.2804453023 0.3907556156 -0.5006204475 0.2219847614 -0.0003869631 0.0851707001
-0.1190510220 0.1557931671 0.7937805957 0.2219854054 0.0013775971 0.0868714787
0.4744680655 0.0956573313 0.2684657577 0.2231361883 0.0000607277 0.0865183780
-0.1268863563 0.2219901302 -0.3565076654 0.2219972153 0.0005221489 0.0878538021
0.3661277917 0.2186417886 0.3873231456 0.2218907174 0.0014126964 0.0866182092
0.2117568046 0.1248265181 0.1702423853 0.2219858125 -0.0013798680 0.0868638277
-0.4355045007 0.1533142212 -0.4036019559 0.2218921969 -0.0007414638 0.0853314661
0.0163674528 0.1983179488 -0.4282264806 0.2219858125 -0.0006107900 0.0852551611
0.2968911594 0.0539007057 -0.2122559315 0.2219901075 -0.0014167276 0.0864774575
-0.3845956430 0.8536412762 -0.6685968053 0.2219639146 -0.0004908340 0.0852047583
0.4205261073 0.1344170125 0.2018785280 0.2220125174 0.0013637105 0.0864656050
-0.4648438817 0.1775035558 -0.3257916177 0.2218802011 0.0011644070 0.0873262035
-0.1258626329 0.1161785300 0.1355130756 0.2219858125 -0.0013870779 0.0868319000
-0.4308496386 0.1151195045 0.2084829857 0.2219555259 -0.0013350779 0.0868254645
-0.4896728078 0.0555528375 0.1117549721 0.2209676154 -0.0007821999 0.0867078475
-0.0278934209 0.1354990550 -0.3922261297 0.2219858125 -0.0009104198 0.0854476093
0.2971203551 0.8441358953 -0.5801873870 0.2219246990 0.0004863134 0.0878663340
0.3225564527 0.6589387939 -0.5113692142 0.2218961756 0.0004784638 0.0878674191
0.4954465620 0.1124786310 -0.1008837473 0.2233841556 0.0000523163 0.0867636972
0.4369458396 0.3020094441 -0.5139782296 0.2218193529 -0.0004677347 0.0852974448
-0.2536606530 1.0255270863 -0.6536657893 0.2220198791 0.0004026879 0.0878868716
0.3871680371 0.2178835035 0.4148326630 0.2219412153 0.0014115105 0.0866667241
0.4684449779 0.4597778452 -0.4396496642 0.2220913245 0.0004679191 0.0878689780
-0.4694688743 0.0851286384 0.7338158535 0.2216487331 -0.0013497063 0.0862829185
-0.4616053826 0.1642175879 0.7503334369 0.2219029089 0.0013841361 0.0868319950
-0.0303262349 0.1820172137 -0.4206041421 0.2219858125 -0.0006128496 0.0852560803
-0.0044127869 1.0023655020 -0.6431512070 0.2219864735 0.0005900297 0.0878251354
0.2064590192 0.3133160760 -0.3905462348 0.2219646976 0.0005008085 0.0878621212
0.1355934337 0.2389553475 -0.4414060471 0.2219991699 0.0003684283 0.0878527964
-0.2492659057 0.8285632736 -0.6603461519 0.2219858125 -0.0004777120 0.0851997327
0.2679751768 0.1792440096 0.6365177251 0.2219404465 0.0013961460 0.0867808518
0.0007902865 0.6026321777 -0.5925567025 0.2219882465 -0.0005376468 0.0853038320
-0.0839004030 1.1588317542 -0.7937349702 0.2219913217 -0.0002342922 0.0852075852
0.1676613664 0.6000065410 -0.5695971394 0.2220029855 0.0003384057 0.0878626999
0.4248078092 0.1247086032 0.5150027543 0.2220437288 -0.0013447418 0.0860933993
-0.3916365447 0.3841108785 -0.4064840281 0.2220130323 0.0004857021 0.0878675964
0.4263741410 0.6671616572 -0.6488176066 0.2213578068 -0.0004292908 0.0853917753
-0.1904197507 0.7727401765 -0.5577048508 0.2220051217 0.0003828737 0.0879003326
-0.0453965063 0.0716549499 -0.0835824889 0.2219861174 -0.0013600666 0.0869337156
0.0695212139 0.1792970365 0.6236555416 0.2219812905 0.0013994708 0.0867660830
0.4878355653 0.6684856004 -0.5904632827 0.2227439755 -0.0003756326 0.0854033625
0.0087141427 0.4664559994 -0.5291314825 0.2219858125 -0.0005358454 0.0852233441
-0.3973672266 0.0782521779 0.6012947289 0.2219472323 -0.0013835403 0.0864924972
-0.0889898027 0.5663521900 -0.4828634174 0.2219918224 0.0004734638 0.0878723553
0.0133747608 0.1061456597 0.0870045057 0.2219858125 -0.0013814113 0.0868569397
0.4736252386 0.1883793707 0.0559419914 0.2220932181 0.0013770737 0.0862131993
-0.4308469549 0.1854070234 0.6458649784 0.2219651189 0.0013921332 0.0868055156
0.3404606374 0.1120787629 0.5601618847 0.2219858125 -0.0013931644 0.0862687185
0.2412740566 0.9648095768 -0.7010683720 0.2220059103 0.0003749844 0.0878492843
0.3237986583 1.1081056568 -0.7612737922 0.2219918522 -0.0004796681 0.0852004774
0.0130634176 0.1113434410 0.3972251039 0.2219865288 -0.0013629020 0.0865365553
0.4460992730 0.0270521245 0.7228038131 0.2208223104 -0.0005069915 0.0864426093
0.4695708601 0.2215486423 0.3145801745 0.2220744621 0.0014154340 0.0865349667
-0.1444881154 0.7389116383 -0.6258721556 0.2219858125 -0.0006524936 0.0852773696
0.1748301517 1.0469351005 -0.6524722702 0.2219719869 -0.0005042907 0.0878609382
-0.3071456268 0.0582659905 -0.1347357692 0.2219770153 -0.0014033715 0.0867359227
0.1295626951 0.1017807366 0.0695447976 0.2219858125 -0.0013760893 0.0868793156
-0.4914893183 0.1030286685 0.2303059970 0.2208035345 0.0003486993 0.0864956490
-0.4665160277 0.2214031529 0.2744620296 0.2218907458 0.0014142964 0.0864893213
0.4570351063 0.1603820264 -0.4059086097 0.2221711827 -0.0006827645 0.0853109256
-0.4585770864 0.0047928890 -0.3785186299 0.2218579217 0.0003581333 0.0875846645
0.0629870001 0.0854591036 0.0447170588 0.2219767940 -0.0007498368 0.0872385695
0.0561758673 0.2113475039 0.2651074175 0.2219821756 0.0014150368 0.0864398816
0.4833986337 0.0858805830 -0.0428260504 0.2225718777 -0.0012562070 0.0867549780
0.3182319920 0.5133290488 -0.4591779254 0.2218919444 0.0004566751 0.0878745624
0.4313032910 0.0638297831 -0.3740699905 0.2220042962 0.0013808340 0.0864409851
-0.4929077579 0.1068831249 -0.2126875060 0.2205673728 0.0000000000 0.0865352929
0.4248226787 0.8521008522 -0.6909354975 0.2206482650 0.0001474837 0.0869096021
-0.4394581926 0.6825847640 -0.6040843812 0.2218882990 -0.0003973588 0.0851774235
-0.4323426626 0.3082907402 -0.3787026881 0.2219576267 0.0004839702 0.0878681099
0.2690972718 0.8547615527 -0.5844814477 0.2219481345 0.0004774922 0.0878703709
0.0331209312 0.1591350478 -0.3123294271 0.2219832777 0.0012302864 0.0872407695
0.1239796770 1.0242212807 -0.7287238751 0.2219858125 -0.0006660453 0.0852844944
0.1243953437 0.1347517643 0.2907889761 0.2219858125 -0.0014184396 0.0865352929
0.4744680655 0.0629195321 0.4969363498 0.2231519117 -0.0007099787 0.0864264532
-0.0839191236 0.0638297831 -0.3696847227 0.2219748295 0.0013044453 0.0863375653
0.2133525577 0.1874171580 0.5793732395 0.2219649628 0.0014028382 0.0867428943
0.4985815391 0.2246480165 -0.3695710064 0.2234031613 -0.0000450794 0.0865602674
-0.0346395155 0.1347517643 0.2866064870 0.2219858125 -0.0014184396 0.0865352929
-0.1983221587 1.1052884300 -0.7602174078 0.2219858125 -0.0004837418 0.0852019072
0.0979949567 0.1017723281 0.0695111678 0.2219858125 -0.0013760893 0.0868793156
-0.4337180752 0.1418039751 -0.2301807871 0.2219593302 0.0014139900 0.0866424291
0.4149507616 0.7235154563 -0.5313897831 0.2219525912 0.0006062666 0.0878169326
0.2928384575 0.6638264971 -0.5146506111 0.2219333458 0.0004902993 0.0878651553
-0.1953349858 0.1702674910 0.0186691272 0.2220006706 0.0013808666 0.0862114504
-0.4036228531 0.2154225746 0.2175490106 0.2219973430 0.0013861460 0.0862362050
0.3300899430 0.0439716283 -0.3651244010 0.2220093869 -0.0012553517 0.0863001851
-0.4525540428 0.2720737354 -0.3660728265 0.2219255203 0.0005128524 0.0878562191
0.0305294051 0.6236508657 -0.5797304891 0.2219771146 0.0008207205 0.0875977468
-0.4027959780 0.1592408634 -0.0647780348 0.2219983727 0.0013555942 0.0861196263
0.4539974597 0.0360107991 0.6335503353 0.2214665090 -0.0007861843 0.0863884419
0.4426747683 0.0826945847 -0.3226249754 0.2220803600 -0.0012487517 0.0858725795
-0.2724882659 0.2332834940 -0.4607309891 0.2219654664 -0.0006813205 0.0853504788
0.3768022988 1.2078347581 -0.7411340105 0.2220348011 0.0013415403 0.0860787809
0.0855134951 0.0550841056 -0.2268346327 0.2219858125 -0.0014121786 0.0864134802
-0.2782593350 0.2114907635 0.4039246864 0.2220265018 0.0014149290 0.0866252688
-0.1207321510 1.0888027914 -0.6607961661 0.2219857628 0.0004328936 0.0878860574
0.4844489797 0.8533436323 -0.6578901138 0.2225977770 -0.0004237177 0.0853421994
0.4076067394 0.5262297586 -0.4578357581 0.2219691401 0.0004704354 0.0878731850
0.2207707388 0.1347517643 0.2460551648 0.2219858125 -0.0014181176 0.0865269241
-0.0488381316 1.1815851399 -0.7790612534 0.2219858125 0.0002242099 0.0851660973
0.4122652157 0.2201145757 0.3840469444 0.2219773685 0.0014159985 0.0866166064
-0.4708979622 0.1362898720 0.8025103980 0.2211493898 -0.0002700610 0.0876260872
0.2842449474 0.7577896811 -0.6407999249 0.2219949018 -0.0007229304 0.0861201100
0.0242760722 0.1815210109 0.6087173397 0.2219843954 0.0013978552 0.0867760447
-0.4999999560 0.7979127182 -0.6490316194 0.2219407075 0.0005541985 0.0866301752
0.2494698093 0.0560327311 -0.2358466023 0.2219858125 -0.0014088155 0.0863772050
-0.4109903590 0.0638297831 -0.1599319676 0.2219686720 0.0013000056 0.0867011099
-0.3037843646 0.7798184371 -0.5570956254 0.2220653742 0.0004073900 0.0878908900
-0.1258765918 0.1673758756 0.7288966368 0.2219969415 0.0014144722 0.0866061170
-0.4929077139 0.1745978496 0.5672004502 0.2205680253 -0.0000135589 0.0865023639
0.1819737754 0.1266142315 0.1791809408 0.2219858125 -0.0013804141 0.0868615199
0.1321811573 0.4489459239 -0.5192354335 0.2219807018 0.0009287631 0.0873122333
0.1680024174 0.2108798274 0.2492343830 0.2219710579 0.0014104127 0.0863892646
0.0951083186 0.3325346166 -0.3987776258 0.2219798281 0.0004739872 0.0878721751
-0.3526597132 1.1624363781 -0.7951767857 0.2219775132 -0.0003132936 0.0851789810
0.0617553350 0.9425984080 -0.6186443376 0.2219816408 0.0004766851 0.0878712120
0.2758893962 0.1347517643 0.3319443081 0.2219871075 -0.0014178467 0.0864986660
-0.0085145654 0.1837922972 0.5957338200 0.2219866323 0.0013989971 0.0867690348
0.0174017180 0.1992074820 0.1541206431 0.2219848593 0.0014027205 0.0863282532
-0.1531013432 1.0248750920 -0.6540805680 0.2219962224 0.0003667205 0.0879037099
-0.4929078019 0.9100187094 -0.6540278446 0.2205692948 -0.0000183801 0.0864855071
0.4193345585 0.2159537973 -0.3426742862 0.2219835274 0.0004834652 0.0878683397
-0.4896237638 0.6179411356 -0.4964045201 0.2213246267 0.0004146695 0.0876985936
0.4626812251 0.3227469378 -0.3849037728 0.2220544678 0.0004928624 0.0878633028
0.0916936947 0.0846340314 -0.3293047310 0.2219858125 -0.0012333006 0.0858373270
-0.0067636790 0.1158644804 0.4245985262 0.2219790238 -0.0004769347 0.0869895922
-0.3656260896 0.5762999681 -0.5753683802 0.2219517245 -0.0007120297 0.0861447908
-0.4631205258 0.0727484477 0.5771439843 0.2231534592 0.0001888269 0.0865604546
0.3804238688 0.1424058531 -0.3972194542 0.2219966862 -0.0008585872 0.0854065895
0.4084668159 0.8312074380 -0.5678748218 0.2219713415 0.0004826198 0.0878688702
0.1150313287 0.1323444254 0.3756870102 0.2219858125 -0.0014157276 0.0864476220
0.1003809112 0.3621490459 -0.4088624081 0.2219803373 0.0004744170 0.0878719538
0.4581644935 0.4198805953 -0.4207156938 0.2220531415 0.0005489219 0.0878408801
-0.4653286136 0.1271329435 0.5182975272 0.2216990933 -0.0013304723 0.0861393681
0.0524487086 0.0771893169 0.7432189465 0.2219858125 -0.0013992566 0.0863029043
0.1403138901 0.5337783354 -0.4706615813 0.2219746635 0.0004775007 0.0878708872
-0.0101411738 0.1170666023 0.2264936157 0.2219702096 -0.0012853106 0.0870819950
-0.4891177780 0.0950040817 0.7547616451 0.2207734494 -0.0007075120 0.0866246943
-0.4039069056 0.3398854785 -0.4824904529 0.2219460876 -0.0004724014 0.0851984973
-0.2900730123 0.0507480024 0.7700881349 0.2219697855 -0.0013450751 0.0862903539
-0.2895206237 0.1347517643 0.3156409092 0.2219804664 -0.0014183886 0.0865337085
-0.4544776016 0.1344227047 0.2019312301 0.2219576281 0.0012044453 0.0861861696
-0.4989855603 0.0799889267 0.0362782565 0.2219399217 -0.0012079701 0.0872176248
-0.4631205258 0.0045173742 -0.2646117990 0.2230145826 -0.0008901134 0.0865557014
-0.4288092032 0.1475177209 -0.1202688156 0.2219723713 0.0014170992 0.0865026788
-0.4734921294 0.1016058132 0.1278904094 0.2222960210 0.0007954482 0.0863673213
-0.2077052517 0.1373189953 -0.1060916690 0.2220066564 0.0014181871 0.0865321780
-0.3472768894 0.8001887676 -0.6499049853 0.2219826607 -0.0004887461 0.0852037739
-0.1652064332 0.1914893492 0.5317884596 0.2220003444 0.0014158297 0.0864891497
-0.1884634232 0.9663581384 -0.7017516202 0.2219765813 0.0004557489 0.0877801368
-0.4943178869 0.0702900564 -0.0025172403 0.2219703259 -0.0013997673 0.0866726064
-0.0097217412 0.9444233157 -0.6198792397 0.2219867571 0.0004762000 0.0878714006
-0.1036862883 0.0559135666 -0.3319043961 0.2219831827 0.0002698085 0.0870256333
-0.4110626923 0.0778549907 -0.0354918863 0.2219394976 -0.0013881971 0.0868185043
-0.2835397843 0.4457325312 -0.5159937741 0.2219553529 0.0010573460 0.0873742574
-0.3746005089 0.1343321586 0.3553467860 0.2219588593 -0.0014164240 0.0864674731
0.3894168796 0.5595314912 -0.4697151034 0.2219500295 0.0004544071 0.0878784475
0.1143328989 0.0717716521 -0.0831156790 0.2219854720 -0.0013624340 0.0869255199
0.4446808334 0.1966125787 -0.4737319528 0.2226589798 -0.0003300525 0.0856585554
-0.2848603942 0.1248226869 0.4837424103 0.2219858125 -0.0014161559 0.0865739908
0.3721122452 0.5171927038 -0.4557327724 0.2219092905 0.0004631617 0.0878734631
-0.4914893183 0.0735970633 0.1833282356 0.2208152707 -0.0006552453 0.0866373170
-0.3211063138 0.0577750033 -0.3319043961 0.2219723217 0.0005194326 0.0870255936
-0.0783597736 0.1998170976 0.1577784443 0.2219914110 0.0014056311 0.0863463937
-0.0928696266 0.5994790403 -0.4950069457 0.2219920437 0.0004941404 0.0878648262
-0.3750089684 0.0709530237 -0.0863901710 0.2219741784 -0.0013410226 0.0869958135
-0.0819211110 0.0439716283 -0.3463682122 0.2219711685 -0.0013478184 0.0868250021
-0.2920086930 0.1471169337 -0.4012331008 0.2219876607 -0.0008523134 0.0854027994
0.3887846682 1.0989139354 -0.7574691811 0.2220093501 -0.0004767106 0.0851996590
-0.4749546796 0.0238732835 -0.0402661669 0.2221934323 -0.0007687475 0.0866632149
0.1227937665 0.0490248734 -0.1446703445 0.2219845387 -0.0006534680 0.0870255950
-0.3925122042 0.3155502432 -0.4744400463 0.2219581671 -0.0004735007 0.0851986434
-0.1379625272 1.1923993577 -0.6987085197 0.2219858125 0.0005183886 0.0878545496
-0.0691407388 0.0964446632 0.6440189885 0.2219858125 -0.0013874935 0.0862407469
-0.0206201306 0.2098251750 0.2501570411 0.2219874720 0.0014109446 0.0863932915
-0.2766628968 0.1336733899 0.2036974725 0.2219858125 -0.0013371049 0.0870073383
0.4876670902 0.2195790892 0.3454366037 0.2222359032 0.0013945644 0.0865866248
-0.4429598789 1.1070766299 -0.6677958167 0.2219548621 0.0004891673 0.0878663453
-0.3387675935 0.7244025868 -0.5371320650 0.2221497515 0.0006724964 0.0877726063
-0.1989450196 0.6055422555 -0.4962502449 0.2220072990 0.0004877489 0.0878669794
-0.1914996840 1.0032700338 -0.6422105730 0.2220068820 0.0006079957 0.0878162021
0.3979881953 0.1525940922 -0.0826327443 0.2219565118 0.0013184368 0.0860133894
-0.2223545117 0.6553806608 -0.5978771929 0.2219858125 -0.0004250468 0.0851821384
0.0305003810 0.8029037490 -0.5686084133 0.2219835954 0.0004683021 0.0878741709
-0.4408160308 0.2045068916 -0.3388658665 0.2219468876 0.0004497134 0.0878799354
-0.1205920744 0.8124251470 -0.6480703811 0.2219632380 0.0010579872 0.0874189624
0.0891647077 0.1026201649 -0.3569881122 0.2219858125 -0.0011383517 0.0856896519
0.4908553765 0.5604483166 -0.4739135428 0.2223703869 0.0004388156 0.0878129085
-0.2839901460 0.1338368750 -0.2207197977 0.2220333486 0.0014154226 0.0866075014
-0.2930896206 0.1943929121 0.5312057263 0.2220483883 0.0014117020 0.0864441100
-0.1922561293 0.0497462024 -0.3858051018 0.2219811373 -0.0005786822 0.0859272362
-0.0535658022 1.0930730875 -0.6621243958 0.2219858125 0.0004404369 0.0878836092
0.4460992943 0.0364386728 0.4672973333 0.2208186409 -0.0000035915 0.0865827000
-0.0555060049 0.1347517643 0.3136938228 0.2219858125 -0.0014184396 0.0865352929
-0.3358229284 0.0439716283 -0.3849213047 0.2219811954 -0.0013560226 0.0862034603
0.4873020476 0.5755847312 -0.5806240267 0.2219993259 -0.0009574850 0.0855065937
-0.1902657777 0.1810280322 0.6160590456 0.2220045813 0.0013979134 0.0867748333
-0.2442964323 0.7271718518 -0.6189876937 0.2219858125 -0.0006923177 0.0852973242
-0.4204621059 0.0559513680 -0.1945522093 0.2219198025 -0.0014162027 0.0865492674
0.0596689933 0.0715695811 -0.3029894902 0.2219858125 -0.0013134013 0.0860062646
0.2333879153 0.1030308103 0.5882484006 0.2219992564 0.0012910964 0.0869798461
0.3547214903 0.1915402329 0.5971279759 0.2218473515 0.0013922027 0.0867676759
-0.2428291217 0.1902576514 -0.4244074113 0.2219858125 -0.0006143446 0.0852567980
-0.2642897303 0.1384026406 -0.1163757250 0.2220309160 0.0014172822 0.0865243383
0.2127639365 0.9533711562 -0.6960220205 0.2220134678 0.0002021276 0.0879072177
0.3022243122 0.1357775443 -0.2417888076 0.2219268607 0.0014053971 0.0867068532
-0.1410851894 0.2028368662 0.1871288637 0.2219971614 0.0014176368 0.0864935369
-0.2513364262 0.1321096566 0.3871413825 0.2219642579 0.0012794269 0.0863219525
0.4940164344 0.4301261464 -0.4860324839 0.2233514407 0.0000483858 0.0862097128
-0.1469809904 0.0944346804 0.0126812595 0.2219757486 0.0012683772 0.0861788490
0.1939137547 0.1976430992 0.4976596803 0.2219675983 0.0013740765 0.0868815411
-0.0634649462 0.7963746331 -0.6631793943 0.2219925898 -0.0002474454 0.0852130590
-0.3368598333 0.7691643824 -0.5511156513 0.2221497004 0.0003769432 0.0878918971
0.2637581331 0.5205680341 -0.4641355378 0.2219428678 0.0004697220 0.0878728049
0.1033274160 0.2040362931 -0.4310856534 0.2219858125 -0.0006006766 0.0852504604
-0.2025576520 0.1347517643 0.3003846747 0.2219858125 -0.0014184396 0.0865352929
0.3474508624 0.0810153181 0.6130259451 0.2220015543 -0.0006651134 0.0868602915
0.3259466837 0.2677131201 -0.4546961271 0.2219914735 0.0008452170 0.0875201255
0.3589074631 0.7891540450 -0.5552588992 0.2218664919 0.0004403560 0.0878781822
-0.3196719011 0.1161908336 0.1798570230 0.2219763401 -0.0008641361 0.0861320121
0.2370784441 0.9420129045 -0.6172863278 0.2219574479 0.0004853078 0.0878677609
0.2554056940 0.1364190734 0.2271349178 0.2219825898 -0.0014017758 0.0863202646
-0.4634853953 0.1069472115 0.4511796379 0.2231186152 0.0008073773 0.0866232887
0.4531748711 0.0909905770 -0.0000619823 0.2220053543 0.0013103730 0.0860907128
0.4744680655 0.0249433516 0.4859207591 0.2232483528 -0.0003357900 0.0866484107
0.4644805725 0.0118584375 -0.1242843656 0.2223154195 -0.0008166879 0.0866243284
-0.0419696214 0.4436670320 -0.5150824891 0.2219715472 0.0008994609 0.0875268702
0.1392167399 0.1831999526 0.0782637360 0.2219747614 0.0013761616 0.0861917951
0.3359949426 0.8372779681 -0.5746368242 0.2218698153 0.0004810014 0.0878644375
-0.0462313899 0.8672726328 -0.6739756035 0.2219858125 -0.0004868269 0.0852030717
-0.4375186608 0.2252366803 -0.4355266304 0.2219717430 0.0002023447 0.0878833950
0.2864793529 0.0833370073 0.8081700870 0.2219893118 -0.0007826822 0.0877110035
0.1867451765 0.9720640160 -0.7042688654 0.2219961926 0.0004846198 0.0878126106
-0.3107732365 0.0638297831 -0.1631816355 0.2219727515 0.0013142056 0.0866798759
0.4250530318 0.4559024596 -0.5708061110 0.2214104806 -0.0004614142 0.0853576065
0.3797578064 0.3620063282 -0.3989715534 0.2219257033 0.0004879744 0.0878656063
0.4989408455 0.1110898637 -0.1575626344 0.2234031400 0.0000048227 0.0865911426
0.4294813493 0.2127659436 0.1989628870 0.2219893018 0.0014125205 0.0864169426
0.1015959437 0.0703941784 -0.3003028620 0.2219858125 -0.0013215559 0.0860254731
-0.2328383153 0.7527186559 -0.6321408119 0.2219858125 -0.0005379617 0.0852238065
0.1665148147 0.1309995631 -0.2049560625 0.2219716210 0.0014174325 0.0865462802
0.4672362660 0.1041527648 0.4727366479 0.2225520862 0.0008094184 0.0866369582
-0.0871046610 0.5059128450 -0.4615851777 0.2219917401 0.0004555900 0.0878785042
0.1951138483 0.1646385566 -0.0039661210 0.2219698862 0.0013799318 0.0862074944
-0.2610149986 0.1914942840 0.5570457587 0.2220291657 0.0014112183 0.0866685894
-0.3097658096 0.1347517643 0.2732089687 0.2219858125 -0.0014184396 0.0865352929
0.4542150867 0.0022938963 -0.2592748802 0.2215321416 -0.0009792879 0.0865466475
-0.0539913596 0.1671171692 -0.3266132106 0.2219911657 0.0012541474 0.0871978489
0.4660421838 0.0906097246 0.7974414068 0.2225739741 -0.0005738652 0.0876386673
0.4660969214 0.2563071663 -0.4488425104 0.2220077884 0.0006201432 0.0877691751
-0.1832283384 0.1347517643 0.2711355476 0.2219858125 -0.0014184396 0.0865352929
0.0673119261 0.1347517643 0.2505343985 0.2219858125 -0.0014184396 0.0865352929
-0.4300168769 0.3303369401 -0.4781613298 0.2219038777 -0.0004658056 0.0851984207
0.4038900460 0.0553191453 -0.1855637234 0.2220223940 -0.0014173063 0.0865682660
0.3508219941 0.1347517643 0.2561042790 0.2219873586 -0.0014183432 0.0865313511
-0.4929077579 0.1037736329 -0.2958324481 0.2205704849 -0.0000530965 0.0865041085
-0.4929077579 0.1721500469 0.4180848415 0.2205673728 0.0000000000 0.0865352929
0.4490004984 0.1281265505 0.4555318334 0.2221106224 -0.0014075418 0.0864174007
-0.1579928138 0.0869857730 0.6909591769 0.2219858125 -0.0013908949 0.0862571142
-0.3240232753 0.3470988383 -0.3985543492 0.2220981174 0.0004736127 0.0878675397
-0.2257815271 0.6864049581 -0.5251699111 0.2220103203 0.0005367376 0.0878478418
-0.4631205258 0.0941061400 0.2170658163 0.2231735344 -0.0000145461 0.0865091071
-0.2643695955 0.1698482754 0.7249072314 0.2220028735 0.0014066666 0.0867159057
0.1959076780 0.3945153814 -0.5017483864 0.2219858125 -0.0003805064 0.0851688462
-0.3757257202 0.0876271234 -0.0112397631 0.2219476962 0.0008940241 0.0854954434
0.1539032212 1.0347894516 -0.7339052847 0.2219858125 -0.0005690510 0.0852370207
0.4688034403 0.1397961143 0.2941075560 0.2222744025 -0.0013849659 0.0865402475
0.2812262980 0.1418464844 -0.0875741666 0.2219377827 0.0013315900 0.0860497937
-0.2383957178 0.1378272222 -0.1103377680 0.2220158082 0.0014180538 0.0865352929
0.4248226787 0.8931156949 -0.7134047457 0.2207201785 0.0000670269 0.0866846135
0.4517242471 0.1104614623 0.1759440105 0.2212846565 0.0008007631 0.0864214036
0.0707430862 0.1808560407 -0.3421447954 0.2219804749 0.0005760737 0.0878265879
-0.0900586551 0.0952921058 0.6161077875 0.2219991288 0.0011394240 0.0873730475
-0.4439612022 0.0855830852 -0.3268901638 0.2218736877 -0.0012331645 0.0858473412
-0.4912886389 0.1538880382 0.7602321695 0.2207797615 0.0005154056 0.0868157950
0.1395691639 0.6934192399 -0.6084506887 0.2219858125 -0.0002990000 0.0851487952
0.1609231455 0.0728329229 -0.0788705644 0.2219853884 -0.0013892297 0.0868081369
0.0515060619 0.1867912219 0.5763294468 0.2219825089 0.0014044566 0.0867317582
-0.3395193211 1.1910075819 -0.6982024899 0.2219845586 0.0005097915 0.0878585085
0.0066340350 1.1875778402 -0.6969029184 0.2219858125 0.0005008340 0.0878623496
0.2914820065 0.0800176643 0.6127408983 0.2219957614 -0.0007930964 0.0868229270
0.1409531312 0.1289923618 0.3713315907 0.2219855330 0.0007938028 0.0860047128
-0.4929077579 0.1095577957 -0.1619973150 0.2205673728 0.0000000000 0.0865352929
-0.0425733930 0.1299144043 0.4149479807 0.2219954990 0.0013125857 0.0869821582
