-0.3799631325 0.8749999453 -0.0545593403 0.4375000039 -0.0624999961 -0.2500828281
-0.3980056314 0.8749999453 0.3554980715 0.4375000039 -0.0624999961 -0.2500828281
0.5000000000 1.0306709356 0.6162678677 0.5000000000 0.0000000000 -0.2500828281
-0.4999999375 0.9068107558 -0.2801316387 0.3750000078 0.0000000000 -0.2500828281
0.3207306987 1.9963380002 -0.4780288764 0.4375000039 0.0120784992 -0.1887865195
-0.3425523848 2.0302223106 -0.4893236882 0.4375000039 0.0127271242 -0.1889093944
-0.4999999375 0.9982778126 -0.4436610660 0.3750000078 0.0000000000 -0.2500828281
0.0995082125 0.8750000078 -0.2619688274 0.4375000039 -0.0624999961 -0.2500828281
-0.4644365022 0.8749999453 -0.4091387557 0.4375000039 -0.0624999961 -0.2500828281
-0.1465862721 1.1249999297 0.3026196373 0.4375000039 0.0624999961 -0.2500828281
-0.1560462090 0.8750000078 0.5766007452 0.4375000039 -0.0588113713 -0.2405418287
0.3876516945 1.9831806261 -0.5625828086 0.4375000039 0.0000000000 -0.3125828242
0.1644395210 1.9554515028 -0.4644000022 0.4375000039 0.0123304992 -0.1888285194
0.2297729544 1.5105430306 -0.3785971951 0.4375000039 0.0101557494 -0.1884224570
0.2165645802 1.0618044961 0.6249171172 0.4375000039 0.0000000000 -0.1875828320
0.4608501274 1.1249999297 0.1058178996 0.4375000039 0.0624999961 -0.2500828281
0.5000000000 1.6208048987 -0.4078863808 0.5000000000 0.0000000000 -0.2500828281
-0.2265602671 1.1249999297 -0.0361492790 0.4375000039 0.0624999961 -0.2500828281
0.1455882722 1.7736898891 -0.5625828086 0.4375000039 0.0000000000 -0.3125828242
-0.3926224442 1.1249999297 0.5960208065 0.4375000039 0.0624999961 -0.2500828281
0.5000000000 1.0271492483 -0.4776370639 0.5000000000 0.0000000000 -0.2500828281
0.3743651954 2.0730343704 -0.5625828086 0.4375000039 -0.0011104374 -0.3124026367
-0.4210420674 0.9453820034 0.6249170547 0.4375000039 0.0000000000 -0.1875828320
0.4206530675 2.0246182485 -0.4874556258 0.4375000039 0.0128299367 -0.1889437694
0.3001125125 1.1249999297 0.0676990895 0.4375000039 0.0624999961 -0.2500828281
0.4627228148 0.8750000078 0.5522011842 0.4375000039 -0.0624999961 -0.2500828281
-0.4999999375 0.8846293822 0.0650130897 0.3750000078 0.0000000000 -0.2500828281
-0.4355516290 0.4072022245 0.5624170586 0.4375000039 0.0000000000 -0.1875828320
0.2485221407 1.5433663410 -0.3895383194 0.4375000039 0.0100404369 -0.1883965195
-0.2564522027 1.1249999297 0.5973292439 0.4375000039 0.0624999961 -0.2500828281
0.0456930284 1.6855330822 -0.4369272539 0.4375000039 0.0076751245 -0.1880770820
0.0211511549 0.8749999453 0.1383497101 0.4375000039 -0.0624999961 -0.2500828281
0.4930459379 0.8749999453 0.1939053316 0.4375000039 -0.0624999961 -0.2500828281
-0.4999999375 1.5889705882 -0.4023803186 0.3750000078 0.0000000000 -0.2500828281
-0.1603075837 0.8749999453 0.3813713824 0.4375000039 -0.0624999961 -0.2500828281
-0.3499390719 1.4016875374 -0.5298119981 0.4364769415 -0.0128254992 -0.3111629493
-0.4033331935 1.6423427099 -0.5625828086 0.4375000039 -0.0018112499 -0.3124734492
-0.4374999414 0.1475646158 -0.5311989981 0.4328055042 0.0398638100 -0.2687794520
-0.3096110119 1.9332240667 -0.5625828086 0.4375000039 0.0000000000 -0.3125828242
-0.4999999375 1.0150736866 0.2665605146 0.3750000078 0.0000000000 -0.2500828281
-0.4902499381 0.8749999453 0.1815755199 0.4375000039 -0.0624999961 -0.2500828281
-0.4999999375 1.1054408059 -0.1036758998 0.3750000078 0.0000000000 -0.2500828281
0.0650381522 0.8750000078 -0.3800106950 0.4375000039 -0.0624999961 -0.2500828281
-0.0917334005 1.1249999297 0.5630213711 0.4375000039 0.0624999961 -0.2500828281
0.2226880798 2.2499998594 -0.5053818747 0.4375000039 0.0624999961 -0.2500828281
-0.1317212105 2.2499998594 -0.5405741225 0.4375000039 0.0624999961 -0.2500828281
-0.4999999375 1.0998091188 0.2773725139 0.3750000078 0.0000000000 -0.2500828281
-0.3767210702 1.6935470192 -0.5625828086 0.4375000039 0.0000000000 -0.3125828242
-0.3868005696 0.7447247035 0.4999171250 0.4375000039 0.0000000000 -0.3125828242
-0.1770813327 1.7827652636 -0.5625828086 0.4375000039 0.0000000000 -0.3125828242
0.3310928231 1.4814699074 -0.5564061215 0.4382780664 -0.0098277494 -0.3117809493
-0.4062590059 0.7308598293 0.5624171211 0.4375000039 0.0000000000 -0.1875828320
0.0723546517 1.9146808178 -0.5625828086 0.4375000039 0.0000000000 -0.3125828242
-0.2722419517 0.8749999453 0.1500729594 0.4375000039 -0.0624999961 -0.2500828281
0.0649744022 0.9988676251 -0.5000828125 0.4375000039 0.0000000000 -0.3125828242
0.2638208898 0.9014619437 -0.5000828125 0.4375000039 -0.0238205610 -0.3035507623
0.4357041915 0.9061552559 -0.5000828125 0.4375000039 -0.0182187489 -0.3067443871
0.2047476435 1.8682581332 -0.4375828164 0.4375000039 0.0102392494 -0.1884453945
-0.1666090208 1.1249999297 0.2793337638 0.4375000039 0.0624999961 -0.2500828281
-0.3763335702 0.4613087212 -0.4375828164 0.4805068762 -0.0086086245 -0.2094187682
0.0361859040 1.1249999297 0.0277024045 0.4375000039 0.0624999961 -0.2500828281
0.2643139522 1.9228301923 -0.4535262529 0.4375000039 0.0106198743 -0.1885087695
-0.4999999375 1.5145230303 -0.4333705667 0.3750000078 0.0000000000 -0.2500828281
0.4900499381 1.1249999297 -0.0091184057 0.4375000039 0.0624999961 -0.2500828281
-0.4999999375 1.1000189312 -0.0374379664 0.3750000078 0.0000000000 -0.2500828281
0.3877566945 1.2273955483 -0.3325306355 0.4353714415 0.0172138114 -0.1900659569
-0.1067931496 0.8749999453 0.5412797474 0.4375000039 -0.0624999961 -0.2500828281
0.3957565065 1.7018419561 -0.4375828164 0.4375000039 0.0114119993 -0.1886409570
-0.4108052556 1.7688332644 -0.5625828086 0.4375000039 0.0000000000 -0.3125828242
-0.0436742160 0.9159942553 0.6249171172 0.4375000039 -0.0096176869 -0.1898532694
-0.4999998750 1.9355965665 -0.4766839390 0.3750000078 0.0000000000 -0.2500828281
-0.4374999414 0.5161588427 0.5345010603 0.3750000078 0.0000000000 -0.2500828281
0.3587415713 2.0187953738 -0.5625828086 0.4375000039 0.0000000000 -0.3125828242
0.4797531263 1.6408783349 -0.4220423174 0.4329437542 0.0120381867 -0.1890488319
0.0284685920 0.9478975658 0.6249171172 0.4375000039 0.0000000000 -0.1875828320
-0.4999999375 1.1754149890 -0.4048878184 0.3750000078 0.0000000000 -0.2500828281
-0.4957533753 0.8749999453 0.3070309496 0.4375000039 -0.0624999961 -0.2500828281
0.0685601520 1.8267386983 -0.4375828164 0.4375000039 0.0108136868 -0.1885902070
0.0807712137 1.1285607420 -0.3125828242 0.4375000039 0.0010931249 -0.1877547695
-0.4118779430 0.8953436940 -0.5000828125 0.4375000039 -0.0245028110 -0.3047305122
-0.4999999375 1.0053514997 0.6231998673 0.3750000078 0.0000000000 -0.2500828281
0.3729822579 1.4475240970 -0.3750828203 0.4375000039 0.0095972494 -0.1883615195
0.4803841262 1.5009123437 -0.5625828086 0.4327673167 -0.0080086870 -0.3117263243
0.5000000000 0.8775329452 -0.3472155720 0.5000000000 0.0000000000 -0.2500828281
0.2935550754 0.8749999453 0.1843040197 0.4375000039 -0.0624999961 -0.2500828281
0.4722308767 2.2499998594 -0.5872600570 0.4375000039 -0.0366378727 -0.2859646384
-0.2509655156 2.0095706869 -0.5625828086 0.4375000039 0.0000000000 -0.3125828242
0.3331475729 1.1249999297 0.4611975649 0.4375000039 0.0624999961 -0.2500828281
0.5000000000 1.0125991867 0.4750441891 0.5000000000 0.0000000000 -0.2500828281
-0.3999140688 0.3872766633 0.4999171250 0.4375000039 0.0000000000 -0.3125828242
-0.4374999414 0.4657978459 0.5324155605 0.3750000078 0.0000000000 -0.2500828281
-0.3227963236 0.8749999453 -0.1073079620 0.4375000039 -0.0624999961 -0.2500828281
0.4375000039 0.5320959042 0.5032574998 0.3750000078 0.0000000000 -0.2500828281
0.0047570935 0.8749999453 -0.2635743273 0.4375000039 -0.0624999961 -0.2500828281
0.3173907614 0.9306536918 0.6249171172 0.4375000039 -0.0050658122 -0.1898237694
-0.2445988910 1.2854611072 -0.3615633837 0.4375000039 0.0143743741 -0.1893275194
-0.3142000741 1.2386875476 -0.5000828125 0.4375000039 -0.0052010622 -0.3120487617
-0.4999999375 1.9042021310 -0.4826114386 0.3750000078 0.0000000000 -0.2500828281
0.3906615068 1.4268692858 -0.3750828203 0.4371747539 0.0104813743 -0.1885538320
-0.1967407065 1.7435873910 -0.4375828164 0.4375000039 0.0096454994 -0.1883498320
0.3857302571 1.8456754471 -0.4375828164 0.4375000039 0.0090782494 -0.1882511445
0.3494288219 1.5333508417 -0.3861997571 0.4375000039 0.0095974994 -0.1883383945
-0.4079547558 0.0588337463 -0.5625828086 0.4342271291 0.0000000000 -0.2865424508
0.2308794543 1.7670394521 -0.4375828164 0.4375000039 0.0100518744 -0.1884049570
0.2337459541 1.5771414014 -0.5625828086 0.4375000039 -0.0057668746 -0.3121280117
0.5000000000 1.0046340622 -0.3496817594 0.5000000000 0.0000000000 -0.2500828281
-0.4507923781 1.2599015463 -0.5000828125 0.4388536288 -0.0059228746 -0.3117960118
-0.0238289673 1.1249999297 -0.2467957033 0.4375000039 0.0624999961 -0.2500828281
0.4767329390 1.2396090475 -0.5000828125 0.4379862539 -0.0054171872 -0.3119661993
0.2362951415 0.8749999453 0.5280915607 0.4375000039 -0.0624999961 -0.2500828281
-0.4999999375 1.0557376840 -0.4990113126 0.3750000078 0.0000000000 -0.2500828281
-0.0617436524 0.8749999453 -0.0104488431 0.4375000039 -0.0624999961 -0.2500828281
-0.3749999453 0.5548244653 0.5541755591 0.5000000000 0.0000000000 -0.2500828281
-0.1317523980 1.1249999297 0.3978543189 0.4375000039 0.0624999961 -0.2500828281
-0.4999999375 0.9284843795 -0.0692070894 0.3750000078 0.0000000000 -0.2500828281
-0.3325261355 0.9870178758 -0.5000828125 0.4375000039 0.0000000000 -0.3125828242
-0.4374999414 0.2086131120 0.5043038747 0.3750000078 0.0000000000 -0.2500828281
0.3530236342 2.0954249940 -0.5625828086 0.4375000039 -0.0034706248 -0.3120196367
0.4533085654 0.8749998828 0.2627560148 0.4375000039 -0.0624999961 -0.2500828281
-0.4999999375 1.2166429240 -0.3266392608 0.3760300077 0.0002830000 -0.2490924532
0.0426365911 1.6496607094 -0.5625828086 0.4375000039 -0.0020948749 -0.3124045117
0.4402024412 1.9309917543 -0.4562467527 0.4371746914 0.0101968119 -0.1884913320
-0.2947565128 0.8749999453 0.4221323799 0.4375000039 -0.0624999961 -0.2500828281
-0.5000000000 0.9442743160 -0.2822044511 0.3750000078 0.0000000000 -0.2500828281
-0.3359893228 2.2196582363 -0.5000828125 0.4375000039 0.0000000000 -0.1875828320
-0.0667943396 1.2456484221 -0.5000828125 0.4375000039 -0.0041117497 -0.3122906367
0.1764509577 0.8749999453 -0.1621394586 0.4375000039 -0.0624999961 -0.2500828281
-0.0717985268 0.8749998828 0.0732326517 0.4375000039 -0.0624999961 -0.2500828281
-0.1332888354 1.2804106700 -0.3590381963 0.4375000039 0.0144841241 -0.1895532694
0.3636552585 0.8749999453 -0.3000118250 0.4375000039 -0.0624999961 -0.2500828281
0.2859787634 1.1249999297 0.4548393778 0.4375000039 0.0624999961 -0.2500828281
-0.3310049481 1.9972336252 -0.5625828086 0.4375000039 0.0000000000 -0.3125828242
0.2132330179 1.1249999297 -0.2389809538 0.4375000039 0.0624999961 -0.2500828281
0.5000000000 1.6831658948 -0.5326838105 0.5000000000 0.0000000000 -0.2500828281
0.5000000000 1.7697556394 -0.4691079394 0.5000000000 0.0000000000 -0.2500828281
0.5000000000 1.0037846873 -0.4655792522 0.5000000000 0.0000000000 -0.2500828281
0.3847648197 1.1527419280 -0.5000828125 0.4375000039 0.0000000000 -0.3125828242
-0.1876643945 1.3404716662 -0.3750828203 0.4375000039 0.0111746868 -0.1886323320
0.2468187033 1.4717953455 -0.3750828203 0.4375000039 0.0102038744 -0.1884318320
0.4008740687 1.5863236509 -0.5625828086 0.4384535038 -0.0047675622 -0.3122305117
0.3942104441 1.5259397171 -0.3837293823 0.4375000039 0.0090554994 -0.1882571445
-0.0510655281 1.1249999297 0.1950153941 0.4375000039 0.0624999961 -0.2500828281
-0.0154369678 0.8749999453 0.3221673861 0.4375000039 -0.0624999961 -0.2500828281
-0.4800078137 1.1249999297 0.4101062556 0.4375000039 0.0624999961 -0.2500828281
-0.3749999453 0.2021562374 0.5434457473 0.5000000000 0.0000000000 -0.2500828281
-0.0661052146 1.9556399403 -0.4644628147 0.4375000039 0.0125496867 -0.1888799569
-0.4933280629 1.6633798335 -0.5625828086 0.4367837540 -0.0014324999 -0.3124216992
-0.1575159589 2.2499998594 -0.5135674992 0.4375000039 0.0624999961 -0.2500828281
-0.2047442685 2.2499998594 -0.5302479981 0.4375000039 0.0624999961 -0.2500828281
-0.1158778365 0.8749999453 -0.3605562587 0.4375000039 -0.0624999961 -0.2500828281
-0.3970893189 1.3647781647 -0.3750828203 0.4385943788 0.0128454992 -0.1890021444
-0.0311027793 1.5936912754 -0.4063132559 0.4375000039 0.0107108743 -0.1885867695
0.0495307782 0.8749999453 0.3271250108 0.4375000039 -0.0624999961 -0.2500828281
0.2430782036 1.1249999297 0.1859917696 0.4375000039 0.0624999961 -0.2500828281
0.0603278400 1.1249999297 0.2492525782 0.4375000039 0.0624999961 -0.2500828281
0.0746480266 1.6405688975 -0.4219391299 0.4375000039 0.0097169994 -0.1884058945
0.3663151334 0.8749998828 -0.4399066913 0.4375000039 -0.0617393086 -0.2518023280
-0.4341759416 0.5175855302 0.4999171250 0.4375000039 0.0000000000 -0.3125828242
-0.3766000077 1.4166381615 -0.5347955603 0.4366325040 -0.0118567493 -0.3113325118
-0.1085448370 0.8749999453 -0.4922073755 0.4375000039 -0.0524619967 -0.2801498262
-0.3362098227 1.2635659210 -0.5000828125 0.4373666914 -0.0079276245 -0.3117408243
0.5000000000 0.9214571299 -0.3382392601 0.5000000000 0.0000000000 -0.2500828281
0.1825687073 1.1463373034 -0.5000828125 0.4375000039 0.0000000000 -0.3125828242
0.2582673276 1.2781113576 -0.3578885089 0.4373977539 0.0148006866 -0.1894309569
0.5000000000 1.0335282479 0.3960425065 0.5000000000 0.0000000000 -0.2500828281
-0.2311802668 0.8749999453 0.3896698819 0.4375000039 -0.0624999961 -0.2500828281
-0.4999999375 0.9654468772 -0.3695148832 0.3750000078 0.0000000000 -0.2500828281
-0.4999999375 1.1174748677 0.0963879002 0.3750000078 0.0000000000 -0.2500828281
0.0333574042 1.1249999297 0.4660965021 0.4375000039 0.0624999961 -0.2500828281
-0.4990185626 0.8749998828 -0.0842054635 0.4375000039 -0.0624999961 -0.2500828281
0.4444650035 0.8749999453 0.3322057605 0.4375000039 -0.0624999961 -0.2500828281
-0.3190528238 0.8749999453 0.4925875630 0.4375000039 -0.0624999961 -0.2500828281
0.1414836474 0.8749999453 -0.4577158776 0.4375000039 -0.0603744962 -0.2590865776
0.0773942139 1.4341323479 -0.5406269350 0.4375000039 -0.0130959367 -0.3111873868
-0.4999443125 1.0681374332 0.6249170547 0.4375000039 0.0000000000 -0.1875828320
0.3848427572 1.9079913808 -0.5625828086 0.4375000039 0.0000000000 -0.3125828242
-0.3068377621 1.1277738045 -0.3125828242 0.4376482539 0.0007413750 -0.1876878320
-0.4075498183 0.8749999453 0.3157023240 0.4375000039 -0.0624999961 -0.2500828281
-0.4111026931 1.5481197782 -0.5625828086 0.4375000039 -0.0055906247 -0.3122452617
0.0826237761 2.1621588024 -0.5625828086 0.4375000039 -0.0105049993 -0.3108780743
-0.1190178988 1.1249999297 -0.1352382103 0.4375000039 0.0624999961 -0.2500828281
-0.0923226505 1.7153674553 -0.5625828086 0.4375000039 0.0000000000 -0.3125828242
-0.1624080211 1.9645170022 -0.4674218145 0.4375000039 0.0125014367 -0.1888600194
0.4449298159 1.1249999297 -0.0595907150 0.4375000039 0.0624999961 -0.2500828281
-0.3973468189 0.8750000078 -0.4963573752 0.4375000039 -0.0391112476 -0.2969219502
0.1234523985 1.1249999297 0.1270323983 0.4375000039 0.0624999961 -0.2500828281
0.4375000039 0.1735315517 -0.5099159369 0.4173695052 0.0000000000 -0.2500828281
0.0806422762 1.1249999297 0.4559100653 0.4375000039 0.0624999961 -0.2500828281
0.2554245153 1.1249999297 -0.2396487663 0.4375000039 0.0624999961 -0.2500828281
0.2328995167 0.8806119450 -0.5000828125 0.4375000039 -0.0382669976 -0.2977885126
0.1398035225 1.1059476809 0.6249170547 0.4375000039 0.0000000000 -0.1875828320
0.0629688398 0.8750000078 0.1271966483 0.4375000039 -0.0624999961 -0.2500828281
-0.0942787754 0.8749999453 -0.0090462807 0.4375000039 -0.0624999961 -0.2500828281
0.2595151400 1.5201930300 -0.3818138824 0.4375000039 0.0099603744 -0.1883837695
0.5000000000 1.0627416836 0.1481823345 0.5000000000 0.0000000000 -0.2500828281
0.0640197772 2.1924186755 -0.5625828086 0.4375000039 -0.0136946241 -0.3103605119
0.3426681348 0.8749999453 -0.3292020732 0.4375000039 -0.0624999961 -0.2500828281
-0.1752594578 1.9488101282 -0.5625828086 0.4375000039 0.0000000000 -0.3125828242
-0.3749999453 0.5797889638 -0.4204585050 0.4934016879 0.0000000000 -0.2424245786
-0.4019616936 0.7048642059 0.4999171250 0.4375000039 0.0000000000 -0.3125828242
-0.4285831295 1.8687533207 -0.4375828164 0.4375000039 0.0086868120 -0.1881908320
-0.3028084498 1.5571679027 -0.3941388191 0.4375000039 0.0104203743 -0.1884652695
0.3232391360 1.1249999297 -0.3125593242 0.4375000039 0.0624999961 -0.2500828281
0.5000000000 0.9951615003 0.2969888252 0.5000000000 0.0000000000 -0.2500828281
-0.0609527774 1.3348460416 -0.5075314995 0.4375000039 -0.0103429369 -0.3116873243
-0.4374999414 0.6560070840 -0.3919353193 0.3815983199 0.0000000000 -0.2296686419
0.0730320892 0.8750000078 -0.4943732504 0.4375000039 -0.0537218091 -0.2791535138
0.1627219586 1.0542475591 -0.5000828125 0.4375000039 0.0000000000 -0.3125828242
0.4375000039 0.4424958473 -0.4874993758 0.5000000000 0.0000000000 -0.2500828281
-0.4374998789 0.6957890815 0.5019465624 0.3750000078 0.0000000000 -0.2500828281
0.4375000039 0.4156452865 -0.4797308138 0.3750000078 0.0000000000 -0.2500828281
-0.3713561955 1.0545707466 0.6249171172 0.4375000039 0.0000000000 -0.1875828320
0.4746365641 0.8749999453 -0.3299459481 0.4375000039 -0.0624999961 -0.2500828281
0.3332773854 0.8749999453 0.2696882644 0.4375000039 -0.0624999961 -0.2500828281
-0.4374999414 0.4953564690 -0.4557420653 0.3893651319 -0.0077852495 -0.2374908914
-0.4048336309 0.4585964088 -0.4375828164 0.4362343790 -0.0041373747 -0.2106647681
0.4001058812 1.6289287732 -0.5625828086 0.4380520039 -0.0027599373 -0.3123788867
-0.1881411445 1.4748507828 -0.3750828203 0.4375000039 0.0099496244 -0.1883977695
0.0709922143 1.7176687676 -0.4375828164 0.4375000039 0.0078414995 -0.1880955195
0.5000000000 1.6571818964 -0.5378631226 0.5000000000 0.0000000000 -0.2500828281
0.1309060856 1.8561419465 -0.5625828086 0.4375000039 0.0000000000 -0.3125828242
-0.3829116323 1.2398623600 -0.5000828125 0.4372506914 -0.0056920621 -0.3119460743
0.4848371884 0.8749999453 0.1448177722 0.4375000039 -0.0624999961 -0.2500828281
-0.1475711470 1.2568005464 -0.3472331345 0.4375000039 0.0173698739 -0.1902728319
-0.0261446546 0.8750000078 -0.0334353417 0.4375000039 -0.0624999961 -0.2500828281
-0.1236897110 0.8749999453 -0.1582914589 0.4375000039 -0.0624999961 -0.2500828281
0.4621432524 1.3276089795 -0.3703157581 0.4360171290 0.0147034991 -0.1894016444
-0.1984937063 1.1249999297 -0.0751728391 0.4375000039 0.0624999961 -0.2500828281
0.4447816285 1.9603749400 -0.4660411271 0.4366233790 0.0111006868 -0.1886953320
0.2360122040 1.1249999297 0.3815087574 0.4375000039 0.0624999961 -0.2500828281
-0.1339977729 0.9401701287 -0.5000828125 0.4375000039 0.0000000000 -0.3125828242
-0.4025836311 0.9730418767 -0.5000828125 0.4375000039 0.0000000000 -0.3125828242
-0.4999999375 1.1054198059 -0.0070592808 0.3750000078 0.0000000000 -0.2500828281
0.1190905238 2.0890938069 -0.5000828125 0.4375000039 0.0079764995 -0.1882555195
-0.1663013334 1.5064470933 -0.3772318827 0.4375000039 0.0110896243 -0.1886006445
0.3372901352 2.1276971170 -0.5625828086 0.4375000039 -0.0068723746 -0.3114675743
-0.4786480013 1.7320050167 -0.4375828164 0.4419657536 0.0113786243 -0.1889315819
0.4699336269 0.8749999453 0.5230751861 0.4375000039 -0.0624999961 -0.2500828281
-0.4999999375 1.0599800588 0.5519157468 0.3750000078 0.0000000000 -0.2500828281
0.2136880179 1.1249999297 0.1063402121 0.4375000039 0.0624999961 -0.2500828281
-0.2715657643 1.8119550118 -0.5625828086 0.4375000039 0.0000000000 -0.3125828242
0.3420851349 0.8749999453 0.0149522178 0.4375000039 -0.0624999961 -0.2500828281
0.5000000000 0.9450878784 0.0813344637 0.5000000000 0.0000000000 -0.2500828281
-0.0071083433 1.1249999297 0.0449398409 0.4375000039 0.0624999961 -0.2500828281
0.4375000039 0.7733364517 -0.4208103174 0.3750000078 0.0000000000 -0.2500828281
-0.0310105293 1.8584118838 -0.5625828086 0.4375000039 0.0000000000 -0.3125828242
0.4268480671 2.2483802970 -0.5000828125 0.4375000039 0.0000000000 -0.1875828320
0.4375000039 0.7368622664 -0.4692875644 0.3750000078 0.0000000000 -0.2500828281
0.2264139546 2.1631129898 -0.5000828125 0.4375000039 0.0021134999 -0.1877735195
-0.1980186439 1.1235565548 -0.5000828125 0.4375000039 0.0000000000 -0.3125828242
0.0100597181 0.8749999453 -0.0910656506 0.4375000039 -0.0624999961 -0.2500828281
-0.0266830296 1.5575709652 -0.3942731941 0.4375000039 0.0119251243 -0.1887901445
0.1540668966 1.4823175949 -0.5566886840 0.4375000039 -0.0115146243 -0.3114853868
-0.2091806432 0.8749999453 0.4715921893 0.4375000039 -0.0624999961 -0.2500828281
-0.0424974661 1.1249999297 0.4295324419 0.4375000039 0.0624999961 -0.2500828281
-0.2990680751 1.4612834712 -0.3750828203 0.4375000039 0.0101316869 -0.1884287070
-0.3865268196 0.5439305285 -0.3936522566 0.4710955018 -0.0267803108 -0.2198542675
0.4375000039 0.6481950845 -0.4848661259 0.5000000000 0.0000000000 -0.2500828281
-0.4755070640 1.0721298705 -0.5000828125 0.4375000039 0.0000000000 -0.3125828242
-0.2622182649 1.5315327793 -0.3855937572 0.4375000039 0.0100349369 -0.1883964570
-0.4999999375 0.9469156283 0.1257179609 0.3750000078 0.0000000000 -0.2500828281
0.4375000039 0.8176526364 -0.4576055026 0.3750000078 0.0000000000 -0.2500828281
-0.2615238274 0.8749999453 0.1013439624 0.4375000039 -0.0624999961 -0.2500828281
0.3307086981 1.7194827675 -0.4375828164 0.4375000039 0.0106894368 -0.1885133320
-0.3095916994 1.7444976410 -0.5625828086 0.4375000039 0.0000000000 -0.3125828242
0.2195207050 2.1099713681 -0.5625828086 0.4375000039 -0.0050039372 -0.3117708243
0.2527988280 2.0807329325 -0.5625828086 0.4375000039 -0.0019219374 -0.3122709492
0.0064800308 1.0892971194 -0.5000828125 0.4375000039 0.0000000000 -0.3125828242
-0.1817563324 2.0430930598 -0.4936139379 0.4375000039 0.0121351867 -0.1887914570
0.4822941886 2.2597997963 -0.5625828086 0.4375000039 0.0000000000 -0.2929825129
-0.0770771514 1.4173859739 -0.3750828203 0.4375000039 0.0098406869 -0.1884074570
0.2704268893 1.3139901679 -0.3750828203 0.4372657539 0.0132304367 -0.1890140194
0.2108738931 1.4284349732 -0.5387278101 0.4375000039 -0.0114944993 -0.3114952618
-0.4999999375 1.7890613257 -0.4383615039 0.3750000078 0.0000000000 -0.2500828281
0.0403788412 1.1249999297 0.2969277002 0.4375000039 0.0624999961 -0.2500828281
0.1685839582 0.8750000078 -0.4316600043 0.4375000039 -0.0624999961 -0.2500828281
0.5000000000 1.2531353592 -0.4372123789 0.5000000000 0.0000000000 -0.2500828281
0.2044587060 1.8404058225 -0.5625828086 0.4375000039 0.0000000000 -0.3125828242
0.3289619482 2.0585809963 -0.5625828086 0.4375000039 0.0000000000 -0.3125828242
-0.2456998909 1.8786177576 -0.5625828086 0.4375000039 0.0000000000 -0.3125828242
-0.0375585914 2.0515674343 -0.5625828086 0.4375000039 0.0000000000 -0.3125828242
0.1501080219 0.8749999453 -0.3105391368 0.4375000039 -0.0624999961 -0.2500828281
0.3056872621 2.1408494287 -0.5625828086 0.4375000039 -0.0082587495 -0.3112426368
-0.0038870935 2.1655367397 -0.5000828125 0.4375000039 0.0015529999 -0.1876932070
-0.0532562779 1.1249999297 0.5829075573 0.4375000039 0.0624999961 -0.2500828281
0.0032197810 0.8750000078 0.4028430686 0.4375000039 -0.0624999961 -0.2500828281
-0.3675982583 1.6408871474 -0.5625828086 0.4375000039 -0.0018696874 -0.3124699492
0.3450886972 1.1249999297 -0.2804174512 0.4375000039 0.0624999961 -0.2500828281
-0.4617039399 1.1249999297 -0.0974737752 0.4375000039 0.0624999961 -0.2500828281
-0.1609421462 0.8749999453 0.6058353059 0.4375000039 -0.0502770594 -0.2201708925
0.0895967132 0.8749999453 0.4930890629 0.4375000039 -0.0624999961 -0.2500828281
-0.3749999453 0.4469420971 -0.4962657502 0.4816941886 0.0000000000 -0.2888788257
-0.4782931264 1.2010976749 -0.3171153864 0.4386602538 0.0141578741 -0.1892832069
0.1013137749 1.1249999297 -0.0379090914 0.4375000039 0.0624999961 -0.2500828281
0.1527533342 1.1249999297 0.2537357654 0.4375000039 0.0624999961 -0.2500828281
-0.4849496259 1.9075449433 -0.5625828086 0.4375000039 0.0000000000 -0.3125828242
0.4375000039 0.3453509784 -0.4438361910 0.3750000078 0.0000000000 -0.2500828281
0.3108353868 1.1249999297 0.0126235930 0.4375000039 0.0624999961 -0.2500828281
0.0361390915 2.0392903100 -0.4923462505 0.4375000039 0.0099813119 -0.1884152070
-0.2977868876 0.9415715037 0.6249171172 0.4375000039 0.0000000000 -0.1875828320
0.2336562041 2.2499998594 -0.5945920566 0.4375000039 0.0066534371 -0.2500828281
-0.4086981932 1.9628128773 -0.4668538146 0.4375000039 0.0112028118 -0.1886450820
-0.3756904453 0.1085350557 -0.4729490642 0.4745795641 -0.0136071866 -0.2060802059
-0.3749999453 0.1040273685 -0.5131853742 0.4949131878 -0.0021101249 -0.2459157034
0.5000000000 1.0604703712 -0.4761288140 0.5000000000 0.0000000000 -0.2500828281
-0.3380363851 1.5334485917 -0.5625828086 0.4375000039 -0.0069808746 -0.3120975117
-0.4613751899 1.9411469412 -0.4596318150 0.4403548162 0.0108227493 -0.1887860820
-0.1021054624 0.9247509422 -0.5000828125 0.4375000039 -0.0085759370 -0.3092673244
-0.2468518908 1.1249999297 0.2383132664 0.4375000039 0.0624999961 -0.2500828281
-0.4740434391 2.1727732392 -0.5625828086 0.4375000039 -0.0116238743 -0.3106965118
-0.3749999453 0.6164205240 0.5060380621 0.5000000000 0.0000000000 -0.2500828281
-0.3401414475 1.1249999297 -0.0471757158 0.4375000039 0.0624999961 -0.2500828281
-0.4965066252 1.5398384663 -0.5625828086 0.4331150667 -0.0087698120 -0.3115963243
0.5000000000 1.9730263767 -0.4589865026 0.5000000000 0.0000000000 -0.2500828281
-0.4999999375 0.9311698793 0.2595929525 0.3750000078 0.0000000000 -0.2500828281
-0.1235216485 0.9789310638 0.6249171172 0.4375000039 0.0000000000 -0.1875828320
0.1837197073 2.1319084918 -0.5625828086 0.4375000039 -0.0073163120 -0.3113955743
0.4768988764 2.0591400588 -0.5625828086 0.4375000039 0.0000000000 -0.3125828242
-0.4997226875 2.2499998594 -0.5831821823 0.4375000039 0.0213011862 -0.2500828281
-0.4186217551 2.3121634180 -0.5625828086 0.4375000039 0.0000000000 -0.1882555820
0.0650082147 1.1249999297 0.3862074446 0.4375000039 0.0624999961 -0.2500828281
0.5000000000 1.0483196220 -0.2512408905 0.5000000000 0.0000000000 -0.2500828281
-0.4374999414 0.7400373287 0.5572406839 0.3750000078 0.0000000000 -0.2500828281
-0.1363500227 1.3716366643 -0.3750828203 0.4375000039 0.0095894369 -0.1883572070
0.1495812719 1.1449077409 -0.5000828125 0.4375000039 0.0000000000 -0.3125828242
0.1694638332 2.1672595520 -0.5625828086 0.4375000039 -0.0110426243 -0.3107908243
0.4412746287 1.1249999297 0.3125335117 0.4375000039 0.0624999961 -0.2500828281
0.2114077680 0.8750000078 0.5254355609 0.4375000039 -0.0624999961 -0.2500828281
-0.4999999375 0.9722272517 0.5135467492 0.3750000078 0.0000000000 -0.2500828281
-0.4999999375 1.5015267187 -0.4595278150 0.3750000078 0.0000000000 -0.2500828281
-0.4701728144 1.1249999297 0.3653723834 0.4375000039 0.0624999961 -0.2500828281
0.1356829603 1.5268564671 -0.3840350072 0.4375000039 0.0116537493 -0.1887055195
0.0764697765 0.8749999453 0.3236518860 0.4375000039 -0.0624999961 -0.2500828281
-0.4374999414 0.5440900285 0.5034714998 0.3750000078 0.0000000000 -0.2500828281
-0.2929745129 2.1037150560 -0.5625828086 0.4375000039 -0.0043444372 -0.3118778243
0.2785617638 0.8749999453 0.4049030684 0.4375000039 -0.0624999961 -0.2500828281
0.3024656998 1.3561214777 -0.3750828203 0.4373905664 0.0119782493 -0.1887849570
0.0139127179 1.7759715140 -0.4375828164 0.4375000039 0.0098334369 -0.1884471445
0.1215182737 0.8749999453 -0.1053754622 0.4375000039 -0.0624999961 -0.2500828281
0.0958568378 1.0999028063 0.6249171172 0.4375000039 0.0000000000 -0.1875828320
0.4375000039 0.6396050850 -0.3788360076 0.5000000000 0.0000000000 -0.2500828281
-0.1860282696 2.2036112373 -0.5625828086 0.4375000039 -0.0148744366 -0.3101690119
-0.4702311269 0.8749999453 0.2606508275 0.4375000039 -0.0624999961 -0.2500828281
-0.1939230191 1.9958672503 -0.4778719389 0.4375000039 0.0125128117 -0.1888586444
-0.2396850788 1.0580183714 -0.5000828125 0.4375000039 0.0000000000 -0.3125828242
0.0184857801 1.1633111773 -0.3125828242 0.4375000039 0.0139308741 -0.1902156444
0.0890004007 0.8749999453 -0.2932897629 0.4375000039 -0.0624999961 -0.2500828281
-0.3843925072 1.4259814109 -0.3750828203 0.4377413789 0.0105570618 -0.1885378945
-0.2907748256 1.6696260206 -0.4316248168 0.4375000039 0.0109157493 -0.1885464570
0.0995285250 1.8653198209 -0.5625828086 0.4375000039 0.0000000000 -0.3125828242
0.5000000000 1.2178253614 -0.4117253180 0.5000000000 0.0000000000 -0.2500828281
-0.3763835702 0.2007841125 -0.4498867531 0.4834028760 -0.0082864370 -0.2137115804
-0.0010955937 1.3278807920 -0.5052097497 0.4375000039 -0.0092428744 -0.3118811368
0.4546643778 1.1249999297 0.2777973889 0.4375000039 0.0624999961 -0.2500828281
0.3183579489 1.1160348052 -0.5000828125 0.4375000039 0.0000000000 -0.3125828242
0.4922723755 0.8749999453 -0.1041577747 0.4375000039 -0.0624999961 -0.2500828281
-0.1752298953 1.1249999297 0.3128723867 0.4375000039 0.0624999961 -0.2500828281
-0.1281697732 2.2499998594 -0.5135678117 0.4375000039 0.0624999961 -0.2500828281
-0.0964664627 1.1249999297 -0.2280612045 0.4375000039 0.0624999961 -0.2500828281
0.0422329661 1.1249999297 0.1462740221 0.4375000039 0.0624999961 -0.2500828281
0.2907651381 0.8749999453 0.2612693274 0.4375000039 -0.0624999961 -0.2500828281
-0.0278405920 0.8749999453 0.4045439435 0.4375000039 -0.0624999961 -0.2500828281
-0.2609681399 1.3493227282 -0.5123571242 0.4373858789 -0.0123010617 -0.3113416368
-0.4849420634 0.8749999453 0.1218921486 0.4375000039 -0.0624999961 -0.2500828281
0.4222419424 0.8750000078 0.5010686874 0.4375000039 -0.0624999961 -0.2500828281
0.5000000000 1.4348187853 -0.5076580620 0.5000000000 0.0000000000 -0.2500828281
-0.2874747008 1.4100517244 -0.3750828203 0.4375000039 0.0110629993 -0.1885983320
0.1561715215 0.8749999453 0.2096408931 0.4375000039 -0.0624999961 -0.2500828281
-0.4178990676 1.1249999297 -0.1892455194 0.4375000039 0.0624999961 -0.2500828281
-0.3198817613 0.9012533812 0.6249171172 0.4375000039 -0.0268202483 -0.1994473313
0.3265348858 1.1249999297 0.5231786861 0.4375000039 0.0624999961 -0.2500828281
-0.3134111992 1.1249999297 0.4415750037 0.4375000039 0.0624999961 -0.2500828281
0.0322782792 0.9204940050 0.6249171172 0.4375000039 -0.0076053120 -0.1893782069
-0.3530950092 0.8749999453 -0.2806893262 0.4375000039 -0.0624999961 -0.2500828281
-0.4999999375 1.0256709359 0.3186308238 0.3750000078 0.0000000000 -0.2500828281
-0.2531818904 1.6670325208 -0.5625828086 0.4375000039 -0.0010308749 -0.3125038867
-0.1507345843 1.7311885168 -0.4375828164 0.4375000039 0.0090003119 -0.1882592695
0.4367389415 0.9765477515 0.6249171172 0.4375000039 0.0000000000 -0.1875828320
-0.2778119514 0.8749999453 0.0473930908 0.4375000039 -0.0624999961 -0.2500828281
-0.3852407572 0.0251911234 -0.5625828086 0.4746373766 0.0000000000 -0.2728858892
-0.4999999375 0.9742468141 -0.2841280135 0.3750000078 0.0000000000 -0.2500828281
-0.1330163979 2.0384584351 -0.5625828086 0.4375000039 0.0000000000 -0.3125828242
-0.3989363188 1.1249999297 -0.1479683345 0.4375000039 0.0624999961 -0.2500828281
-0.1700361456 0.9240265672 0.6249171172 0.4375000039 -0.0060254996 -0.1890052694
-0.3793882575 1.7737156391 -0.5625828086 0.4375000039 0.0000000000 -0.3125828242
-0.4483787532 0.8749998828 -0.4465115658 0.4375000039 -0.0587609338 -0.2573484527
-0.4374999414 0.0257573109 -0.4992308125 0.3959346940 -0.0245946860 -0.2160583927
-0.0660084021 1.9608003149 -0.5625828086 0.4375000039 0.0000000000 -0.3125828242
-0.4999999375 1.2075409245 -0.4010261937 0.3750000078 0.0000000000 -0.2500828281
-0.1952745190 1.2127819242 -0.5000828125 0.4375000039 -0.0017876874 -0.3124557617
0.5000000000 0.8891561944 0.3145712616 0.5000000000 0.0000000000 -0.2500828281
0.3307925731 1.6600510212 -0.4284331920 0.4375000039 0.0111188118 -0.1885848320
0.5000000000 1.0020016874 0.1768418327 0.5000000000 0.0000000000 -0.2500828281
0.4905896256 1.5942632129 -0.4065039433 0.4299416919 0.0121741867 -0.1894083319
0.2052041434 0.8749999453 0.5502748094 0.4375000039 -0.0624999961 -0.2500828281
0.4029332561 2.0939846816 -0.5625828086 0.4375000039 -0.0033188123 -0.3120442617
0.2053621434 1.2553516090 -0.3465086346 0.4375000039 0.0165121240 -0.1899564569
-0.3536423216 0.9293760669 0.6249171172 0.4375000039 -0.0060111871 -0.1902420194
0.1556178340 1.7705799518 -0.4375828164 0.4375000039 0.0088754369 -0.1882366445
0.2709213893 1.6534392092 -0.4262291921 0.4375000039 0.0107086868 -0.1885097070
-0.4486535032 1.1249999297 0.4817925636 0.4375000039 0.0624999961 -0.2500828281
0.2597910775 1.5835157760 -0.5625828086 0.4375922539 -0.0053834997 -0.3121605117
-0.3323449480 1.5666715271 -0.5625828086 0.4375000039 -0.0053138747 -0.3122247617
-0.0602382150 0.8749999453 -0.2565465152 0.4375000039 -0.0624999961 -0.2500828281
-0.3538964466 0.8749999453 -0.3133268242 0.4375000039 -0.0624999961 -0.2500828281
-0.2669336396 0.8750000078 -0.3577467589 0.4375000039 -0.0624999961 -0.2500828281
0.0006242812 1.1249999297 -0.2772580764 0.4375000039 0.0624999961 -0.2500828281
0.2143747054 1.2306321106 -0.3341488854 0.4375000039 0.0176035614 -0.1902333944
-0.4999999375 1.4197842238 -0.4897262506 0.3750000078 0.0000000000 -0.2500828281
0.2604029525 1.7125420805 -0.4375828164 0.4375000039 0.0105563118 -0.1884832070
0.5000000000 0.9566093152 0.1455982722 0.5000000000 0.0000000000 -0.2500828281
-0.2624910773 1.1249999297 0.0564001527 0.4375000039 0.0624999961 -0.2500828281
0.5000000000 0.9864678133 -0.4171635052 0.5000000000 0.0000000000 -0.2500828281
0.2658114521 1.8215619487 -0.5625828086 0.4375000039 0.0000000000 -0.3125828242
0.5000000000 1.9836236260 -0.5308790606 0.5000000000 0.0000000000 -0.2500828281
-0.1176452114 0.8749999453 0.1160438365 0.4375000039 -0.0624999961 -0.2500828281
0.2559561403 2.2124055492 -0.5625828086 0.4375000039 -0.0158014365 -0.3100185744
-0.2293823919 0.8749999453 -0.0016300311 0.4375000039 -0.0624999961 -0.2500828281
-0.0700679644 1.5062979684 -0.3771821952 0.4375000039 0.0125362492 -0.1888758944
0.5000000000 0.9888758132 -0.0720330892 0.5000000000 0.0000000000 -0.2500828281
-0.3749999453 0.5305313418 0.5609706212 0.5000000000 0.0000000000 -0.2500828281
0.0298857169 1.1249999297 0.5200234362 0.4375000039 0.0624999961 -0.2500828281
-0.3762367577 1.9020930686 -0.5625828086 0.4375000039 0.0000000000 -0.3125828242
0.4986378751 1.9306539418 -0.4561341277 0.4305921918 0.0093284994 -0.1887967695
0.0733613392 1.1249999297 0.1129808992 0.4375000039 0.0624999961 -0.2500828281
-0.4999998750 1.0605463087 0.3599290088 0.3750000078 0.0000000000 -0.2500828281
-0.5000000000 0.8851110072 -0.4248525672 0.3750000078 0.0000000000 -0.2500828281
-0.1433971473 0.8749999453 0.4538958154 0.4375000039 -0.0624999961 -0.2500828281
-0.1906579568 1.1249999297 -0.2430237661 0.4375000039 0.0624999961 -0.2500828281
-0.2298105794 1.1250000547 0.1121632742 0.4375000039 0.0624999961 -0.2500828281
0.4375000039 0.3327948542 -0.4710646268 0.5000000000 0.0000000000 -0.2500828281
-0.0559387778 1.4577097214 -0.3750828203 0.4375000039 0.0114072493 -0.1886842070
0.2401607662 1.3894281632 -0.5257255609 0.4375000039 -0.0116579368 -0.3114685118
0.0733542142 1.1249999297 -0.1295224607 0.4375000039 0.0624999961 -0.2500828281
-0.2748294516 2.1898270506 -0.5000828125 0.4375000039 0.0000000000 -0.1875828320
0.1730338329 1.7495185157 -0.5625828086 0.4375000039 0.0000000000 -0.3125828242
-0.1143543366 1.2388126101 -0.3382391976 0.4375000039 0.0188043738 -0.1907053318
-0.4299314419 2.0521694342 -0.4966393127 0.4375000039 0.0135299992 -0.1890731444
0.3275564483 1.7505923906 -0.4375828164 0.4375000039 0.0101168744 -0.1884175820
0.5000000000 1.0123034992 -0.4146548803 0.5000000000 0.0000000000 -0.2500828281
0.0001013437 0.8750000078 -0.2340404541 0.4375000039 -0.0624999961 -0.2500828281
-0.2143243304 1.1249999297 -0.0091367807 0.4375000039 0.0624999961 -0.2500828281
0.4154087553 1.1249999297 0.4626413148 0.4375000039 0.0624999961 -0.2500828281
0.1407788350 1.0133873742 -0.5000828125 0.4375000039 0.0000000000 -0.3125828242
-0.2490078907 1.8240202610 -0.4375828164 0.4375000039 0.0100415619 -0.1883965820
-0.3696506331 1.1819618011 -0.5000828125 0.4375000039 0.0000000000 -0.3125828242
-0.1338867729 1.7553933903 -0.5625828086 0.4375000039 0.0000000000 -0.3125828242
-0.3214400112 1.6670130833 -0.4307538793 0.4375000039 0.0110953743 -0.1885798320
0.2776135139 0.8749999453 0.1030763373 0.4375000039 -0.0624999961 -0.2500828281
-0.3961171315 0.7483807032 -0.3750828203 0.4595816275 0.0000000000 -0.2166437677
-0.3170199489 1.1249999297 0.1569518339 0.4375000039 0.0624999961 -0.2500828281
0.1137126491 2.0674644333 -0.5625828086 0.4375000039 -0.0005233125 -0.3124978867
0.2655162022 1.1250000547 0.5721786830 0.4375000039 0.0624999961 -0.2500828281
-0.4927647505 1.1249999297 -0.0652185272 0.4375000039 0.0624999961 -0.2500828281
0.3087208245 0.8750000078 0.6076993058 0.4375000039 -0.0521683092 -0.2214124549
0.2750270766 0.8749999453 -0.0847302135 0.4375000039 -0.0624999961 -0.2500828281
0.3393952600 1.4379975976 -0.3750828203 0.4375000039 0.0100511869 -0.1884337070
-0.0060830934 1.1249999297 -0.1312715230 0.4375000039 0.0624999961 -0.2500828281
0.4375000039 0.0890596819 -0.4888996257 0.5000000000 0.0000000000 -0.2500828281
-0.0284919670 0.8749999453 -0.2739281391 0.4375000039 -0.0624999961 -0.2500828281
0.3160824490 1.0594102463 0.6249171172 0.4375000039 0.0000000000 -0.1875828320
-0.4766924390 1.7593515150 -0.4375828164 0.4417725036 0.0103647494 -0.1887513945
0.0869431508 1.9425411286 -0.4600965650 0.4375000039 0.0132013117 -0.1889963944
-0.3245310110 0.9243600047 -0.5000828125 0.4375000039 -0.0076374370 -0.3101353244
-0.1178292114 1.7353307040 -0.4375828164 0.4375000039 0.0084727495 -0.1881834570
-0.1955868315 0.8749999453 -0.1861540821 0.4375000039 -0.0624999961 -0.2500828281
-0.3473377595 1.1249999297 0.6125854930 0.4375000039 0.0624999961 -0.2500828281
0.5000000000 0.8908617568 -0.0160389052 0.5000000000 0.0000000000 -0.2500828281
-0.4906727506 1.7296979544 -0.5625828086 0.4375000039 0.0000000000 -0.3125828242
-0.3148934491 1.1249999297 -0.0942294629 0.4375000039 0.0624999961 -0.2500828281
0.2970858252 1.1249999297 0.5189273113 0.4375000039 0.0624999961 -0.2500828281
0.3809978199 1.4752353453 -0.5543279341 0.4387530663 -0.0097216869 -0.3117855743
0.3716106955 2.2499998594 -0.5071668121 0.4375000039 0.0624999961 -0.2500828281
-0.2033018310 1.1249999297 0.1865028321 0.4375000039 0.0624999961 -0.2500828281
-0.5000000000 0.9424082536 -0.3925671317 0.3750000078 0.0000000000 -0.2500828281
0.5000000000 1.0927770567 -0.1043669622 0.5000000000 0.0000000000 -0.2500828281
-0.2140228929 0.9385527538 0.6249171172 0.4375000039 0.0000000000 -0.1875828320
-0.4960345002 1.3876420383 -0.3750828203 0.4386594413 0.0157827490 -0.1897630194
-0.4333830667 1.4229917861 -0.3750828203 0.4383413164 0.0112401243 -0.1887022695
-0.0582545901 0.8749999453 0.4022140061 0.4375000039 -0.0624999961 -0.2500828281
-0.2954996378 0.8749999453 0.2335348917 0.4375000039 -0.0624999961 -0.2500828281
0.5000000000 1.4148190366 -0.4144362553 0.5000000000 0.0000000000 -0.2500828281
-0.4215270674 0.6156029615 0.5624171211 0.4375000039 0.0000000000 -0.1875828320
-0.1859010821 1.1249999297 0.1412436474 0.4375000039 0.0624999961 -0.2500828281
0.0630904023 0.8974411939 -0.5000828125 0.4375000039 -0.0323319355 -0.2950559503
-0.3172724489 2.0178428739 -0.4851971259 0.4375000039 0.0123918117 -0.1888432069
0.1110459618 1.1249999297 -0.2034475185 0.4375000039 0.0624999961 -0.2500828281
-0.3752547578 0.3702115394 0.4999171250 0.4375000039 0.0000000000 -0.3125828242
0.5000000000 0.9580633776 -0.2224285173 0.5000000000 0.0000000000 -0.2500828281
-0.2741213266 0.8749999453 0.2164464552 0.4375000039 -0.0624999961 -0.2500828281
-0.3476970720 2.1765876765 -0.5625828086 0.4375000039 -0.0120259367 -0.3106312618
-0.4104759431 0.0997086813 0.5624170586 0.4375000039 0.0000000000 -0.1875828320
-0.4037779435 0.4677354708 -0.5000828125 0.4484751282 0.0000000000 -0.2996677000
-0.4670535021 0.8749999453 0.1505265218 0.4375000039 -0.0624999961 -0.2500828281
-0.1232175235 0.8749999453 0.5081012495 0.4375000039 -0.0624999961 -0.2500828281
-0.1934610192 1.1249999297 -0.1220706486 0.4375000039 0.0624999961 -0.2500828281
0.2469522658 1.1249999297 -0.0069766558 0.4375000039 0.0624999961 -0.2500828281
0.0529270904 2.2499998594 -0.6192041175 0.4375000039 0.0477938095 -0.2500828281
-0.0335029042 1.1249999297 -0.1365214602 0.4375000039 0.0624999961 -0.2500828281
0.0615712149 0.8749999453 0.5791471201 0.4375000039 -0.0577577464 -0.2385325163
-0.4867365633 1.1249999297 0.5632208085 0.4375000039 0.0624999961 -0.2500828281
0.5000000000 0.9339760041 -0.1964503940 0.5000000000 0.0000000000 -0.2500828281
-0.3097130744 0.8749999453 0.5216826861 0.4375000039 -0.0624999961 -0.2500828281
0.0545882153 1.3773249764 -0.5216911861 0.4375000039 -0.0113138118 -0.3115096993
-0.5000000000 0.9991037501 0.4803905637 0.3750000078 0.0000000000 -0.2500828281
-0.2561140777 2.0637942460 -0.5625828086 0.4375000039 -0.0001364375 -0.3125606992
-0.3065996996 0.8749999453 0.2911492631 0.4375000039 -0.0624999961 -0.2500828281
0.4288226294 1.7852267009 -0.5625828086 0.4375000039 0.0000000000 -0.3125828242
-0.4374999414 0.2770839202 0.5298976856 0.3750000078 0.0000000000 -0.2500828281
0.0278655295 1.1249999297 0.1944741441 0.4375000039 0.0624999961 -0.2500828281
-0.4110080681 0.3735200392 -0.4375828164 0.4307710043 0.0000000000 -0.2058886434
0.1247804610 1.1249999297 0.1577701464 0.4375000039 0.0624999961 -0.2500828281
-0.0916033380 0.8749999453 0.5018386874 0.4375000039 -0.0624999961 -0.2500828281
-0.1686752082 1.3971597252 -0.3750828203 0.4375000039 0.0098325619 -0.1883907695
0.0842740885 0.8749999453 -0.3307544481 0.4375000039 -0.0624999961 -0.2500828281
-0.4209242549 1.3207657925 -0.3750828203 0.4393774413 0.0146648116 -0.1893790819
-0.1670447708 0.8749999453 0.4744192516 0.4375000039 -0.0624999961 -0.2500828281
-0.1755173328 0.9534070029 0.6249171172 0.4375000039 0.0000000000 -0.1875828320
0.2041183935 1.7818769511 -0.5625828086 0.4375000039 0.0000000000 -0.3125828242
0.5000000000 1.3219856674 -0.3805035075 0.5000000000 0.0000000000 -0.2500828281
-0.3750000078 0.6484205845 -0.3778840701 0.4934016879 0.0000000000 -0.2233847048
-0.2485206407 0.9444933785 0.6249170547 0.4375000039 0.0000000000 -0.1875828320
0.5000000000 1.1112598680 0.3659482584 0.5000000000 0.0000000000 -0.2500828281
-0.4730965017 0.9726351892 0.6249171172 0.4375000039 0.0000000000 -0.1875828320
0.4375000039 0.4023911624 0.5007809375 0.3750000078 0.0000000000 -0.2500828281
-0.0980087126 1.3403326662 -0.5093604369 0.4375000039 -0.0110534993 -0.3115619493
-0.0356522165 0.8749999453 0.0972664627 0.4375000039 -0.0624999961 -0.2500828281
0.0963342127 1.2846236697 -0.3611446962 0.4375000039 0.0131969367 -0.1892901444
0.1372503977 0.8749999453 0.0861483384 0.4375000039 -0.0624999961 -0.2500828281
-0.2916537005 1.8314778855 -0.5625828086 0.4375000039 0.0000000000 -0.3125828242
0.0799019013 0.8749999453 -0.2005821437 0.4375000039 -0.0624999961 -0.2500828281
0.3632918210 1.3477127908 -0.3750828203 0.4365340665 0.0134120617 -0.1891308944
-0.0040627185 1.8502056344 -0.5625828086 0.4375000039 0.0000000000 -0.3125828242
-0.0238517173 0.8749999453 0.0067744683 0.4375000039 -0.0624999961 -0.2500828281
-0.3947111941 1.2987790438 -0.3682223832 0.4391703163 0.0153303740 -0.1895427069
0.1186700863 2.1379119289 -0.5000828125 0.4375000039 0.0035063748 -0.1878320195
0.2787317013 1.1249999297 -0.1795566450 0.4375000039 0.0624999961 -0.2500828281
0.1978022064 1.4341857854 -0.3750828203 0.4375000039 0.0098169369 -0.1883775820
0.0414922787 2.2011390499 -0.5000828125 0.4375000039 0.0000000000 -0.1875828320
-0.3423082599 2.1454283034 -0.5000828125 0.4375000039 0.0042748122 -0.1880217695
0.3306272606 1.5813499012 -0.4021995061 0.4375000039 0.0107181868 -0.1885180195
0.0273405920 0.9166217552 -0.5000828125 0.4375000039 -0.0171582489 -0.3030425123
-0.4247851922 0.7450368909 -0.3750828203 0.4136690054 0.0000000000 -0.2091931432
-0.4999999375 1.0795417450 -0.4453278784 0.3750000078 0.0000000000 -0.2500828281
0.0855032759 0.8950106941 0.6249171172 0.4375000039 -0.0194013738 -0.1923712692
-0.0293543419 1.6778685201 -0.4343723166 0.4375000039 0.0076957495 -0.1880863945
-0.0856052134 1.4683465332 -0.3750828203 0.4375000039 0.0112904368 -0.1886563320
0.2279203920 1.4534354717 -0.5470613096 0.4375000039 -0.0108509993 -0.3116148868
-0.4999999375 0.9761291265 -0.2497224531 0.3750000078 0.0000000000 -0.2500828281
-0.0613984649 0.8749999453 -0.3176003864 0.4375000039 -0.0624999961 -0.2500828281
0.5000000000 0.8892387569 0.3649993834 0.5000000000 0.0000000000 -0.2500828281
0.2212357674 1.1249999297 -0.1927169567 0.4375000039 0.0624999961 -0.2500828281
0.4264048171 0.8749999453 0.1785148951 0.4375000039 -0.0624999961 -0.2500828281
0.1103312119 1.9041930685 -0.4473138158 0.4375000039 0.0123506867 -0.1888380819
0.1790948951 1.5555922153 -0.3936135691 0.4375000039 0.0111467493 -0.1886055820
-0.0265314046 1.4867804071 -0.3750828203 0.4375000039 0.0127497492 -0.1889243319
0.2760707640 2.2499998594 -0.6153756178 0.4375000039 -0.0558624965 -0.2592918900
0.2211126424 0.8749999453 0.6070223058 0.4375000039 -0.0508999343 -0.2200780800
-0.0690990269 1.7891789507 -0.5625828086 0.4375000039 0.0000000000 -0.3125828242
-0.0041362185 2.0784889326 -0.5000828125 0.4375000039 0.0077082495 -0.1881306445
-0.1021100874 1.2792961075 -0.5000828125 0.4375000039 -0.0070424996 -0.3120250117
0.0865677758 2.1301378044 -0.5625828086 0.4375000039 -0.0071296246 -0.3114258243
0.4684689395 1.1249999297 0.2357445790 0.4375000039 0.0624999961 -0.2500828281
-0.1191138363 2.2499998594 -0.6247010547 0.4375000039 0.0024406248 -0.2504449531
-0.2316678918 0.8749999453 -0.4207686925 0.4375000039 -0.0624999961 -0.2500828281
-0.4614351274 2.2432993598 -0.5000828125 0.4375000039 0.0000000000 -0.1875828320
-0.1613386462 2.1080638057 -0.5000828125 0.4375000039 0.0067016246 -0.1881718945
0.1236033360 2.1516307405 -0.5625828086 0.4375000039 -0.0093951869 -0.3110581993
0.5000000000 0.9442111285 0.2323621417 0.5000000000 0.0000000000 -0.2500828281
0.3689968207 2.0132180617 -0.4836555635 0.4375000039 0.0126140617 -0.1888937694
-0.4999999375 1.0270149358 0.5551464341 0.3750000078 0.0000000000 -0.2500828281
-0.1389092726 1.2454124847 -0.5000828125 0.4375000039 -0.0041681872 -0.3122790117
-0.0509898406 1.5411409662 -0.3887965070 0.4375000039 0.0128824992 -0.1889404569
-0.4374999414 0.7378192039 -0.4504760031 0.3811085699 0.0000000000 -0.2448526409
-0.3483375720 2.2944575441 -0.5625828086 0.4375000039 0.0000000000 -0.1875828320
-0.4648254397 0.8749999453 -0.0538579654 0.4375000039 -0.0624999961 -0.2500828281
-0.4999999375 0.8922020692 0.0898391506 0.3750000078 0.0000000000 -0.2500828281
-0.4999998750 1.8172743239 -0.5400932475 0.3750000078 0.0000000000 -0.2500828281
0.4938901879 1.1249999297 0.0267502796 0.4375000039 0.0624999961 -0.2500828281
0.2422481411 1.6447283347 -0.4233255673 0.4375000039 0.0106494993 -0.1885002695
0.4375000039 0.5879874633 0.5060421871 0.3750000078 0.0000000000 -0.2500828281
0.4862564384 1.1249999297 0.0977847126 0.4375000039 0.0624999961 -0.2500828281
-0.4441633160 1.1249999297 -0.2663325771 0.4375000039 0.0624999961 -0.2500828281
0.4375000039 0.1241054922 -0.5009218749 0.5000000000 0.0000000000 -0.2500828281
-0.0873345883 1.3848488509 -0.3750828203 0.4375000039 0.0086788745 -0.1882035820
-0.3540565091 2.0405081225 -0.5625828086 0.4375000039 0.0000000000 -0.3125828242
0.4375000039 0.1364508665 -0.5342353104 0.4064296308 0.0000000000 -0.2500828281
-0.3817811949 0.8749999453 0.1614931462 0.4375000039 -0.0624999961 -0.2500828281
-0.1393385850 1.4851001572 -0.5576161839 0.4375000039 -0.0116930618 -0.3114510743
0.2450374534 1.1212418674 0.6249171172 0.4375000039 0.0000000000 -0.1875828320
0.0287006545 0.8750000078 -0.1234833985 0.4375000039 -0.0624999961 -0.2500828281
-0.0414134662 1.1802211137 -0.5000828125 0.4375000039 0.0000000000 -0.3125828242
0.5000000000 1.0815986824 -0.4423183161 0.5000000000 0.0000000000 -0.2500828281
-0.4280704420 1.4766554077 -0.5548012466 0.4372570664 -0.0086423745 -0.3119186993
0.0938407129 1.3728567892 -0.5202017487 0.4375000039 -0.0118077493 -0.3114240118
-0.4999999375 0.8961038190 0.4510561906 0.3750000078 0.0000000000 -0.2500828281
