0.2060113000 1.5000000000 0.2429676800 0.2800000000 0.0200000000 -0.1300000000
-0.1835857400 1.5200000000 0.2829038600 0.2800000000 0.0600000000 -0.1300000000
-0.3091092600 0.6453441600 -0.2517911000 0.2992661400 0.0362786200 -0.1284689400
-0.3808385400 0.4358348400 -0.3312440400 0.2635152200 0.0464484400 -0.1392797000
0.0818301400 1.9739926200 -0.1500000000 0.2809345400 0.0400000000 -0.1499702200
0.2040052200 1.3431839000 0.3500000000 0.2800000000 0.0400000000 -0.1500000000
0.1805406400 1.2890004000 0.3700000000 0.2800000000 0.0400000000 -0.1100000000
-0.2990013200 0.7059921200 -0.2372778600 0.2980915400 0.0355233800 -0.1256159000
0.0757099400 1.5200000000 -0.0124257600 0.2800000000 0.0600000000 -0.1300000000
-0.1294426800 0.5399999600 0.3324301200 0.2800000000 0.0595139800 -0.1314580600
-0.1800000000 0.8828503400 0.3525798000 0.3000000000 0.0400000000 -0.1300000000
0.1809747200 1.3964436400 -0.0508890800 0.2805445800 0.0367539600 -0.1104367600
-0.0825932000 1.5000000000 0.1068045000 0.2800000000 0.0200000000 -0.1300000000
-0.0505823600 1.7997598200 -0.1300000000 0.2800000000 0.0392061200 -0.1100786200
0.1677813800 1.5200000000 0.2432834600 0.2800000000 0.0600000000 -0.1300000000
0.2766935600 0.5400000000 0.0801596000 0.2800000000 0.0600000000 -0.1300000000
0.2644937600 1.5000000000 0.1324947800 0.2800000000 0.0200000000 -0.1300000000
0.1000000000 1.4818640200 -0.0560375200 0.2614740600 0.0400000000 -0.1362442200
-0.0094960000 1.8838974000 -0.1300000000 0.2800000000 0.0400000000 -0.1100000000
-0.0405127400 1.5199350000 -0.1300000000 0.2800000000 0.0495695400 -0.1467241000
0.0080763200 1.5000000000 -0.0638703400 0.2800000000 0.0200000000 -0.1300000000
0.1961990000 1.3145544400 -0.0918151600 0.2800000000 0.0455915400 -0.1492014200
-0.0528804400 1.8548539800 -0.1300000000 0.2800000000 0.0400000000 -0.1100000000
0.2087043600 0.7362361200 0.3700000000 0.2800000000 0.0400000000 -0.1100000000
0.1875991600 0.3569192200 0.3700000000 0.2800000000 0.0400000000 -0.1100000000
-0.0624648600 1.5000000000 0.0782946400 0.2800000000 0.0600000000 -0.1300000000
0.3041335000 0.7309649600 -0.2196783200 0.2800000000 0.0347689800 -0.1107079000
0.2012917800 1.9114599600 -0.1300000000 0.2800000000 0.0400000000 -0.1100000000
-0.1799999600 1.4401104800 0.3522251200 0.3000000000 0.0400000000 -0.1300000000
0.2259723600 1.7433355800 -0.1300000000 0.2800000000 0.0392066200 -0.1100526600
-0.0794075400 1.4800000000 0.0067793000 0.2800000000 0.0200000000 -0.1300000000
-0.2398781600 0.9662218400 -0.1879260400 0.2812574600 0.0443222400 -0.1494759600
0.4799523200 0.0539081800 -0.4330459000 0.2800000000 0.0471561200 -0.1486576800
-0.0360245800 1.5200000000 0.0600658400 0.2800000000 0.0600000000 -0.1300000000
0.1348168600 1.5000000000 0.1201041400 0.2800000000 0.0200000000 -0.1300000000
-0.2335884400 1.5200000000 0.1448512400 0.2800000000 0.0600000000 -0.1300000000
0.0662602200 1.5200000000 0.1291131600 0.2800000000 0.0600000000 -0.1300000000
0.2517738200 1.1293570000 -0.1246215000 0.2997278800 0.0432879800 -0.1300000000
0.2769437200 1.5000000000 0.0946292200 0.2800000000 0.0200000000 -0.1300000000
-0.1150546200 1.5637292400 -0.1500000000 0.2906452400 0.0400000000 -0.1144094000
0.2458954600 0.5400000000 0.1844034600 0.2800000000 0.0600000000 -0.1300000000
0.2000761200 0.7678613200 0.3700000000 0.2800000000 0.0400000000 -0.1100000000
0.4619270400 0.1413283800 -0.4023753200 0.2967682600 0.0461594200 -0.1360953600
0.1933779200 1.4071569800 0.3700000000 0.2682197400 0.0372414000 -0.1448238600
0.3133028200 0.6268802600 -0.2711151600 0.2604916400 0.0369286800 -0.1325744800
-0.0859335800 1.5200000000 -0.0045215800 0.2800000000 0.0600000000 -0.1300000000
-0.1899369000 1.2410887200 -0.1098738000 0.2972608400 0.0400000000 -0.1400259200
-0.2000000000 0.7741584800 0.3566933400 0.2600000000 0.0400000000 -0.1300000000
0.1952967000 1.5000000000 0.3700702000 0.2800000000 0.0200000000 -0.1300000000
0.2935279400 0.5200000000 -0.0618298000 0.2800000000 0.0200000000 -0.1300000000
-0.2000000000 0.1475200400 0.3591729400 0.2600000000 0.0400000000 -0.1300000000
-0.0777415400 1.5000000000 0.1777182000 0.2800000000 0.0200000000 -0.1300000000
0.0253229600 0.5596119600 0.3500000000 0.2800000000 0.0400000000 -0.1296119800
0.2692966400 0.9040049000 -0.1885932800 0.2621114600 0.0400000000 -0.1389442800
0.1317765600 1.5000000000 0.1871197800 0.2800000000 0.0200000000 -0.1300000000
0.3797136200 0.4002874000 -0.3379425200 0.2830303400 0.0450685200 -0.1486917400
-0.1200000000 1.8580029200 -0.1644195200 0.3000000000 0.0400000000 -0.1300000000
0.2388459200 1.5000000000 0.0392039800 0.2800000000 0.0200000000 -0.1300000000
0.2166681400 0.2046648000 0.3700000000 0.2800000000 0.0400000000 -0.1100000000
-0.1376849400 1.8853358400 -0.1500000000 0.2800000000 0.0400000000 -0.1500000000
0.3646774200 0.4936290000 -0.2801897800 0.2990405600 0.0445064200 -0.1279045200
0.0059562400 1.9106636000 -0.1500000000 0.2800747600 0.0400000000 -0.1499670000
0.2538972000 1.5200000000 0.1307207600 0.2800000000 0.0600000000 -0.1300000000
-0.2000000000 0.6082139600 0.3537999800 0.2600000000 0.0400000000 -0.1300000000
0.3504951000 0.5580196000 -0.2845419600 0.2994345600 0.0447163400 -0.1300000000
0.2826243600 0.8042538400 -0.2112565800 0.2602721200 0.0367120200 -0.1300000000
0.1890921200 0.5381274400 0.3700000000 0.2800000000 0.0400000000 -0.1500000000
0.0709650000 1.9571035800 -0.1500000000 0.2808562400 0.0400000000 -0.1499692800
-0.0249380400 1.7365374800 -0.1300000000 0.2800000000 0.0369060600 -0.1102942400
0.2302111600 1.1471485200 -0.1154752400 0.2839531400 0.0371233000 -0.1107632800
-0.2000000000 1.2062842600 0.3573495400 0.2600000000 0.0400000000 -0.1300000000
-0.2447210600 1.7903938200 -0.1300000000 0.2800000000 0.0400000000 -0.1100000000
0.2482623200 1.5200000000 0.2835530000 0.2848467600 0.0578034000 -0.1256444800
0.0892114400 1.4799998400 0.0085482400 0.2800000000 0.0200000000 -0.1300000000
0.2000000000 0.1655305800 0.3590509400 0.2600000000 0.0400000000 -0.1300000000
0.2000000000 0.9044750200 0.3514222400 0.2600000000 0.0400000000 -0.1300000000
0.1474007800 0.5533562400 0.3500000000 0.2800000000 0.0400000000 -0.1233562600
0.2985256200 0.7701742600 -0.2332752600 0.2828864800 0.0465517800 -0.1482120800
0.0287298200 1.5200000000 0.0586385600 0.2800000000 0.0600000000 -0.1300000000
0.2000000000 0.6838788600 0.3692720800 0.2600000000 0.0400000000 -0.1300000000
-0.0717109600 1.5000000000 0.3161239200 0.2800000000 0.0200000000 -0.1300000000
-0.1800000000 1.1402897600 0.3660602600 0.3000000000 0.0400000000 -0.1300000000
0.2009542200 1.7886631800 -0.1300000000 0.2800000000 0.0391716800 -0.1100549800
0.0561353200 1.4890051200 0.1900000000 0.2931377200 0.0400000000 -0.1448660800
-0.2288106600 1.0205746400 -0.1610599000 0.2991849600 0.0373363200 -0.1347974000
-0.0055994400 1.5200000000 0.3590208400 0.2800000000 0.0600000000 -0.1300000000
-0.1820137000 1.0792466000 0.3700000000 0.2800000000 0.0400000000 -0.1100000000
0.2074909200 0.1912457000 0.3500000000 0.2800000000 0.0400000000 -0.1500000000
0.1723223600 1.9421000600 -0.1300000000 0.2800000000 0.0406037200 -0.1100743200
0.1344406400 1.5200000000 0.2045719600 0.2800000000 0.0600000000 -0.1300000000
-0.1071238000 1.4894940200 0.2571238000 0.2658578600 0.0400000000 -0.1441421400
-0.0610375200 1.5200000000 0.0697831000 0.2800000000 0.0600000000 -0.1300000000
0.2000000000 1.3042772600 0.3543530200 0.2600845400 0.0400000000 -0.1308537000
-0.0556057000 1.5000000000 0.3069585400 0.2800000000 0.0200000000 -0.1300000000
-0.0230709800 1.5000000000 0.1640433600 0.2800000000 0.0200000000 -0.1300000000
-0.0366205200 1.5200000000 0.1979668400 0.2800000000 0.0600000000 -0.1300000000
-0.0138210400 1.4800000000 0.1180763200 0.2800000000 0.0200000000 -0.1300000000
0.1385457600 1.5200000000 0.0855842600 0.2800000000 0.0600000000 -0.1300000000
0.1756202200 1.5200000000 0.1578860600 0.2800000000 0.0600000000 -0.1300000000
-0.3531128600 0.4668209400 -0.3231128800 0.2843747600 0.0437926400 -0.1489450200
0.2858761800 0.8433978200 -0.1822007200 0.2813855400 0.0339957600 -0.1110292000
0.1064429400 0.5400000000 0.3332199800 0.2800000000 0.0600000000 -0.1300000000
-0.0772761600 1.9000224400 -0.1500000000 0.2789266600 0.0400000000 -0.1499690600
-0.1800000000 0.2919726000 0.3598628200 0.3000000000 0.0400000000 -0.1300000000
0.2000000000 1.1766251400 0.3663825600 0.2600000000 0.0400000000 -0.1300000000
0.2060958000 1.4163324000 0.3500000000 0.2800000000 0.0400000000 -0.1500000000
0.0136168800 1.5000000000 0.2006727200 0.2800000000 0.0600000000 -0.1300000000
0.3161328400 0.6070700800 -0.2727281000 0.2604808200 0.0365543200 -0.1318246800
0.0513985000 1.5200000000 0.3233255400 0.2800000000 0.0600000000 -0.1300000000
0.4397514200 0.1511186600 -0.3705956000 0.2605890800 0.0352052600 -0.1300000000
0.4258091000 0.2138590800 -0.3576620200 0.2605094400 0.0355272400 -0.1300000000
0.1480656200 1.5000000000 -0.0222553600 0.2800000000 0.0600000000 -0.1300000000
0.1826572000 0.4488825600 0.3700000000 0.2800000000 0.0400000000 -0.1500000000
-0.2588775600 0.9506697000 -0.1677551400 0.2650319600 0.0405292200 -0.1172692000
0.1602327800 1.3990689000 -0.0675927400 0.2602833400 0.0368116000 -0.1303727000
-0.0677820600 1.7528134200 -0.1500000000 0.2788073000 0.0400000000 -0.1499567000
0.0928738600 1.5200000000 0.3828474400 0.2800000000 0.0600000000 -0.1300000000
-0.0975597400 1.7865371800 -0.1480489200 0.2786834800 0.0400000000 -0.1499535600
0.3873366600 0.4033166800 -0.3273672200 0.2995398600 0.0442622600 -0.1300000000
-0.1800000000 0.1879770600 0.3608600600 0.3000000000 0.0400000000 -0.1300000000
-0.1051869200 1.5000000000 -0.1271594600 0.2800000000 0.0600000000 -0.1300000000
0.1214271000 1.5186894200 -0.1192864600 0.2859081800 0.0540181400 -0.1420579400
0.1880846600 1.5200000000 0.1465651800 0.2800000000 0.0600000000 -0.1300000000
0.1181686800 0.5415484600 0.3500000000 0.2800000000 0.0400000000 -0.1115484800
0.2270335800 0.5264680000 0.2488992600 0.2603883800 0.0400000000 -0.1339223200
-0.4370967200 0.1287098400 -0.4015755200 0.2970847800 0.0336700800 -0.1254845200
0.0153773400 1.9233520600 -0.1300000000 0.2800000000 0.0414159200 -0.1101743000
0.2360930200 1.5200000000 0.2623272000 0.2800000000 0.0600000000 -0.1300000000
0.4470306200 0.1792225000 -0.3702591800 0.2844185600 0.0359489800 -0.1113339400
-0.2547264400 1.5200000000 0.1327443000 0.2762661600 0.0588598400 -0.1312446200
-0.3616129400 0.4319350000 -0.3250749000 0.2994741200 0.0354457600 -0.1300000000
0.2402443000 1.0791793800 -0.1268034200 0.2808700000 0.0368025400 -0.1103802200
-0.1356231600 1.4900476000 -0.0056231800 0.2650380000 0.0400000000 -0.1169953600
0.0859983600 1.5000000000 0.2287674000 0.2800000000 0.0200000000 -0.1300000000
-0.1800000000 0.0024971200 0.3604198000 0.2948735200 0.0276236000 -0.1300000000
0.0755074400 1.5200000000 0.0070431800 0.2800000000 0.0600000000 -0.1300000000
-0.0310327000 1.4800000000 0.1058748200 0.2800000000 0.0200000000 -0.1300000000
0.1403823000 1.5200000000 0.1395477600 0.2800000000 0.0600000000 -0.1300000000
-0.1250259800 0.5549490800 0.3500000000 0.2800000000 0.0440384400 -0.1330332400
0.2189948600 0.7273472600 0.3500000000 0.2800000000 0.0400000000 -0.1500000000
0.0917530400 1.5200000000 0.2317898600 0.2800000000 0.0600000000 -0.1300000000
-0.1985917200 0.3440954200 0.3500000000 0.2800000000 0.0400000000 -0.1500000000
0.0232724000 1.5200000000 0.2593476800 0.2800000000 0.0600000000 -0.1300000000
0.0432779000 1.9096486000 -0.1500000000 0.2805628600 0.0400000000 -0.1499648400
0.3102984000 0.6382095800 -0.2498409600 0.2603989400 0.0360760200 -0.1300000000
0.2113694600 1.5000000000 0.1012754600 0.2800000000 0.0200000000 -0.1300000000
-0.2000000000 0.9002407800 0.3646630000 0.2600000000 0.0400000000 -0.1300000000
0.2200000000 1.3827542200 0.3667768800 0.3000000000 0.0400000000 -0.1300000000
-0.0420037400 1.5200000000 0.2759702600 0.2800000000 0.0600000000 -0.1300000000
-0.3483753200 0.5040911200 -0.3139772400 0.2831139000 0.0443221600 -0.1491933800
0.0561699200 1.7610189800 -0.1300000000 0.2800000000 0.0381295200 -0.1101553200
-0.1221364200 1.4999998400 0.3969263400 0.2800000000 0.0200000000 -0.1300000000
-0.3722099400 0.4068004600 -0.3199598600 0.2800000000 0.0343394800 -0.1108178000
0.0555132000 1.4829597400 0.1144868000 0.2909508200 0.0400000000 -0.1141180200
0.1200000000 1.5056507800 -0.1494133400 0.2600000000 0.0400000000 -0.1300000000
-0.1823259800 1.2215168000 0.3700000000 0.2800000000 0.0400000000 -0.1100000000
-0.0718002800 1.5000000000 0.3811918600 0.2800000000 0.0200000000 -0.1300000000
0.1963650400 1.3038364400 0.3700000000 0.2800000000 0.0400000000 -0.1100000000
0.1200000000 1.5123906000 -0.1344954400 0.2600000000 0.0400000000 -0.1300000000
0.1542194600 1.5000000000 0.1725061400 0.2800000000 0.0200000000 -0.1300000000
0.1329579600 1.8283264200 -0.1500000000 0.2800000000 0.0400000000 -0.1500000000
0.0252193200 1.5200000000 -0.1052837400 0.2800000000 0.0600000000 -0.1300000000
-0.1800000000 0.1038967000 0.3623358600 0.3000000000 0.0400000000 -0.1300000000
0.0348775600 1.5000000000 0.4108402600 0.2800000000 0.0200000000 -0.1300000000
-0.3200000000 0.5381354600 -0.1316903800 0.2605883200 0.0400000000 -0.1251885200
0.2756243600 1.9056608600 -0.1300000000 0.2800000000 0.0400000000 -0.1100000000
0.2372332400 1.0942334800 -0.1242944200 0.2815528600 0.0368735800 -0.1104650600
-0.1673231600 1.5200000000 0.0308062800 0.2800000000 0.0600000000 -0.1300000000
-0.0537563800 1.5000000000 -0.1205568800 0.2800000000 0.0200000000 -0.1300000000
-0.1939953200 0.4567799000 0.3500000000 0.2800000000 0.0400000000 -0.1500000000
-0.0779638000 1.4868167200 0.2279638000 0.2658578600 0.0400000000 -0.1441421400
0.2000000000 1.1973272000 0.3691055000 0.2600000000 0.0400000000 -0.1300000000
0.2520318000 1.5000000000 0.2034587000 0.2800000000 0.0200000000 -0.1300000000
-0.1666403600 1.5200000000 0.1197721400 0.2800000000 0.0600000000 -0.1300000000
0.2979343600 0.5200000000 -0.1011148600 0.2800000000 0.0200000000 -0.1300000000
0.1914870400 1.8969406200 -0.1300000000 0.2800000000 0.0400000000 -0.1100000000
-0.2642903600 0.8860618600 -0.2021451800 0.2891352000 0.0416418200 -0.1462497400
0.0644868200 1.5000000000 0.3688802400 0.2800000000 0.0200000000 -0.1300000000
-0.1178454600 0.5323863200 0.3300000000 0.2800000000 0.0400000000 -0.1500000000
-0.2200000000 0.5209743400 0.3278555600 0.2600000000 0.0400000000 -0.1300000000
0.1349186400 1.5000000000 0.3332944400 0.2800000000 0.0200000000 -0.1300000000
-0.2368087000 0.5338267200 0.1595739200 0.2996116200 0.0400000000 -0.1339223200
0.2735013200 0.8739966600 -0.1970026400 0.2621114600 0.0400000000 -0.1389442800
0.0349999600 1.5200000000 0.3534564600 0.2800000000 0.0600000000 -0.1300000000
-0.1962826600 0.2911621800 0.3700000000 0.2800000000 0.0400000000 -0.1100000000
0.0717612400 1.5000000000 0.1258441800 0.2800000000 0.0200000000 -0.1300000000
0.4439674200 0.2016619000 -0.3827793600 0.2830373400 0.0463966000 -0.1474946800
-0.4800000000 0.0504790600 -0.4165086400 0.2623817200 0.0435498200 -0.1253977000
-0.2802263600 0.5400000000 -0.0642235800 0.2800000000 0.0600000000 -0.1300000000
0.1276986400 1.5000000000 0.3189468400 0.2800000000 0.0200000000 -0.1300000000
0.3079073200 0.5400000000 -0.1065384000 0.2800000000 0.0600000000 -0.1300000000
-0.1315365600 1.5000000000 0.0244225000 0.2800000000 0.0200000000 -0.1300000000
-0.3257661400 0.6724499200 -0.2485792200 0.2603053600 0.0424618200 -0.1275381800
-0.3131326000 0.6212045600 -0.2637708800 0.2976189000 0.0378507800 -0.1348226400
-0.0906160000 1.8197017000 -0.1488204400 0.2788631000 0.0400000000 -0.1499658400
0.2600000000 0.5220398000 0.1820382600 0.2996116200 0.0400000000 -0.1260776800
-0.1400000000 1.7248039200 -0.1398403600 0.2600000000 0.0400000000 -0.1300000000
-0.2982281400 0.7797499800 -0.2400416600 0.2714642800 0.0452807000 -0.1440097000
0.3000156600 0.8399060000 -0.1953058400 0.2997277200 0.0432869400 -0.1299969400
0.3225483200 0.5745427000 -0.2925483200 0.2641249800 0.0385419400 -0.1369869200
0.1109058400 1.9620576400 -0.1487882400 0.2812114200 0.0400000000 -0.1499615600
-0.1255044600 1.7056613200 -0.1500000000 0.2800000000 0.0400000000 -0.1500000000
-0.2068444800 1.1389329600 -0.1305245200 0.2995187200 0.0374561800 -0.1328371800
0.2796678400 1.8265802000 -0.1300000000 0.2800000000 0.0400000000 -0.1100000000
-0.1378870400 1.5000000000 0.2143902600 0.2800000000 0.0200000000 -0.1300000000
0.0844054800 1.8334014800 -0.1300000000 0.2800000000 0.0400000000 -0.1100000000
0.0182905600 1.7812841800 -0.1300000000 0.2800000000 0.0384814400 -0.1101503600
-0.0710578200 1.5199998400 0.0924192200 0.2800000000 0.0600000000 -0.1300000000
0.1916608600 1.9153265400 -0.1398154600 0.2817466400 0.0400000000 -0.1499179800
-0.1930518000 0.5304871000 0.3700000000 0.2800000000 0.0400000000 -0.1100000000
-0.1891206400 0.7419714400 0.3700000000 0.2800000000 0.0400000000 -0.1100000000
0.2000000000 1.2753265400 0.3550770600 0.2600986000 0.0400000000 -0.1309956800
-0.0000992800 1.5000000000 0.2973030000 0.2800000000 0.0200000000 -0.1300000000
0.0077819400 0.5400000000 0.3313846200 0.2800000000 0.0600000000 -0.1300000000
-0.1799999600 0.8425734800 0.3518344200 0.3000000000 0.0400000000 -0.1300000000
-0.1028579800 1.5000000000 0.2653671200 0.2800000000 0.0200000000 -0.1300000000
0.1761546000 1.5200000000 0.2740864200 0.2800000000 0.0600000000 -0.1300000000
-0.1992239400 0.0880244200 0.3500000400 0.2800000000 0.0400000000 -0.1500000000
0.1868658200 1.4791346800 0.3700000000 0.2800000000 0.0400000000 -0.1100000000
0.2000000000 0.5257483200 0.3629977000 0.2600000000 0.0400000000 -0.1300000000
0.1181457600 1.5200000000 -0.0472065400 0.2800000000 0.0600000000 -0.1300000000
0.2274663600 1.5137584000 -0.0425336400 0.2902669400 0.0504263200 -0.1407237000
-0.0233968400 1.8499374400 -0.1500000000 0.2796139600 0.0400000000 -0.1499691800
0.1819046200 1.3048305600 0.3700000000 0.2800000000 0.0400000000 -0.1100000000
0.0901858600 1.9800000000 -0.1396533000 0.2800000000 0.0521627400 -0.1199622200
-0.4441528400 0.1568064400 -0.3884874600 0.2800000000 0.0352344600 -0.1105818600
0.0027596600 1.5200000000 -0.1176751600 0.2800000000 0.0600000000 -0.1300000000
-0.0352191600 1.4800000000 0.2110723200 0.2800000000 0.0200000000 -0.1300000000
-0.0221317800 1.9069278000 -0.1300000000 0.2800000000 0.0404200600 -0.1100517200
-0.1847831400 1.1361499000 0.3500000000 0.2800000000 0.0400000000 -0.1500000000
-0.1200000000 1.9380380200 -0.1657495000 0.2600000000 0.0400000000 -0.1300000000
-0.1990398400 1.3271878000 0.3499999600 0.2800000000 0.0400000000 -0.1500000000
0.1494738000 1.4694491600 -0.0489229400 0.2646224800 0.0361424000 -0.1410382600
0.1877430000 1.1371265400 0.3700000000 0.2800000000 0.0400000000 -0.1100000000
0.2580316600 1.0918100800 -0.1334826800 0.2997278800 0.0432879800 -0.1300000000
0.1995713600 0.6279992200 0.3700000000 0.2800000000 0.0400000000 -0.1500000000
0.0916626200 1.5000000000 -0.0787781000 0.2800000000 0.0200000000 -0.1300000000
0.2799373800 1.8889807200 -0.1300000000 0.2800000000 0.0400000000 -0.1100000000
-0.0086375200 1.8069923400 -0.1500000000 0.2797578800 0.0400000000 -0.1499721600
0.4898178000 0.0403644200 -0.4291683600 0.2962508200 0.0482461200 -0.1354549800
-0.2103999800 1.5200000000 0.1493188200 0.2800000000 0.0600000000 -0.1300000000
0.0819002800 1.4800000000 0.0440246200 0.2800000000 0.0200000000 -0.1300000000
-0.0858215800 1.5000000000 -0.0321318000 0.2800000000 0.0200000000 -0.1300000000
0.1749410400 1.5200000000 -0.0315013400 0.2800000000 0.0600000000 -0.1300000000
0.2000000000 0.8003489600 0.3603288600 0.2600000000 0.0400000000 -0.1300000000
-0.0181108800 1.5200000000 -0.0687951800 0.2800000000 0.0600000000 -0.1300000000
-0.2000000000 1.1001366400 0.3572229800 0.2600000000 0.0400000000 -0.1300000000
-0.2502865600 1.5000000000 0.2449609800 0.2800000000 0.0200000000 -0.1300000000
0.2648966200 0.9106203400 -0.1757484400 0.2602721200 0.0367120200 -0.1300000000
-0.3327736200 0.5352924000 -0.3015815000 0.2994816000 0.0354761200 -0.1300000000
0.1635478400 1.4898410000 0.3500000000 0.2800000000 0.0400000000 -0.1100000000
0.0384202400 1.5200000000 0.4078836400 0.2800000000 0.0600000000 -0.1300000000
-0.0256362200 1.4800000000 0.1243718000 0.2800000000 0.0200000000 -0.1300000000
-0.1148183000 1.9232138000 -0.1300000000 0.2800000000 0.0409540800 -0.1100789600
0.2200000000 0.4570406400 0.3589485200 0.3000000000 0.0400000000 -0.1300000000
-0.0491262800 1.5200000000 -0.1178542200 0.2797303200 0.0577439400 -0.1354633200
-0.1908554800 0.6327883600 0.3500000000 0.2800000000 0.0400000000 -0.1500000000
0.3229955000 0.5400000000 -0.1413793800 0.2800000000 0.0600000000 -0.1300000000
0.0602793200 1.4800000000 0.2329997200 0.2800000000 0.0200000000 -0.1300000000
-0.4339175400 0.0992303400 -0.4169232200 0.2855863600 0.0442167600 -0.1461149000
0.2320458600 1.5000000000 0.2928687000 0.2800000000 0.0200000000 -0.1300000000
-0.1253680400 1.6366412400 -0.1500000000 0.2800000000 0.0400000000 -0.1500000000
0.1991410400 1.4994726600 0.3500000000 0.2800000000 0.0400000000 -0.1100000000
-0.4650832400 0.1047503000 -0.4145075800 0.2671182400 0.0394490600 -0.1153322800
0.0040615000 1.8023768600 -0.1500000000 0.2798954800 0.0400000000 -0.1499727400
0.1877974800 0.5337057400 0.3300000000 0.2800000000 0.0400000000 -0.1500000000
-0.1943993000 0.3251142200 0.3700000000 0.2800000000 0.0400000000 -0.1100000000
-0.1895165600 1.0618068000 0.3500000000 0.2800000000 0.0400000000 -0.1500000000
0.2213380200 1.5200000000 0.1232182600 0.2800000000 0.0600000000 -0.1300000000
0.1026368800 1.5000000000 0.1030508800 0.2800000000 0.0200000000 -0.1300000000
0.0820174200 1.5200000000 0.2009277800 0.2800000000 0.0600000000 -0.1300000000
-0.2000000000 0.4235091400 0.3656822600 0.2600000000 0.0400000000 -0.1300000000
-0.2098084200 1.5200000000 0.0686711400 0.2800000000 0.0600000000 -0.1300000000
0.1937061200 1.1018727200 0.3700000000 0.2800000000 0.0400000000 -0.1100000000
0.3080340000 0.6517960400 -0.2510945800 0.2602721200 0.0367120200 -0.1300000000
0.2040984600 1.0698248200 0.3700000000 0.2800000000 0.0400000000 -0.1100000000
-0.4003723200 0.3353115000 -0.3414065600 0.2800000000 0.0343024200 -0.1108288000
-0.1321497800 1.8924325600 -0.1300000000 0.2800000000 0.0400000000 -0.1100000000
0.1019926400 0.5504448600 0.3500000000 0.2800000000 0.0400000000 -0.1395551000
-0.1972057000 1.9523248200 -0.1369771400 0.2781759200 0.0400000000 -0.1499096600
-0.0274598400 1.5000000000 0.0015651000 0.2800000000 0.0200000000 -0.1300000000
-0.2128012400 1.2431924400 -0.1149841400 0.2603139600 0.0435163000 -0.1300000000
-0.0183137000 1.5200000000 -0.0177724000 0.2800000000 0.0600000000 -0.1300000000
0.2536960200 1.4999998400 0.0371433400 0.2800000000 0.0200000000 -0.1300000000
-0.2167428600 1.1440730200 -0.1159878200 0.2793404800 0.0357841200 -0.1105081400
-0.1454650400 1.5199998400 0.3255400000 0.2800000000 0.0600000000 -0.1300000000
0.1268398600 0.5200000000 0.3332373000 0.2800000000 0.0200000000 -0.1300000000
0.4425978400 0.2283096400 -0.3693495800 0.2993533200 0.0450410800 -0.1300000000
0.2000000000 1.3877993800 0.3608396600 0.2625335800 0.0383378600 -0.1375692200
-0.1487609800 1.8440512000 -0.1423599000 0.2784960000 0.0400000000 -0.1499356200
-0.0900327400 1.4800000000 -0.0991206600 0.2800000000 0.0200000000 -0.1300000000
-0.2003140600 1.5000000000 0.2092101600 0.2800000000 0.0200000000 -0.1300000000
-0.1800295600 1.3903357000 0.3500000000 0.2800000000 0.0400000000 -0.1500000000
-0.1822620000 1.3097250400 -0.1117124800 0.2849772400 0.0427701400 -0.1491095000
0.3351317200 0.5400000000 -0.2369796800 0.2800000000 0.0600000000 -0.1300000000
0.2137988800 0.5336842400 0.3700000000 0.2800000000 0.0400000000 -0.1100000000
0.1999863800 1.2400409000 -0.0908473400 0.2608654200 0.0342069200 -0.1300000000
-0.1474169200 1.5000000000 0.0218199800 0.2800000000 0.0200000000 -0.1300000000
0.0652515200 0.5200000000 0.3376420600 0.2800000000 0.0200000000 -0.1300000000
-0.1200000000 1.5989729400 -0.1609442000 0.3000000000 0.0400000000 -0.1300000000
-0.1061614600 1.4800151000 -0.0100000000 0.2941421400 0.0400000000 -0.1441421400
0.0066760400 1.7775120600 -0.1500000000 0.2798257400 0.0400000000 -0.1499775000
-0.2719402400 0.5340028400 0.0741793000 0.2603883800 0.0400000000 -0.1260776800
-0.0722765000 1.5000000000 0.3635805800 0.2800000000 0.0200000000 -0.1300000000
-0.0072379800 1.5000000000 -0.0616307400 0.2800000000 0.0200000000 -0.1300000000
-0.0446254800 1.5000000000 0.0926169800 0.2800000000 0.0200000000 -0.1300000000
-0.0742243600 1.5200001600 0.0036873200 0.2800000000 0.0600000000 -0.1300000000
0.2073456400 1.4297665400 0.3500000000 0.2800000000 0.0400000000 -0.1500000000
-0.1830984400 1.2635603400 0.3700000000 0.2800000000 0.0400000000 -0.1100000000
0.2800000000 1.5076303200 0.0801608600 0.2971092400 0.0456615800 -0.1323161200
-0.0062933200 1.7829174800 -0.1500000000 0.2796880400 0.0400000000 -0.1499767800
-0.0450315000 1.9531243800 -0.1300000000 0.2800000000 0.0424870000 -0.1102438400
0.2800000000 0.5202927400 0.0390160200 0.2602817400 0.0400000000 -0.1328452600
0.1679989200 1.5000000000 0.2060351600 0.2800000000 0.0200000000 -0.1300000000
0.1436199000 1.5000000000 -0.0580795600 0.2800000000 0.0200000000 -0.1300000000
0.2533485600 1.5000000000 0.2219667800 0.2800000000 0.0200000000 -0.1300000000
-0.0293302800 1.5000000000 0.0735041600 0.2800000000 0.0200000000 -0.1300000000
-0.0968427200 0.5400000000 0.3344241400 0.2800000000 0.0584081400 -0.1333987000
-0.3330156000 0.6397979000 -0.2767340600 0.2800000000 0.0452809400 -0.1492876400
-0.1200000000 1.5601410000 -0.1653841800 0.3000000000 0.0400000000 -0.1300000000
-0.0359585200 1.5000000000 0.1560789800 0.2800000000 0.0200000000 -0.1300000000
-0.2008350000 1.8469192600 -0.1300000000 0.2800000000 0.0400000000 -0.1100000000
0.0645034200 1.5200000000 0.0322834000 0.2800000000 0.0600000000 -0.1300000000
0.4356723000 0.1329831400 -0.4056099800 0.2611313800 0.0333772000 -0.1300107600
0.3953361400 0.3001850200 -0.3519445000 0.2800000000 0.0459396800 -0.1490972000
-0.1400000000 1.7103874200 -0.1335473400 0.2600000000 0.0400000000 -0.1300000000
0.1706651400 1.8153788800 -0.1300000000 0.2800000000 0.0398778600 -0.1100081000
-0.3030969600 0.5200000000 -0.1282704200 0.2800000000 0.0200000000 -0.1300000000
0.2398235600 1.0810587400 -0.1453052000 0.2603211800 0.0369038600 -0.1308264600
-0.2000000000 1.4243197600 0.3528561800 0.2600000000 0.0400000000 -0.1300000000
0.2661893600 0.5200000400 0.0919475800 0.2800000000 0.0200000000 -0.1300000000
0.2038025000 1.5000000000 -0.0364943000 0.2800000000 0.0200000000 -0.1300000000
0.0616767200 1.5200000000 0.2077407800 0.2800000000 0.0600000000 -0.1300000000
-0.0208453400 1.5000000000 0.2276140200 0.2800000000 0.0200000000 -0.1300000000
-0.1394249800 0.5351598400 0.3500000000 0.2800000000 0.0400000000 -0.1100000000
0.1000000000 1.4901297000 0.2307390200 0.2942805800 0.0400000000 -0.1439500600
-0.0781919800 1.5000000000 0.1405533800 0.2800000000 0.0200000000 -0.1300000000
0.0102008600 1.9800000000 -0.1487542400 0.2800000000 0.0590563800 -0.1287914400
0.1304969400 1.5000000000 0.2368829000 0.2800000000 0.0200000000 -0.1300000000
-0.0023800200 1.5000000000 0.3479336200 0.2800000000 0.0200000000 -0.1300000000
-0.1748500000 1.4923384000 0.3525116800 0.2885897000 0.0485897000 -0.1142707200
-0.1807282200 0.9753617800 0.3500000400 0.2800000000 0.0400000000 -0.1500000000
0.4477724800 0.1433427400 -0.4022190800 0.2800000000 0.0460269000 -0.1490485000
-0.0550387200 1.5000000000 -0.0149568400 0.2800000000 0.0200000000 -0.1300000000
0.0804507400 1.5000000000 0.2437722400 0.2800000000 0.0200000000 -0.1300000000
-0.1681463200 1.5200000000 0.1454420200 0.2800000000 0.0600000000 -0.1300000000
-0.1990044400 0.3574211400 0.3700000000 0.2800000000 0.0400000000 -0.1100000000
-0.2702262800 1.5030743400 0.1104526200 0.2623840000 0.0425984000 -0.1358720000
-0.3649847400 0.4571370400 -0.3051037000 0.2800000000 0.0343275000 -0.1108214800
0.2412999800 1.5200000000 0.1915606600 0.2800000000 0.0600000000 -0.1300000000
-0.0614166200 1.5200000000 -0.0384434400 0.2800000000 0.0600000000 -0.1300000000
-0.1800000000 1.3486427400 0.3523737800 0.3000000000 0.0400000000 -0.1300000000
0.1212162600 1.5000000000 0.2139422600 0.2800000000 0.0200000000 -0.1300000000
0.1847990800 0.3991006800 0.3700000000 0.2800000000 0.0400000000 -0.1500000000
0.2262947200 1.5200000000 0.1829771000 0.2800000000 0.0600000000 -0.1300000000
-0.4638735200 0.0413884600 -0.4193057600 0.2800000000 0.0330245000 -0.1113592600
-0.0341528400 1.5200000000 0.3176904000 0.2800000000 0.0600000000 -0.1300000000
0.1661778800 1.7676431200 -0.1426469000 0.2814755000 0.0400000000 -0.1499371200
-0.0969342400 1.4806417800 0.0530657800 0.2652835800 0.0400000000 -0.1166546400
0.0773631000 1.9113244600 -0.1500000000 0.2810123200 0.0400000000 -0.1499632800
0.3422121800 0.5022573800 -0.2898194200 0.2616562400 0.0343249000 -0.1259634200
-0.3040167200 0.5400000000 -0.1301306000 0.2800000000 0.0600000000 -0.1300000000
-0.0060671000 1.5000000000 0.0256062200 0.2800000000 0.0200000000 -0.1300000000
0.4130690400 0.2007928400 -0.3761207600 0.2609701600 0.0342849000 -0.1291330600
-0.0801760800 1.5200000000 0.3534250600 0.2800000000 0.0600000000 -0.1300000000
-0.0879729400 1.4800000000 -0.0488802600 0.2800000000 0.0200000000 -0.1300000000
-0.1670042400 1.8201071200 -0.1403328600 0.2783804400 0.0400000000 -0.1499261200
-0.3165103600 0.5286530400 -0.1230206800 0.2605971400 0.0400000000 -0.1251492800
0.0943812600 1.9224794000 -0.1500000000 0.2811651800 0.0400000000 -0.1499629800
0.2625953600 1.0190656200 -0.1368223800 0.2800000000 0.0367120200 -0.1102721200
-0.0277548000 1.5200000000 -0.0975342600 0.2800000000 0.0600000000 -0.1300000000
0.3393079800 0.5400000000 -0.1793040800 0.2800000000 0.0200000000 -0.1300000000
0.1400000000 1.7571510400 -0.1358566200 0.3000000000 0.0400000000 -0.1300000000
0.1400000000 1.5452961800 -0.1429367200 0.3000000000 0.0400000000 -0.1300000000
0.1937224800 1.2826738000 0.3700000000 0.2800000000 0.0400000000 -0.1500000000
0.1246906800 1.7367787200 -0.1472566000 0.2810104600 0.0400000000 -0.1499681400
-0.3202112600 0.6356937000 -0.2781021000 0.2833376200 0.0450299400 -0.1489261000
-0.0769892800 1.5000000000 -0.0155766200 0.2800000000 0.0200000000 -0.1300000000
0.0754531000 1.5000000000 0.1054954400 0.2800000000 0.0600000000 -0.1300000000
0.4573483200 0.0719325400 -0.3873804400 0.2606895800 0.0347988800 -0.1300000000
-0.1919253600 0.3198794200 0.3500000000 0.2800000000 0.0400000000 -0.1500000000
0.1386350800 1.8696705600 -0.1300000000 0.2800000000 0.0400000000 -0.1100000000
-0.2579355200 1.9789851400 -0.1302294000 0.2778039800 0.0400000000 -0.1498787200
-0.0642776200 1.8899728400 -0.1500000000 0.2790895400 0.0400000000 -0.1499690800
0.1996179200 0.7194147400 0.3700000000 0.2800000000 0.0400000000 -0.1500000000
0.0330832000 1.9299127200 -0.1300000000 0.2800000000 0.0418137400 -0.1102232800
0.2563851400 0.5240501000 0.1208445800 0.2609110400 0.0400000000 -0.1358903600
0.2663585000 0.5399999600 0.0985244800 0.2800000000 0.0600000000 -0.1300000000
0.2573823600 1.5197441200 0.0047647000 0.2905016400 0.0563751000 -0.1338406600
-0.2508389200 0.9871135000 -0.1809621600 0.2800085800 0.0451796000 -0.1493065200
0.3183636400 0.5914545000 -0.2812077000 0.2605045200 0.0366002200 -0.1324029600
0.0328706400 1.5200000000 -0.0458387800 0.2800000000 0.0600000000 -0.1300000000
-0.0600000000 1.4923223800 0.0591848200 0.3000000000 0.0400000000 -0.1300000000
-0.1600000000 1.4433816600 -0.0637678800 0.2617256400 0.0470166600 -0.1291405200
-0.2504544000 1.0108770800 -0.1509088200 0.2634743600 0.0407634600 -0.1194206000
-0.1811528800 1.8606941200 -0.1300000000 0.2800000000 0.0400000000 -0.1100000000
0.3160035600 0.7220732800 -0.2493089200 0.2868512200 0.0468638800 -0.1471660000
0.2988991400 0.5260781800 -0.1277982800 0.2620281000 0.0400000000 -0.1387189400
0.2337512200 1.5200000000 0.2110675400 0.2800000000 0.0600000000 -0.1300000000
0.2171563800 0.9759668800 0.3700000000 0.2800000000 0.0400000000 -0.1100000000
0.2000000000 0.5731913800 0.3562780800 0.2600000000 0.0400000000 -0.1300000000
0.2200000000 0.4378371400 0.3504644400 0.3000000000 0.0400000000 -0.1300000000
0.3285438800 0.6687367600 -0.2579089400 0.2997278800 0.0432879800 -0.1300000000
-0.1799999600 1.3086853000 0.3541009600 0.3000000000 0.0400000000 -0.1300000000
0.2730080600 1.5065103200 0.2769919600 0.2952489000 0.0448306400 -0.1216210000
0.0855005400 1.5000000000 0.3554892800 0.2800000000 0.0200000000 -0.1300000000
0.1872566000 1.3343258600 -0.0631348200 0.2789042000 0.0350212800 -0.1107215800
-0.3876664800 0.4144449600 -0.3234010200 0.2611659200 0.0452588400 -0.1301806000
0.0915129800 1.5000000000 0.1320832800 0.2800000000 0.0200000000 -0.1300000000
0.0001247600 1.5199998400 0.2531134000 0.2800000000 0.0600000000 -0.1300000000
0.1563372000 1.9234628200 -0.1300000000 0.2800000000 0.0400000000 -0.1100000000
0.1000000000 1.4803959600 0.0535832600 0.2948133600 0.0400000000 -0.1167891200
0.2011036600 1.5000000000 0.1341820600 0.2800000000 0.0200000000 -0.1300000000
-0.1390335800 1.5200000000 0.2808065000 0.2800000000 0.0600000000 -0.1300000000
0.0610101600 1.8989129600 -0.1300000000 0.2800000000 0.0400000000 -0.1100000000
-0.1098482200 1.5200000000 0.1931851600 0.2800000000 0.0600000000 -0.1300000000
0.1626338200 1.5000000000 0.2980319600 0.2800000000 0.0200000000 -0.1300000000
-0.0251863000 1.5200000000 -0.0819747400 0.2800000000 0.0600000000 -0.1300000000
-0.0056775000 1.5200000000 0.0646272600 0.2800000000 0.0600000000 -0.1300000000
0.2316358600 1.5000000000 0.2659306800 0.2800000000 0.0200000000 -0.1300000000
0.1961695200 0.2306721400 0.3699999600 0.2800000000 0.0400000000 -0.1100000000
0.2663463600 1.8322898800 -0.1315170800 0.2821372200 0.0400000000 -0.1498839000
-0.2474900800 1.5178579800 0.2750197600 0.2671042600 0.0536908400 -0.1257014200
-0.0798441400 1.4800000000 0.0215815800 0.2800000000 0.0200000000 -0.1300000000
-0.0323462800 1.9011358600 -0.1500000000 0.2795250600 0.0400000000 -0.1499669600
0.0689462400 1.8312228400 -0.1500000000 0.2807618200 0.0400000000 -0.1499673600
-0.1800000000 1.2275325000 0.3539692000 0.3000000000 0.0400000000 -0.1300000000
0.2062654200 0.2929501600 0.3700000000 0.2800000000 0.0400000000 -0.1100000000
0.2183983200 1.5000000000 0.1975550000 0.2800000000 0.0200000000 -0.1300000000
0.1379467000 1.5200000000 0.1264352800 0.2800000000 0.0600000000 -0.1300000000
0.2159801800 1.2815190200 -0.0859801800 0.2927828000 0.0385728600 -0.1148077400
0.1525057800 1.4800000000 0.3220889000 0.2800000000 0.0200000000 -0.1300000000
-0.1600000000 1.4854768400 0.3290421000 0.2628568000 0.0400000000 -0.1396903000
-0.1832031200 1.3737864600 0.3500000000 0.2800000000 0.0400000000 -0.1500000000
0.0556697200 1.5000000000 0.1199999600 0.2800000000 0.0200000000 -0.1300000000
0.3460017600 0.4889938400 -0.3130097200 0.2606735200 0.0351514200 -0.1306500400
0.1600000000 1.4523671000 -0.0411387200 0.2600000000 0.0400000000 -0.1300000000
0.1624321600 1.4800000000 0.3356803800 0.2800000000 0.0200000000 -0.1300000000
-0.2849066200 0.8456858800 -0.1857190200 0.2788348600 0.0356050000 -0.1106723400
0.1408010200 1.8987255800 -0.1300000000 0.2800000000 0.0400000000 -0.1100000000
0.3908695600 0.2856522000 -0.3542321000 0.2605968600 0.0351766400 -0.1300000000
-0.2857913200 0.9159654200 -0.1846782000 0.2800000000 0.0453915400 -0.1492453600
0.2010249800 1.3557655400 0.3699999600 0.2800000000 0.0400000000 -0.1100000000
0.2864386200 0.8565029200 -0.1778323600 0.2817645800 0.0341062200 -0.1110224200
-0.2444974800 1.5200000000 0.0666262600 0.2745826400 0.0575461200 -0.1318057800
0.0400000000 1.4845639000 0.2132583200 0.2652475200 0.0400000000 -0.1167046800
-0.0860144800 1.5200000000 0.0388917000 0.2800000000 0.0600000000 -0.1300000000
0.0703027800 1.5000000000 0.0713082800 0.2800000000 0.0200000000 -0.1300000000
-0.2000000000 0.4831667000 0.3532869400 0.2600000000 0.0400000000 -0.1300000000
0.3200000000 0.5257064800 -0.2112989200 0.2604488600 0.0400000000 -0.1342088600
-0.0381940800 1.8094073400 -0.1300000000 0.2800000000 0.0395845200 -0.1100411400
0.2606524400 0.5400000000 0.0519349400 0.2800000000 0.0200000000 -0.1300000000
-0.2311581400 1.1286688200 -0.1418885200 0.2800000000 0.0432879800 -0.1497278800
0.4048799200 0.3570669600 -0.3282140000 0.2992332200 0.0454744800 -0.1300000000
-0.2312711800 1.5000000000 0.2867428600 0.2800000000 0.0200000000 -0.1300000000
0.2366212600 1.5000000000 0.0868542000 0.2800000000 0.0200000000 -0.1300000000
-0.0847004000 1.5200000000 0.2038489600 0.2800000000 0.0600000000 -0.1300000000
0.1821860600 0.8961983400 0.3700000000 0.2800000000 0.0400000000 -0.1100000000
0.1109713800 1.5000000000 0.3506704800 0.2800000000 0.0200000000 -0.1300000000
-0.1200000000 1.9037936400 -0.1357983800 0.2983017000 0.0400000000 -0.1258999400
-0.1647023400 1.5200000000 0.2313790200 0.2800000000 0.0600000000 -0.1300000000
0.1995858000 0.2461451400 0.3700000000 0.2800000000 0.0400000000 -0.1100000000
-0.2768185000 0.5200000000 0.0565037400 0.2800000000 0.0200000000 -0.1300000000
-0.1719406800 0.5256331600 0.3300000000 0.2800000000 0.0400000000 -0.1500000000
0.2200000000 0.6470731400 0.3522374000 0.3000000000 0.0400000000 -0.1300000000
0.0845687600 1.8985377600 -0.1500000000 0.2810614000 0.0400000000 -0.1499607400
0.0641975800 1.5200000000 0.1741838400 0.2800000000 0.0600000000 -0.1300000000
0.0128063000 1.8660293600 -0.1300000000 0.2800000000 0.0400000000 -0.1100000000
0.2200000000 1.2230400800 0.3598634400 0.3000000000 0.0400000000 -0.1300000000
-0.1950986400 0.9871676600 0.3700000000 0.2800000000 0.0400000000 -0.1100000000
-0.1427650400 1.5200000000 -0.0121022200 0.2800000000 0.0600000000 -0.1300000000
0.1848828800 0.8555183400 0.3700000000 0.2800000000 0.0400000000 -0.1500000000
-0.2240145800 1.0359126200 -0.1453346200 0.2997278800 0.0367120200 -0.1300000000
0.0089127000 1.5200000000 0.2410046800 0.2800000000 0.0600000000 -0.1300000000
-0.1814880400 1.9203433200 -0.1300000000 0.2800000000 0.0408361000 -0.1100692000
0.0432521800 1.5000000000 -0.0089144800 0.2800000000 0.0200000000 -0.1300000000
-0.0578673200 1.4799998400 0.0900694400 0.2800000000 0.0200000000 -0.1300000000
-0.3940150400 0.2699247600 -0.3742981600 0.2989072600 0.0360608000 -0.1328657000
-0.1400000000 1.9069308400 -0.1497521400 0.2600156000 0.0400774200 -0.1299613000
-0.0517012800 1.5200000000 0.3141116000 0.2800000000 0.0600000000 -0.1300000000
0.2200000000 0.9975038200 0.3618972000 0.3000000000 0.0400000000 -0.1300000000
-0.1800000000 1.2783588400 0.3509908600 0.3000000000 0.0400000000 -0.1300000000
0.2000000000 0.9795086600 0.3575611800 0.2600000000 0.0400000000 -0.1300000000
0.1502288800 1.5200000000 0.3970356000 0.2823070600 0.0582889600 -0.1253858800
0.2222441200 1.2199397200 -0.1233534000 0.2800000000 0.0450956200 -0.1493315400
-0.1863287400 0.5641706800 0.3700000000 0.2800000000 0.0400000000 -0.1100000000
0.1474125800 1.5000000000 0.0594839000 0.2800000000 0.0200000000 -0.1300000000
-0.2800000000 0.5229276200 -0.0805469800 0.2995624000 0.0400000000 -0.1340836000
-0.2909957200 0.7540258800 -0.2231229000 0.2943444600 0.0347898200 -0.1215416800
0.2807589800 0.5400000000 -0.0096728800 0.2800000000 0.0600000000 -0.1300000000
0.1806112400 1.4114935400 0.3700000000 0.2800000000 0.0400000000 -0.1100000000
0.1935174400 1.3695025600 -0.0792450200 0.2853173400 0.0457580000 -0.1483246400
0.1068547200 1.5000000000 0.0417196200 0.2800000000 0.0600000000 -0.1300000000
0.1379517400 1.5000000000 0.2961073000 0.2800000000 0.0200000000 -0.1300000000
-0.0693245600 1.8017019600 -0.1300000000 0.2800000000 0.0392823000 -0.1100710600
0.2333913000 1.5200000000 0.0218052600 0.2800000000 0.0600000000 -0.1300000000
0.2014336000 1.5200000000 0.1382901200 0.2800000000 0.0600000000 -0.1300000000
-0.2296764800 0.5200000000 0.1901485400 0.2800000000 0.0200000000 -0.1300000000
0.0561663000 1.5000000000 0.0924617000 0.2800000000 0.0200000000 -0.1300000000
-0.1200000000 1.5560138000 -0.1300962200 0.2999707800 0.0400167600 -0.1299330000
0.2000000000 0.9327226200 0.3559984200 0.2600000000 0.0400000000 -0.1300000000
0.4298086200 0.2194878000 -0.3768373800 0.2816250800 0.0462227200 -0.1482279200
-0.1830822000 1.2121457600 0.3500000400 0.2800000000 0.0400000000 -0.1500000000
-0.1857996000 1.3910019000 -0.0798723200 0.2663155800 0.0471013400 -0.1419853600
-0.1070910200 0.5597795400 0.3500000000 0.2800000000 0.0401411400 -0.1301693600
0.2643868600 0.5200000000 0.1105899400 0.2800000000 0.0200000000 -0.1300000000
-0.2000000000 0.3763140400 0.3630455800 0.2600000000 0.0400000000 -0.1300000000
-0.2531885600 1.8903497400 -0.1300000000 0.2800000000 0.0400000000 -0.1100000000
0.0256536400 1.5000000000 0.1436064600 0.2800000000 0.0200000000 -0.1300000000
-0.2268399800 0.5231140200 0.2494800200 0.2619425600 0.0334726400 -0.1257704200
-0.3232599600 0.5225048000 -0.1797798000 0.2604027000 0.0400000000 -0.1260098200
-0.3135508800 0.6524741000 -0.2725086400 0.2843166800 0.0449476000 -0.1488165000
0.2199157600 1.5000000000 -0.0335968600 0.2800000000 0.0200000000 -0.1300000000
-0.1826558600 1.4525730800 0.3700000000 0.2800000000 0.0400000000 -0.1100000000
0.0868134000 1.5000000000 0.4213153800 0.2800000000 0.0200000000 -0.1300000000
-0.1079267800 1.9639621000 -0.1300000000 0.2800000000 0.0426288400 -0.1102175600
-0.1420405600 1.5200000000 -0.0487680000 0.2800000000 0.0600000000 -0.1300000000
0.1965528200 1.9659527600 -0.1300000000 0.2800000000 0.0413970400 -0.1101719800
-0.2527240400 0.9049905400 -0.1758349200 0.2800000000 0.0356052000 -0.1105023200
0.1272207200 1.9634848000 -0.1469754800 0.2813082200 0.0400000000 -0.1499534200
-0.0623245200 1.5199998400 0.1661196600 0.2800000000 0.0600000000 -0.1300000000
0.2071327600 0.5552737400 0.3500000000 0.2800000000 0.0400000000 -0.1500000000
-0.4566632800 0.1300100200 -0.3952332600 0.2651167000 0.0419085600 -0.1224810600
0.1448766600 1.9800000000 -0.1347113200 0.2800000000 0.0521963200 -0.1200052200
0.4082239400 0.3459202400 -0.3349382600 0.2992435400 0.0454378600 -0.1300000000
0.1717548600 1.3529806600 -0.0796764400 0.2606208600 0.0363197200 -0.1326664800
0.0574464800 1.5200000000 -0.0357324800 0.2800000000 0.0600000000 -0.1300000000
-0.2122689400 1.5000000000 0.1899333600 0.2800000000 0.0200000000 -0.1300000000
-0.0016319200 1.5000000000 0.1045571600 0.2800000000 0.0200000000 -0.1300000000
0.0730301400 1.8214419600 -0.1300000000 0.2800000000 0.0400000000 -0.1100000000
0.1666234000 1.7603588800 -0.1300000000 0.2800000000 0.0384235200 -0.1101046400
-0.1264513000 1.8972609000 -0.1500000000 0.2800000000 0.0400000000 -0.1500000000
0.0937996200 1.4800000000 0.2396518000 0.2800000000 0.0200000000 -0.1300000000
0.0724406400 1.5000000000 -0.1122566200 0.2800000000 0.0200000000 -0.1300000000
-0.0470224400 1.5200000000 0.2918039800 0.2800000000 0.0600000000 -0.1300000000
0.0882561400 1.5000000000 0.1086647000 0.2800000000 0.0200000000 -0.1300000000
-0.1160781800 1.5000000000 -0.0354233400 0.2800000000 0.0200000000 -0.1300000000
0.0366579800 1.9154565400 -0.1300000000 0.2800000000 0.0409371800 -0.1101153800
-0.1081480000 1.5000000000 0.0793154800 0.2800000000 0.0200000000 -0.1300000000
0.2000000000 0.8923960800 0.3673721400 0.2600000000 0.0400000000 -0.1300000000
0.1800000000 1.4762912000 0.3402021800 0.2722019400 0.0322019400 -0.1377980600
-0.1521585800 1.5200000000 0.0171707000 0.2800000000 0.0600000000 -0.1300000000
-0.4119075800 0.2042773400 -0.3839910400 0.2970702000 0.0384275000 -0.1390082200
0.0200000000 1.4823571800 0.1144170600 0.2650304600 0.0400000000 -0.1429941800
0.3250391600 0.5200000000 -0.2363676800 0.2800000000 0.0400000000 -0.1300000000
-0.3052430000 0.6685421000 -0.2415600600 0.2995890400 0.0365817200 -0.1295396600
0.2000000000 1.1534367400 0.3625824000 0.2600000000 0.0400000000 -0.1300000000
-0.2000000000 1.3125988800 0.3509128600 0.2600000000 0.0400000000 -0.1300000000
-0.0422373200 1.5200000000 -0.1010203200 0.2800000000 0.0600000000 -0.1300000000
-0.0757394800 1.7361050400 -0.1500000000 0.2786409200 0.0400000000 -0.1499505200
-0.4978233400 0.0000000000 -0.4495107800 0.2800000000 0.0378233200 -0.1300000000
0.1016384600 1.5000000000 0.1185532400 0.2800000000 0.0200000000 -0.1300000000
-0.1759317000 1.5000000000 0.2186582200 0.2800000000 0.0200000000 -0.1300000000
-0.4235286000 0.2717331000 -0.3706048400 0.2650325000 0.0469131000 -0.1411332000
-0.1000000000 1.5047229000 -0.1403400800 0.3000000000 0.0400000000 -0.1300000000
0.1411217400 1.5200000000 0.1071642000 0.2800000000 0.0600000000 -0.1300000000
-0.0064451800 0.5360359600 0.3300000000 0.2800000000 0.0400000000 -0.1500000000
-0.0905257800 1.5000000000 0.4069736400 0.2800000000 0.0200000000 -0.1300000000
-0.0217546800 1.5200000000 0.3690261000 0.2800000000 0.0600000000 -0.1300000000
0.2200000000 1.0287205600 0.3686388000 0.3000000000 0.0400000000 -0.1300000000
0.2147502200 1.8003921600 -0.1372499800 0.2818250000 0.0400000000 -0.1499100200
0.0344668200 1.8891735800 -0.1500000000 0.2803861800 0.0400000000 -0.1499641800
-0.1914367000 1.5000000000 0.1732563400 0.2800000000 0.0200000000 -0.1300000000
-0.0221024800 1.5195546000 0.4489487400 0.2765172400 0.0564316200 -0.1195517200
0.2062519200 1.5200000000 0.2342428600 0.2800000000 0.0600000000 -0.1300000000
-0.0591048400 1.5000000000 0.1597073800 0.2800000000 0.0200000000 -0.1300000000
-0.1861232800 0.7970271400 0.3500000000 0.2800000000 0.0400000000 -0.1500000000
-0.2000000000 0.5960777000 0.3642353000 0.2600000000 0.0400000000 -0.1300000000
-0.1012905200 1.5200000000 -0.0840957400 0.2800000000 0.0600000000 -0.1300000000
0.1538014400 1.8723257400 -0.1300000000 0.2800000000 0.0400000000 -0.1100000000
0.1200000000 1.4956796200 0.3082120800 0.2624463800 0.0400000000 -0.1205910600
-0.1020287400 1.5168026800 -0.1300000000 0.2800000000 0.0400000000 -0.1100000000
0.0451161000 1.4799998400 0.1063604400 0.2800000000 0.0200000000 -0.1300000000
-0.4019749400 0.3579647600 -0.3346105800 0.2788830200 0.0345613200 -0.1110335400
0.2029646800 1.1319281800 0.3699999600 0.2800000000 0.0400000000 -0.1100000000
0.2254416800 1.9216117800 -0.1360620400 0.2819233000 0.0400000000 -0.1499025800
0.0947765400 1.5000000000 0.1770644400 0.2800000000 0.0200000000 -0.1300000000
0.2132477000 1.5200000000 0.2463824800 0.2800000000 0.0600000000 -0.1300000000
-0.1148025600 1.8083360200 -0.1300000000 0.2800000000 0.0400000000 -0.1100000000
0.1200000000 1.8533754000 -0.1471345200 0.2600000000 0.0400000000 -0.1300000000
-0.0089279600 1.7317797800 -0.1300000000 0.2800000000 0.0368940800 -0.1102836400
-0.3311840400 0.6106045200 -0.2864651600 0.2816472600 0.0452053000 -0.1491028200
0.2784845800 1.7853884800 -0.1301683800 0.2821997200 0.0400000000 -0.1498784200
-0.2214328400 1.1914029000 -0.1295297600 0.2602721200 0.0432879800 -0.1300000000
-0.1488426200 1.5000000000 0.1462858000 0.2800000000 0.0200000000 -0.1300000000
-0.0384293800 1.9108699000 -0.1300000000 0.2800000000 0.0406590800 -0.1100811400
0.0977019200 1.8538493400 -0.1300000000 0.2800000000 0.0400000000 -0.1100000000
0.3145887400 0.6800378400 -0.2633207200 0.2849716200 0.0464803200 -0.1469551400
0.1617800000 1.4364399800 -0.0472426200 0.2634194200 0.0314256000 -0.1282952800
0.2115196800 0.1493761000 0.3500000000 0.2800000000 0.0400000000 -0.1500000000
-0.0706911800 1.5000000000 -0.1138803800 0.2800000000 0.0200000000 -0.1300000000
0.0061710400 1.5000000000 0.3296118600 0.2800000000 0.0200000000 -0.1300000000
-0.2889741800 0.5199999600 -0.0667488600 0.2800000000 0.0200000000 -0.1300000000
0.1175884800 1.5200000000 0.2276725000 0.2800000000 0.0600000000 -0.1300000000
-0.1846767800 1.2719393200 -0.0963665000 0.2996892000 0.0364900400 -0.1300000000
-0.3783278600 0.4466886200 -0.3235152200 0.2607116200 0.0452100400 -0.1296160200
-0.1156578000 1.5200000000 0.4042142200 0.2771096600 0.0569613400 -0.1217147800
-0.1690801200 1.9294664000 -0.1401022200 0.2783466000 0.0400000000 -0.1499239000
-0.4461413600 0.1324308400 -0.4139042600 0.2800000000 0.0448906400 -0.1493872000
0.2185540800 1.4219831800 0.3700000000 0.2800000000 0.0400000000 -0.1100000000
