-0.2028925433 0.6855169781 0.4061657210 -0.4841469156 -0.0007309947 0.0202255731
-0.2180416544 1.4081212869 -0.3464511513 -0.4841001812 0.0001670131 0.0208422438
0.2217840639 0.7552494399 -0.3442682745 -0.4841036745 0.0000290557 0.0193817756
0.0660465222 1.0438419419 -0.3580995768 -0.4841032710 -0.0000861197 0.0193862622
-0.1737995150 0.6829799002 0.3789992092 -0.4841144844 -0.0007393715 0.0201550232
0.2545388954 1.6149042197 -0.4507980030 -0.4840482835 -0.0000716921 0.0193899139
-0.0037967704 0.1206613859 -0.0602178805 -0.4835172017 -0.0003110561 0.0203784274
0.3871423759 1.0130232738 -0.3761872928 -0.4839753270 -0.0001034475 0.0194230329
-0.2952349621 0.6926094804 0.3691136308 -0.4844371610 -0.0004985728 0.0205327289
-0.3794274498 1.5754387140 -0.4366390673 -0.4846777628 0.0001047977 0.0196994422
-0.0896677511 0.6780725111 -0.3186952472 -0.4841036448 -0.0007394203 0.0200897343
-0.4174441536 0.8347818617 -0.2789864615 -0.4845537384 -0.0000088179 0.0207004830
0.1067910259 0.7494180889 -0.1671628610 -0.4841940358 0.0007308430 0.0201890964
-0.1048218093 1.4873228448 -0.3517270188 -0.4841041504 0.0000484740 0.0208600551
0.1541190622 0.6807359606 0.2654502169 -0.4840971217 -0.0007401250 0.0201323256
-0.1472045266 0.6509631091 0.0716622832 -0.4842437756 -0.0007202285 0.0202187895
-0.0077998522 1.4926964621 -0.4304736434 -0.4841019978 -0.0001299027 0.0193926403
-0.3438337507 1.1977574494 -0.2961282812 -0.4840840059 0.0001258772 0.0208505813
-0.4382301096 0.1007453436 0.3051779783 -0.4841641976 0.0005738855 0.0197307334
0.0105770492 0.7444106218 0.2172562769 -0.4841642813 0.0007261616 0.0199956555
0.0975330184 0.6607928428 0.0948523868 -0.4839660990 -0.0007202396 0.0202221265
0.3531356093 0.7021719661 -0.1454000920 -0.4834296645 -0.0002984852 0.0201447137
0.0598866110 1.2834229445 -0.3122082445 -0.4840994010 0.0001694063 0.0208419766
0.0041041653 0.7485276968 -0.3446220455 -0.4841021651 0.0000327488 0.0193819207
-0.0201095991 0.7251642938 -0.1141561866 -0.4841325651 0.0007314500 0.0202265399
-0.0652012863 0.1739596508 0.0342626735 -0.4843239022 0.0005407125 0.0203606169
-0.1122421493 1.1312117744 -0.3703790747 -0.4841027158 -0.0001050124 0.0193886555
-0.3363493210 0.7649185992 -0.0744707374 -0.4840651835 0.0007383965 0.0200942647
0.0288091879 0.1487637532 -0.0213188185 -0.4841571963 0.0000267654 0.0195473000
-0.2361646805 1.3997834919 -0.4141724715 -0.4841023997 -0.0001267603 0.0193920895
0.1195105240 0.8806139841 -0.2513495880 -0.4841090613 0.0000184072 0.0208611403
-0.4359310715 0.8314711415 0.1859177160 -0.4838539831 -0.0003585316 0.0206971615
-0.0808927340 1.2097054283 -0.3823900818 -0.4841025515 -0.0001146002 0.0193900894
-0.2202049677 1.2355669621 -0.3028604834 -0.4841224169 0.0001611199 0.0208436074
-0.2574875056 1.0654645469 -0.2702625227 -0.4841122303 0.0001211995 0.0208513438
-0.3274757636 0.6798661268 -0.0581387177 -0.4841137693 -0.0007401709 0.0201227956
-0.0280336677 0.6707393715 -0.2072975725 -0.4840953355 -0.0007193335 0.0199475730
0.0832523183 0.0882759417 -0.4700709431 -0.4847352442 0.0003225715 0.0201461839
0.1420277228 0.6804331546 0.2314781956 -0.4840993425 -0.0007401650 0.0201314676
0.1195868812 0.6658060476 0.0999084463 -0.4839638783 -0.0007203107 0.0202181262
0.1823946444 0.6796512882 -0.0042741002 -0.4841012324 -0.0007402464 0.0201223484
0.3070350190 0.7566661066 -0.1835349226 -0.4840043598 0.0007296675 0.0200650150
0.1800743484 1.6583025038 -0.3744797937 -0.4840571813 0.0002939067 0.0207919347
-0.3054512008 1.0775188832 -0.2665673755 -0.4844902750 0.0000864816 0.0207455815
-0.3202806192 1.6699786711 -0.4265785002 -0.4844490613 0.0006460121 0.0200567175
0.3070093559 0.7263142078 -0.2780494423 -0.4840621773 0.0002343244 0.0194211386
0.2394152439 0.6806570740 0.1709131742 -0.4840896074 -0.0007400777 0.0201278256
-0.0337733005 0.6795530187 0.1205897393 -0.4841036567 -0.0007402501 0.0201236039
-0.2899696669 1.0473573348 -0.3593072107 -0.4841034198 -0.0000885625 0.0193865465
0.2089201660 0.7053849587 -0.2597004863 -0.4840689728 -0.0001143041 0.0208512238
-0.0003055498 0.6416650709 0.0754974702 -0.4840193581 -0.0007194142 0.0202738569
0.1497806891 1.1553034583 -0.2855895583 -0.4840922079 0.0001431673 0.0208474878
-0.3146309087 1.1446657435 -0.2875888625 -0.4840946041 0.0001300404 0.0208490075
0.0793705042 0.1583162877 0.4103976914 -0.4846882507 0.0003688744 0.0203257080
-0.1415486830 0.1206613748 0.0899740148 -0.4839671768 -0.0004865755 0.0202614281
-0.2818613254 1.3278539878 -0.3277446290 -0.4841058101 0.0001669428 0.0208425310
0.1452120253 1.2647315352 -0.2852575196 -0.4841036826 0.0001949917 0.0208341077
0.1574081861 0.6795530187 0.0539633759 -0.4841013656 -0.0007402442 0.0201231413
-0.0067611739 1.0425517387 -0.3579280452 -0.4841025966 -0.0000912851 0.0193868589
-0.3272960988 0.6802933177 0.0353468914 -0.4841141898 -0.0007401650 0.0201236505
-0.0371814773 0.6103810327 0.0171813807 -0.4839551655 0.0000267580 0.0208360405
-0.1431935833 0.7258276938 -0.0077704737 -0.4839718204 0.0007277865 0.0201098093
0.0418849428 1.5389215735 -0.4385878358 -0.4841021258 -0.0001290766 0.0193924959
0.2283155033 0.6795530187 -0.2545679348 -0.4841029727 -0.0007402420 0.0201223877
-0.2933296353 1.1073642514 -0.2787877085 -0.4841536268 0.0001416491 0.0208460354
0.2426975449 0.7706383074 -0.3434583280 -0.4841036745 0.0000223890 0.0193815002
-0.1628382774 1.2730949038 -0.3105445476 -0.4841126722 0.0001655415 0.0208428353
0.0555074840 0.6795530187 0.0773791503 -0.4841034679 -0.0007402516 0.0201229214
0.0768368152 0.6795530187 -0.2024661104 -0.4841036745 -0.0007402538 0.0201214039
0.1031600594 1.6396709152 -0.3662861721 -0.4840962875 0.0001507431 0.0208452426
-0.3525304119 0.7717177833 0.0555059627 -0.4840783030 0.0007389266 0.0200920040
-0.1485102951 1.1248067533 -0.2795489264 -0.4841064600 0.0001317844 0.0208497381
-0.0779662375 0.2950392031 0.0194104952 -0.4847625574 0.0000143950 0.0204479891
-0.0286427145 1.5683564221 -0.4440840310 -0.4841016469 -0.0001242331 0.0193916750
0.2775128797 0.9521017928 -0.3484364943 -0.4840960513 -0.0000612094 0.0193839482
-0.4435986244 0.6788247829 -0.3604473659 -0.4840255917 -0.0006236949 0.0198518160
-0.0595729810 1.1785802486 -0.3775372264 -0.4841020030 -0.0001128635 0.0193898162
-0.3482487185 0.7756845393 -0.3440481726 -0.4841043348 0.0000198721 0.0193814543
0.0039791031 0.6803895996 0.2566438894 -0.4841029875 -0.0007402220 0.0201274858
-0.0436523729 1.4438073593 -0.3499882988 -0.4841055873 0.0000137621 0.0208614260
-0.3602736076 0.9974381836 -0.3535530289 -0.4841073128 -0.0000760019 0.0193852074
-0.2293239970 0.9953219718 -0.2432538975 -0.4840058255 0.0000976832 0.0208475633
-0.4053424218 0.7297245084 -0.3457971711 -0.4841580054 0.0000389314 0.0193846551
-0.0704532755 0.7570571072 -0.3444365075 -0.4841005395 0.0000292385 0.0193817830
-0.1199776530 0.6492039670 -0.0933471198 -0.4842159880 -0.0007198887 0.0199908905
-0.2505431984 0.8027747390 -0.3437137392 -0.4841024501 0.0000053831 0.0193813470
-0.4154796102 1.2581090105 -0.3254815775 -0.4846814307 0.0000980318 0.0205556464
-0.0789408927 0.7178047680 0.0082352140 -0.4840486247 0.0007373572 0.0201014703
0.0821628564 0.9866695327 -0.2581321231 -0.4841058071 0.0000791035 0.0208571821
0.0602184238 1.6501779648 -0.3675610587 -0.4840966213 0.0001701170 0.0208415820
-0.4117915627 1.3908165885 -0.3569058583 -0.4847847561 0.0001058763 0.0203817452
0.0065230476 1.3427112042 -0.3265076271 -0.4840992951 0.0001813570 0.0208390666
-0.4459530750 0.6936178415 -0.2558984175 -0.4840329173 0.0007077885 0.0201615205
0.2081094740 0.9085574818 -0.2496942731 -0.4836592793 0.0000055608 0.0207118910
0.2855407297 0.7582123984 -0.1900623402 -0.4840614482 0.0007361854 0.0200624908
-0.0560376182 0.7266078429 -0.1217930700 -0.4840922879 0.0007309918 0.0202334679
0.0029603051 1.4744326508 -0.4272469605 -0.4841017135 -0.0001293660 0.0193925448
-0.2657079422 0.8334164768 -0.3433663840 -0.4841030090 -0.0000117093 0.0193812507
-0.1873630490 1.1670775782 -0.2684049075 -0.4841800368 0.0000950974 0.0208507367
-0.2986475885 0.8640887567 -0.3444919681 -0.4841036745 -0.0000256328 0.0193818015
-0.4557511939 0.1547520654 -0.3126254952 -0.4838411116 0.0003311718 0.0197230089
0.0319593337 0.6525544017 0.1084845853 -0.4840142237 -0.0007193809 0.0202706916
0.3232165052 1.1232291051 -0.2914201195 -0.4837866748 0.0000978889 0.0207822899
-0.0757704159 1.2355978663 -0.2782303492 -0.4840987444 0.0001721290 0.0208399579
-0.4338349258 0.7050165032 0.0218376276 -0.4847617757 -0.0003289325 0.0201618358
-0.3829735203 0.9208097132 -0.2629677195 -0.4843016006 0.0000336334 0.0208335133
-0.1955704505 1.2834790602 -0.2952136717 -0.4841567040 0.0002047564 0.0208289725
-0.2109867881 0.6795530639 -0.1703955525 -0.4841036745 -0.0007402538 0.0201214039
0.0583722626 0.6956661905 -0.3466287367 -0.4841023450 -0.0000911526 0.0193926440
-0.2454294199 0.6804162568 0.2229251555 -0.4841081589 -0.0007401991 0.0201283245
0.0547093075 1.2589314947 -0.3899404992 -0.4841021614 -0.0001173184 0.0193905224
-0.1967147623 1.0513102651 -0.2512679003 -0.4841558446 0.0001593419 0.0208411845
-0.2035819002 0.7191872320 0.4356205402 -0.4843695744 -0.0001937548 0.0207826178
0.2998458278 0.7289165273 -0.3456592100 -0.4840889649 0.0000381890 0.0193823233
-0.4623405130 0.9841365669 0.0998925197 -0.4841091079 0.0006863175 0.0203972669
-0.2994741730 0.7285309031 0.3865310573 -0.4845431432 0.0000190608 0.0207091921
-0.1005681968 1.1993221750 -0.2939493573 -0.4841078339 0.0001481440 0.0208466491
0.3544662956 0.7674021360 -0.3079933065 -0.4833843520 -0.0000058339 0.0202615524
-0.2739355401 0.7654661990 0.1272818435 -0.4839792245 0.0007280012 0.0200770627
0.0442839449 0.6620039336 -0.1506310150 -0.4840202819 -0.0007196422 0.0199699020
0.0413161977 0.1222701751 -0.1957877639 -0.4835745366 -0.0003763117 0.0203373655
0.0381077236 0.1382795989 0.0164489084 -0.4841494362 0.0000153440 0.0207127386
-0.0448647732 0.6646547782 -0.1835102765 -0.4841056272 -0.0007193313 0.0199468676
-0.0563205447 0.7285391266 -0.2498788399 -0.4840950779 0.0002860097 0.0194434417
0.0167831359 0.7228495549 -0.0574218004 -0.4841830082 0.0007328580 0.0201618854
0.3544393673 0.8516098951 -0.3200923497 -0.4833794501 0.0000046888 0.0200000792
-0.3854567639 0.6811130459 -0.1804122935 -0.4841319551 -0.0007396143 0.0201246218
-0.0739544807 0.2826188741 -0.0270863145 -0.4846640022 0.0000117145 0.0196462616
-0.4261705493 0.7407934810 0.0799066826 -0.4847617927 0.0003334229 0.0201651092
-0.0029069653 0.2878955545 -0.0200880066 -0.4834397852 0.0000111305 0.0198055080
-0.1055995866 0.7229911536 0.0338898343 -0.4840158774 0.0007332207 0.0200874440
-0.0884248982 0.6440450521 0.0843193009 -0.4841837581 -0.0007194098 0.0202755247
-0.2676656123 1.1277723775 -0.2640034153 -0.4841789287 0.0000736160 0.0208527724
-0.0766735041 0.9739182266 -0.3507822728 -0.4841023250 -0.0000709844 0.0193847188
0.0565732703 0.6746428728 0.1977106887 -0.4841871655 0.0007188005 0.0199655072
-0.0723650402 0.3985805587 0.0130493363 -0.4847757257 0.0000192621 0.0204194982
0.2232355654 0.9813149813 -0.3514208232 -0.4841015403 -0.0000711717 0.0193847810
-0.2750505067 0.1625945470 0.1999221089 -0.4837864979 0.0004753311 0.0205279468
-0.1264403932 0.7406877113 -0.1639168406 -0.4840348878 0.0007259188 0.0202474521
0.0789281322 0.7398611150 -0.1321414996 -0.4842220055 0.0007257375 0.0202027348
-0.4579704556 0.7892745049 -0.3435391348 -0.4841298439 -0.0000057266 0.0208271352
0.1735909825 1.5810580283 -0.3587068611 -0.4841064608 0.0000909972 0.0208557164
-0.1740042322 1.2708544426 -0.3919241026 -0.4841024797 -0.0001189077 0.0193907733
0.4893301160 0.1207284018 -0.0121623027 -0.4833739219 -0.0001065558 0.0200869776
0.1171271095 1.2997736808 -0.3966558717 -0.4841020570 -0.0001212610 0.0193911553
0.1479549944 1.3111747824 -0.3984641260 -0.4841014840 -0.0001220841 0.0193912982
-0.3450762986 0.8634640772 -0.3444690387 -0.4841037603 -0.0000253626 0.0193817918
0.3518048336 0.7094227850 0.1496043325 -0.4843610215 -0.0003307669 0.0206886463
-0.4793145860 0.7211416035 0.1490374743 -0.4842703574 -0.0002738162 0.0206724548
0.0200321833 0.1415314814 -0.2513262523 -0.4846389535 0.0000449808 0.0199575406
0.1313996764 1.3984870535 -0.4132929685 -0.4841030793 -0.0001268247 0.0193920999
-0.3390291154 0.7717375732 0.0809972964 -0.4840552234 0.0007375475 0.0200915250
0.2267964558 0.7896441795 -0.3431355736 -0.4841024797 0.0000129300 0.0193813914
0.1574462737 0.1322925184 0.0166386354 -0.4841427421 -0.0000937413 0.0207879899
-0.0805930452 0.1406482512 0.0618237383 -0.4837336697 -0.0001181904 0.0205555154
-0.0502231198 0.7313444917 -0.3456107752 -0.4841003411 0.0000392594 0.0193822012
0.0250739426 1.4341199920 -0.4196943298 -0.4841017394 -0.0001280284 0.0193923086
0.3137889314 0.7213741979 0.2553915479 -0.4834250349 -0.0000892132 0.0203757803
0.1968379524 1.6700939738 -0.4502204022 -0.4841043718 0.0004382717 0.0195498554
-0.4308053985 0.6871459067 0.0484476424 -0.4838852463 0.0001086248 0.0202331822
0.0735967138 0.6795530187 0.0894182485 -0.4841033850 -0.0007402509 0.0201232256
0.1807223866 0.7559008218 -0.0251064834 -0.4842464243 0.0007257471 0.0200996589
0.3065333238 1.5649083501 -0.4159613430 -0.4833987470 0.0001877321 0.0200338304
0.3487523710 0.8655519150 -0.2925148898 -0.4834698106 0.0000071442 0.0204803767
0.0534137722 0.9898244671 -0.3521554748 -0.4841036745 -0.0000707920 0.0193847010
-0.3792605262 0.9809908493 -0.2672328089 -0.4842570802 0.0000659129 0.0208399327
-0.0061537090 0.1679684249 -0.1572478020 -0.4845652649 0.0004671964 0.0200215992
-0.0234303948 0.4635464624 0.0075800449 -0.4834180225 0.0000769894 0.0203875718
0.3070134221 0.6813038019 -0.1582543214 -0.4840647741 -0.0007390642 0.0201248431
-0.1315621688 1.3025849642 -0.3171590984 -0.4841122962 0.0001711082 0.0208415021
-0.0755111642 0.2037766673 0.0224832452 -0.4846810747 -0.0000418836 0.0205748982
0.0761701626 0.6783631636 -0.2959446405 -0.4841010917 -0.0007387356 0.0201629751
-0.3298854742 0.7570080402 -0.2129791694 -0.4841013997 0.0007355051 0.0200418836
0.1157658804 0.9890177059 -0.2583014865 -0.4841060632 0.0000833163 0.0208567076
0.0332392348 1.5989520746 -0.3606035580 -0.4841023079 0.0000768287 0.0208575915
0.1930548148 1.3701080963 -0.4082640859 -0.4841010547 -0.0001256995 0.0193919163
-0.0762940248 0.6795530187 0.1004734465 -0.4841037500 -0.0007402509 0.0201232486
-0.3174840306 0.7142766345 0.3701392961 -0.4845529042 -0.0002685212 0.0206381928
0.0843106955 0.6795530187 -0.0151804931 -0.4841036745 -0.0007402538 0.0201214039
-0.0136309775 0.3911631561 -0.0229368698 -0.4835279154 0.0000118796 0.0196627752
0.1411227373 0.6048275026 0.1746277273 -0.4836128151 -0.0004038018 0.0200003317
0.1622887374 1.3027879196 -0.2972225318 -0.4840626029 0.0002299487 0.0208222370
-0.4049017442 0.6844861162 0.0956699238 -0.4842727521 -0.0007168677 0.0201390878
-0.0932876486 1.3813316347 -0.3366867946 -0.4841098948 0.0002011373 0.0208337805
0.4141310980 1.0088470563 -0.0033666689 -0.4839068313 -0.0006188048 0.0199332587
-0.0632897022 0.7380828617 0.1921743495 -0.4840826794 0.0007295860 0.0200024540
0.1204088228 1.1338380847 -0.2813260056 -0.4840991108 0.0001350889 0.0208491282
-0.3945156054 1.3247926695 -0.4003983464 -0.4841798717 -0.0001169934 0.0193945479
-0.0618756567 0.1214016286 -0.0231353807 -0.4841489062 -0.0007276081 0.0200788267
-0.3113696398 0.8247776820 -0.2494314527 -0.4839853204 -0.0000247282 0.0207853953
0.2720929506 0.6804315283 -0.0914229188 -0.4840862740 -0.0007400288 0.0201224314
-0.1523045927 0.6466079279 0.0148410075 -0.4842701709 -0.0007208592 0.0201429690
-0.1227236949 0.1488525577 -0.0303904042 -0.4844013335 0.0000440851 0.0206146335
0.1798985018 0.6823627661 0.3215857334 -0.4840843812 -0.0007393803 0.0201492818
-0.2921323022 0.6815096488 0.2753508181 -0.4841192953 -0.0007399244 0.0201367827
-0.3982658794 0.7593326282 -0.1320688696 -0.4842480040 0.0007230148 0.0200746161
-0.1863643792 1.6791539508 -0.3875593883 -0.4841110748 0.0006603612 0.0204504926
0.0768574631 1.0073081745 -0.2602433425 -0.4841044399 0.0000903820 0.0208560829
-0.3425534654 0.7672632481 -0.0182250853 -0.4840633676 0.0007379213 0.0200883094
-0.1145485974 0.7213210640 -0.0075554470 -0.4840036921 0.0007327025 0.0201120471
0.0932943153 0.0725407361 0.4844261927 -0.4848428453 0.0000040329 0.0201499577
0.3992560799 0.9613129475 0.1520217691 -0.4840299770 0.0006657325 0.0204294916
0.1168386703 0.0809304222 0.4700716204 -0.4833710349 0.0000803797 0.0200606327
0.4556010356 0.1042850997 0.0131107596 -0.4842171613 0.0007302819 0.0200862581
-0.0919819933 1.3326447640 -0.3240082311 -0.4841084528 0.0001781909 0.0208398543
0.3683988269 0.7980012226 0.1690585867 -0.4841849543 -0.0002908753 0.0207662146
-0.1292479043 1.0871120917 -0.3643207767 -0.4841019919 -0.0000953506 0.0193874281
0.3045816631 1.2507470455 -0.3065824234 -0.4839473528 0.0001244641 0.0208313095
0.3523831569 0.7118041216 -0.3460374464 -0.4843794516 0.0001319688 0.0205853402
0.1618390458 0.7582359829 0.0854898236 -0.4842572956 0.0007228112 0.0200792857
-0.2117881721 1.6711678482 -0.4491210009 -0.4840995594 0.0004930179 0.0195854275
-0.2478128573 1.0263416980 -0.3565132084 -0.4841024656 -0.0000847346 0.0193860483
-0.1790743432 0.6802250485 0.2173864898 -0.4841048855 -0.0007402361 0.0201262718
0.3332969517 1.2957257789 -0.3878050852 -0.4836124050 -0.0000551186 0.0196067676
0.1557379610 0.6795530187 -0.2457175548 -0.4841036745 -0.0007402538 0.0201214039
0.0231788943 1.3912069569 -0.3398334382 -0.4840992018 0.0002130872 0.0208301658
-0.2487827690 0.7654622231 0.2083126648 -0.4839850850 0.0007277487 0.0200577258
0.0811829150 0.7466130850 0.1670415482 -0.4842406310 0.0007216054 0.0200342405
0.0762945467 0.7430622250 0.4476713973 -0.4839026778 0.0003028837 0.0207630411
-0.4720774374 0.6936178415 -0.2543299862 -0.4842184923 0.0007079418 0.0201586179
-0.0577335057 0.7196957042 -0.0598931156 -0.4840819569 0.0007355355 0.0201714606
-0.2658995118 1.0842248131 -0.2734488128 -0.4841160619 0.0001303587 0.0208498455
-0.0055885785 0.9297155302 -0.2368076257 -0.4840144798 0.0000109454 0.0208536060
0.1276008151 1.1550517069 -0.2854175973 -0.4840961683 0.0001408451 0.0208480037
-0.2558806706 1.1920767785 -0.2945789166 -0.4841358074 0.0001555895 0.0208443624
-0.4300651446 0.7006840034 -0.3554840868 -0.4838793953 -0.0003564633 0.0202531387
0.2713688721 0.1625476830 0.0118628664 -0.4840969085 0.0004694549 0.0205159318
-0.2549275894 0.6838321596 0.3591078692 -0.4841340004 -0.0007369627 0.0201757600
0.1353088710 1.0089431124 -0.3538059780 -0.4841035286 -0.0000799504 0.0193855360
0.3759580547 0.9027283442 0.2339350307 -0.4841300193 -0.0006465695 0.0197659303
-0.0200014798 1.6833372163 -0.4135899917 -0.4841037877 0.0007364104 0.0200797624
0.0535903872 0.1634663017 -0.2671120157 -0.4839116563 0.0005127198 0.0201774766
-0.0958035352 0.9583743418 -0.2563507296 -0.4841039646 0.0000602285 0.0208589269
0.0482738790 0.7283384756 0.0456086602 -0.4842251494 0.0007280611 0.0200796476
-0.1093446596 0.6795530187 -0.0064505560 -0.4841036745 -0.0007402538 0.0201214039
-0.2367500517 0.1206613748 0.1656723340 -0.4838761508 -0.0005394037 0.0204161848
-0.3402257365 0.6809782694 0.1646718573 -0.4841212533 -0.0007400029 0.0201283934
0.1961030306 1.2555926716 -0.3099291080 -0.4840718117 0.0001677526 0.0208416435
0.2134892362 1.3209618204 -0.3151412923 -0.4836764155 0.0001959726 0.0206726620
0.3009801550 1.4864052987 -0.3519117203 -0.4838143736 0.0001573113 0.0207781734
0.3235448847 0.6834744571 -0.0413969305 -0.4839661871 -0.0007240356 0.0201301381
0.2428924130 1.3453645338 -0.4039547641 -0.4841034242 -0.0001238793 0.0193915987
-0.1673243496 0.6815364867 0.3423464786 -0.4841093418 -0.0007399215 0.0201404092
-0.2539638226 0.6795530187 0.0796695756 -0.4841083529 -0.0007402309 0.0201236350
-0.0167591643 0.1365394671 -0.1384993843 -0.4846471984 -0.0001376798 0.0199731873
-0.3954413180 0.7505684100 0.2445584683 -0.4847106856 0.0003700188 0.0203252816
-0.4388176469 0.0708096570 -0.2540304106 -0.4838312618 0.0000762698 0.0207563759
-0.0881501041 0.9553465482 -0.3491789622 -0.4841019460 -0.0000632317 0.0193840133
-0.2125597372 0.7518960234 0.4245265366 -0.4843540105 0.0003810286 0.0207032049
-0.0937799011 0.6354849182 -0.0385200598 -0.4842437653 -0.0007203077 0.0200242004
-0.0741447851 1.4933860226 -0.3521112875 -0.4841045398 0.0000492557 0.0208600040
-0.1966439859 0.6642213062 0.0978942771 -0.4842442723 -0.0007202862 0.0202171631
0.3019248099 1.1181730234 -0.2841675159 -0.4839601696 0.0001072243 0.0208387476
0.0998885564 0.1395136531 -0.0212058165 -0.4841340078 -0.0000858347 0.0195583017
-0.2290743013 0.7575738481 0.1540971706 -0.4839593546 0.0007231362 0.0200612745
0.3147334057 1.3020379070 -0.3184341878 -0.4838394423 0.0001285406 0.0207982017
0.0982594013 0.1671003070 -0.0212084089 -0.4841629436 0.0004143053 0.0195374532
-0.0245955351 0.8540355100 -0.3433828073 -0.4841036745 -0.0000252042 0.0193816993
0.1275394140 1.4504085588 -0.4225512018 -0.4841033236 -0.0001287849 0.0193924411
0.2781769569 1.5772987461 -0.3662348458 -0.4838639085 0.0001917709 0.0207919088
0.1751968685 0.8179602440 -0.2467598470 -0.4840412192 -0.0001150280 0.0208456719
-0.1657933515 0.6545951150 -0.0755704777 -0.4842453524 -0.0007203943 0.0200279135
-0.1878527935 0.6795530639 -0.1472010836 -0.4841036745 -0.0007402538 0.0201214039
-0.1846505547 0.6546191518 0.0306507515 -0.4842649262 -0.0007207681 0.0201700593
0.3547584390 0.7122366445 -0.3239930951 -0.4833758902 -0.0000053535 0.0200239561
0.3484023952 0.7241888702 0.0294015087 -0.4833907560 0.0001947104 0.0201571034
0.2258078387 1.1773496846 -0.3766051313 -0.4841031259 -0.0001097597 0.0193893572
0.3286462382 0.1236411859 0.0169108134 -0.4841220905 -0.0004626165 0.0205830861
-0.4603082061 0.6936178415 -0.2897898118 -0.4841451198 0.0006979676 0.0202158484
-0.1252566607 0.6780724659 -0.3124811857 -0.4841037174 -0.0007398541 0.0201129894
0.0419697937 0.9589290806 -0.2372624458 -0.4841704069 0.0000510139 0.0208541049
-0.0007964920 0.6564967146 -0.1441080366 -0.4840550620 -0.0007193380 0.0199539859
0.0887883184 0.1478206913 -0.4621782761 -0.4846190110 0.0002853160 0.0199321580
0.1423157548 0.1482379309 -0.0211383639 -0.4841349480 0.0001058822 0.0195541511
-0.3173927188 0.7711126228 0.1209310407 -0.4840250247 0.0007348929 0.0200887942
0.1983675278 1.2664634331 -0.3904992139 -0.4841001257 -0.0001187012 0.0193907519
-0.0420457185 0.8035240292 -0.2520596832 -0.4841046627 -0.0000173701 0.0208613742
-0.3250282135 0.7762499407 0.2125608787 -0.4840623091 0.0007383284 0.0200890437
0.4056814328 0.8039003912 0.1580120127 -0.4838876780 0.0001827790 0.0197907340
-0.0072720416 0.7272978549 -0.3457491434 -0.4841017076 0.0000387271 0.0193821723
-0.1165582037 0.6795530639 -0.1952268802 -0.4841036745 -0.0007402538 0.0201214039
-0.0790894046 0.6831594969 0.4034977980 -0.4841068250 -0.0007394366 0.0201557235
-0.1748974032 1.6815053775 -0.4272555904 -0.4841015233 0.0007135884 0.0199493504
-0.1809760323 1.4614415210 -0.3504605356 -0.4840998621 0.0000422870 0.0208604193
0.3717268971 0.8518098688 -0.3414058906 -0.4841626793 0.0000218834 0.0208288356
0.0620936371 0.9080275933 -0.2314505449 -0.4840648348 -0.0000234579 0.0208567713
-0.4687493628 0.6795530187 0.0645040301 -0.4841814803 -0.0007098953 0.0201821121
-0.1343734300 0.7379958419 0.1476016846 -0.4839964035 0.0007268256 0.0200327163
-0.0072633214 0.1214016286 -0.0196257292 -0.4840048091 -0.0007218926 0.0200701494
0.1173772790 0.7634735142 0.2536887472 -0.4842107366 0.0007267997 0.0200340347
0.2315017483 0.7766215134 0.2272316984 -0.4841481289 0.0007380538 0.0200876468
0.0671199443 0.1206613748 -0.3794186296 -0.4844896672 -0.0005474577 0.0199949352
0.0125338598 0.8383745149 -0.3428080535 -0.4841036745 -0.0000139442 0.0193813425
-0.2761627403 0.9794105814 -0.3519966844 -0.4841034627 -0.0000700421 0.0193846640
0.3317093634 0.7432359478 -0.2494122505 -0.4837157777 0.0005974330 0.0199662148
-0.4524537961 0.1542819065 0.2844577161 -0.4845118097 0.0002922278 0.0195892939
-0.2617199742 1.5381842111 -0.4391988250 -0.4840999517 -0.0001292194 0.0193925381
-0.0179480704 0.6804602635 0.2676907232 -0.4841034664 -0.0007402131 0.0201282712
-0.3593427554 1.2125552065 -0.2983261126 -0.4841149411 0.0001234085 0.0208508959
-0.3186362949 0.1206613748 0.2044772069 -0.4840971136 -0.0006002881 0.0201160615
-0.2700718208 1.0592142277 -0.3608835479 -0.4841029512 -0.0000909728 0.0193868574
0.1433845236 0.7522877473 -0.2545279715 -0.4840946263 -0.0000435869 0.0208602979
0.1773307012 1.1694408423 -0.2676844881 -0.4840227803 0.0001056668 0.0208481881
-0.3911059267 0.1206613748 0.2651540525 -0.4840237085 -0.0005953610 0.0202350225
0.2827244761 1.0653777987 -0.2735168333 -0.4840372307 0.0001039131 0.0208506664
-0.0150121305 0.9938920679 -0.2591206040 -0.4841066762 0.0000816663 0.0208569445
-0.0290491671 0.7690927381 -0.3435396545 -0.4841017838 0.0000211305 0.0193814787
-0.4268215811 0.6922768999 -0.0982812455 -0.4846129358 -0.0005352576 0.0201310642
-0.1537924651 0.7087559962 -0.2591772164 -0.4840535363 0.0001712577 0.0194030445
0.2253662351 1.2412403134 -0.3064223679 -0.4841882529 0.0001434449 0.0208414355
-0.0152824068 1.3301518290 -0.4018059309 -0.4841022480 -0.0001239148 0.0193916017
-0.0877218740 0.7558212571 -0.2537803536 -0.4841055577 -0.0000316355 0.0208609574
-0.3444450227 0.8542577128 -0.2532354868 -0.4842023125 -0.0000049508 0.0208534009
0.3279125807 0.7615679387 0.0525306701 -0.4836263373 0.0005423810 0.0201292957
0.2292606098 0.6796413939 -0.1190214671 -0.4840965347 -0.0007402139 0.0201215963
-0.0689495446 0.7739850823 0.3788139200 -0.4841001923 0.0007345465 0.0200472319
-0.1065691592 0.6517972049 -0.1142733873 -0.4841873365 -0.0007195571 0.0199694734
-0.4308053985 0.7973741935 0.1552548447 -0.4838878142 0.0000711732 0.0198821368
-0.0556863774 0.1548631553 0.0566772286 -0.4842766562 0.0001122484 0.0207568829
-0.1681022624 0.9609298987 -0.2371451548 -0.4841297351 0.0000578168 0.0208554211
-0.2929345226 0.6782352551 -0.3024568548 -0.4841046901 -0.0007385905 0.0201631705
-0.2708462773 1.5653708281 -0.3575125556 -0.4841017831 0.0000917856 0.0208556394
0.1299311423 0.6611878652 0.0243203176 -0.4839378680 -0.0007208288 0.0201472839
-0.1498203105 0.6483100964 -0.0510029594 -0.4842593158 -0.0007206171 0.0200553074
0.2526267235 1.5408701614 -0.3546035897 -0.4840536377 0.0001309805 0.0208460502
-0.0036117521 0.6795529736 -0.0775193825 -0.4841036745 -0.0007402538 0.0201214039
0.2816858438 1.2151071486 -0.3824920111 -0.4840951112 -0.0001137511 0.0193900516
0.4017516355 0.6996704019 0.1317014875 -0.4838162975 0.0004669062 0.0196722860
0.1376979788 0.7548498094 0.1267001772 -0.4842583964 0.0007214514 0.0200657072
-0.0482403743 1.5440218424 -0.4396938343 -0.4841024271 -0.0001280846 0.0193923331
-0.3138393516 1.4975861859 -0.4318982167 -0.4841034946 -0.0001301115 0.0193926758
0.0904617962 0.7349999466 -0.0546087544 -0.4842543457 0.0007232894 0.0201422583
0.0107879112 0.7475947889 0.2404497753 -0.4841581830 0.0007256508 0.0199865733
-0.4118641239 1.3649183677 -0.3480894100 -0.4847497754 0.0001083539 0.0204525120
-0.1852493675 0.7701421234 0.4219348354 -0.4842405814 0.0006089883 0.0204955156
-0.3197051089 1.3474375517 -0.4054293527 -0.4841032592 -0.0001239103 0.0193916039
0.3672768797 0.8763055654 -0.3428056136 -0.4842207278 0.0000404978 0.0208335673
0.3119110074 0.9850902581 -0.2703273349 -0.4838638633 0.0000621280 0.0208158367
-0.0608892085 0.9144693014 -0.3456499923 -0.4841027647 -0.0000517067 0.0193829748
0.0139986897 0.7541804001 0.2689575670 -0.4841530087 0.0007264807 0.0199886438
-0.2499872397 0.1332000000 -0.1233328668 -0.4844245456 -0.0001306629 0.0205709497
-0.3907197318 0.6951826582 0.2448397003 -0.4846572400 -0.0004420470 0.0203321334
-0.2171554647 0.1548685658 -0.1459242990 -0.4837617120 0.0003081477 0.0196698675
-0.2703393862 0.1632188430 0.1774263598 -0.4840483953 0.0005456226 0.0202074036
0.4432805802 0.0637943188 -0.0316183247 -0.4843238977 -0.0000368136 0.0194262759
0.1706034002 0.6809784049 0.2881696930 -0.4840916098 -0.0007400073 0.0201356501
-0.3995606855 0.6839166485 0.1205878983 -0.4842373998 -0.0007247315 0.0201387902
-0.2862812293 0.1206613748 0.1789715560 -0.4841423823 -0.0005583542 0.0200400766
-0.2929041382 0.1225790586 -0.2012446960 -0.4837989282 -0.0004592039 0.0197452217
-0.2471598942 1.5815866524 -0.4467626617 -0.4841011065 -0.0001230161 0.0193914596
-0.4234227234 0.9002267348 0.2524121439 -0.4835074629 -0.0001955536 0.0203123264
-0.0678880953 0.7330018845 -0.1464335848 -0.4840820368 0.0007272350 0.0202539337
-0.0386520448 0.4338383106 0.0268124154 -0.4840196046 0.0001228814 0.0208429885
-0.0345991729 0.7166312236 -0.0165323009 -0.4841175002 0.0007385216 0.0201246817
-0.2507573813 1.0694134109 -0.3622394901 -0.4841022332 -0.0000931113 0.0193871328
0.1513798432 1.5111602470 -0.3523942592 -0.4841193293 0.0000611028 0.0208588936
-0.1062251248 0.6783257534 -0.2971337953 -0.4841056235 -0.0007390768 0.0201535228
-0.0003542555 0.7706703856 0.3427253257 -0.4841250619 0.0007279967 0.0199893463
-0.2606938566 0.7735085077 0.2632693055 -0.4840265933 0.0007334813 0.0200642792
0.4566946992 0.0535876975 -0.0001111835 -0.4839612844 -0.0000572964 0.0193976177
0.1712079744 0.6807578744 -0.1400385941 -0.4839646326 -0.0007203825 0.0200245935
-0.4076412060 0.7489587732 -0.2228190246 -0.4843825458 0.0006699438 0.0200233010
0.2116756505 1.1600864634 -0.2889401285 -0.4840546467 0.0001530134 0.0208439294
-0.1879641433 1.5567201959 -0.3574644146 -0.4841020888 0.0000647256 0.0208588114
0.3336792773 0.6828148976 -0.2546916868 -0.4839172215 -0.0007136054 0.0201105503
0.0055728355 1.4588462052 -0.3500677724 -0.4841064326 0.0000337437 0.0208608257
0.2096403137 1.0579754410 -0.2685133199 -0.4840569378 0.0001259016 0.0208491704
-0.0292785081 0.7732897390 0.3721667937 -0.4841053600 0.0007331170 0.0200343693
-0.0324580212 0.9031761837 -0.2306901177 -0.4841023413 -0.0000257534 0.0208582429
-0.0038264094 0.3156961884 -0.0222697086 -0.4834497246 0.0000295857 0.0197807746
-0.3552018813 0.1206613748 0.2435964862 -0.4839737059 -0.0005781294 0.0202994986
0.1489060200 0.0461792682 -0.4848152057 -0.4834304380 -0.0003014861 0.0201721172
-0.0569547579 0.6397747217 0.0759655112 -0.4841285692 -0.0007190500 0.0202953310
0.3660659251 0.6795530187 -0.1880180130 -0.4841938625 -0.0007162615 0.0201224069
-0.3673301121 0.7756683640 0.1979425488 -0.4841563635 0.0007375504 0.0201127614
-0.1553586824 1.1950330947 -0.3801024517 -0.4841024960 -0.0001116747 0.0193896541
-0.4162885293 0.7181788256 -0.2720466721 -0.4845470058 0.0003275246 0.0196622807
-0.1276044949 0.6569474447 -0.1264188999 -0.4841931956 -0.0007196341 0.0199734375
0.3101715197 0.6820803822 -0.0254654162 -0.4840405649 -0.0007371840 0.0201264687
-0.0052767355 0.7455461690 0.4643285994 -0.4840335376 0.0003532928 0.0207678713
0.3996798826 1.0576596221 -0.3940218805 -0.4839643987 -0.0003856811 0.0196470796
-0.1062033473 0.7743650583 0.4323095484 -0.4841230891 0.0007301768 0.0202388822
0.1410414108 1.6216651801 -0.4525586360 -0.4841031178 -0.0000888919 0.0193870240
0.1233264637 0.6795530187 -0.1405703584 -0.4841036745 -0.0007402538 0.0201214039
0.0702572585 0.7925192595 -0.2522658691 -0.4841049899 -0.0000251250 0.0208612180
0.0392328783 0.7282816819 -0.1050836948 -0.4842037072 0.0007284956 0.0202060845
0.1095690112 0.9568210916 -0.3493062385 -0.4841036745 -0.0000618053 0.0193839475
-0.0540510323 0.6806587906 0.2950511985 -0.4841038195 -0.0007401842 0.0201305727
-0.0607022019 0.7263690133 0.1166293317 -0.4840771793 0.0007338210 0.0200345210
-0.0984262768 0.7440258564 -0.1951107640 -0.4840695643 0.0007317846 0.0202153014
-0.0409940732 0.1506714525 -0.0641790454 -0.4846706023 0.0000569825 0.0199965467
-0.1524092335 0.7301965194 0.0269755067 -0.4839638220 0.0007252348 0.0200888882
0.2338756750 0.7596512483 -0.1823458587 -0.4841225961 0.0007381019 0.0200754563
0.3302346393 0.6853374717 -0.0204826470 -0.4838558604 -0.0006926792 0.0201362563
-0.2856264362 0.9134716036 -0.3463041754 -0.4841036745 -0.0000476346 0.0193826846
-0.4786191775 0.7430810208 0.1341085095 -0.4842824235 0.0001533229 0.0194340145
-0.0191397325 0.1496967291 0.1047496501 -0.4846310091 0.0002200797 0.0202607781
0.1906629962 1.4517087917 -0.4227216260 -0.4841009052 -0.0001290825 0.0193924981
0.3506063485 0.7031129612 -0.0746419870 -0.4834581709 -0.0003402621 0.0201507646
0.3310357975 0.9543021322 -0.3468359619 -0.4839753788 -0.0000581765 0.0194015218
0.3528392191 0.9246856542 -0.3259405763 -0.4833850257 0.0000009956 0.0199481512
-0.4125394864 0.6896851527 -0.3461450467 -0.4841871048 -0.0001141316 0.0193974149
0.0827564511 0.6795530187 -0.0430925581 -0.4841036745 -0.0007402538 0.0201214039
0.0352488633 1.2643939388 -0.2873197388 -0.4841698206 0.0001892118 0.0208329462
-0.3045601314 0.1479709872 0.1774522827 -0.4844688950 0.0001834852 0.0196031907
0.0545424069 0.6795530187 -0.0298700827 -0.4841036745 -0.0007402538 0.0201214039
-0.4130869277 0.7144655836 0.2049228093 -0.4847838093 -0.0002156648 0.0203064318
-0.0280108057 0.3787257028 -0.0338688777 -0.4838691968 0.0000396376 0.0194284700
-0.1331689593 0.6821115121 0.3663054868 -0.4841093041 -0.0007397408 0.0201458197
0.0822793797 1.1419272921 -0.3711398410 -0.4841027269 -0.0001071495 0.0193889553
-0.4559294174 0.6794799601 -0.2438310690 -0.4840926387 -0.0007136343 0.0201037836
0.3024848801 0.9306846734 -0.2628288538 -0.4839081793 0.0000404578 0.0208340736
-0.2618528757 0.9170722982 -0.3466149569 -0.4841027195 -0.0000488915 0.0193827979
-0.3142128104 1.2920368897 -0.3133284972 -0.4845470080 0.0001560477 0.0206904970
-0.4336591081 0.6795530187 0.0909432884 -0.4838763181 -0.0006064848 0.0203625497
0.1565953252 0.8732321388 -0.2341726855 -0.4840378911 -0.0000493831 0.0208554810
-0.0931778571 1.4475787505 -0.3497085568 -0.4841025293 0.0000246971 0.0208611699
0.3082166063 0.7678122944 0.1899521542 -0.4836623618 0.0005640246 0.0202008953
-0.0629854497 0.6914705451 -0.2585592695 -0.4840935285 0.0000656694 0.0193849179
-0.0945509236 1.2499108259 -0.3046623219 -0.4841091212 0.0001575008 0.0208446533
-0.3181076485 0.7594781133 -0.1879969358 -0.4840879670 0.0007381700 0.0200732208
-0.0218915122 0.6419090512 0.0843442749 -0.4840598270 -0.0007192003 0.0202904653
-0.1712140030 0.7363964162 -0.3460007816 -0.4841019763 0.0000380165 0.0193821449
0.4225673889 1.0437725431 -0.1205310831 -0.4833929975 0.0000357239 0.0201331687
0.0011438280 0.1534956807 0.0422772085 -0.4836441301 0.0001940709 0.0206287331
0.1768178459 1.4695932592 -0.3484449887 -0.4841416687 0.0000534064 0.0208585583
-0.0926496852 1.5582878137 -0.4423411537 -0.4841033887 -0.0001278848 0.0193922857
-0.0892268248 0.1712331049 0.0535030217 -0.4838979268 0.0004933037 0.0203118305
-0.4153937600 0.9228249891 -0.2778483620 -0.4845485448 0.0000260184 0.0207117171
-0.2876726844 0.7621478883 0.0223206047 -0.4839817776 0.0007291493 0.0200943624
0.2909091963 1.2642300206 -0.3901510000 -0.4840948699 -0.0001183037 0.0193907371
0.1332686093 0.7449089289 0.0004033958 -0.4842873366 0.0007165161 0.0200992829
0.2829032141 1.4113146257 -0.3329252984 -0.4840315034 0.0001328978 0.0208446297
0.0038765409 0.6795530187 0.1062047212 -0.4841035434 -0.0007402509 0.0201233685
0.3301316256 0.7520265072 -0.1651223284 -0.4837511782 0.0006459425 0.0200816522
0.1916197143 0.6792806645 0.0869458148 -0.4839488681 -0.0007206852 0.0201868075
0.2970464720 0.6842345009 0.2042116637 -0.4839633993 -0.0007219370 0.0201652210
0.1045239985 0.1403052783 -0.3896250866 -0.4835289688 -0.0000263419 0.0203104166
-0.0369410214 1.0532257800 -0.3595261148 -0.4841022110 -0.0000958829 0.0193874452
0.1103384066 0.8422243404 -0.2509690243 -0.4841059100 -0.0000035480 0.0208615193
0.1764742853 0.6791642774 -0.3307675651 -0.4841037648 -0.0007327787 0.0200234328
-0.2761664001 0.9785171616 -0.2415605853 -0.4842261924 0.0000792486 0.0208460687
-0.4250327377 0.0428095920 -0.3050449873 -0.4835488009 -0.0002113003 0.0197216342
-0.1890301110 1.2969693550 -0.3164908187 -0.4841177141 0.0001740470 0.0208407115
0.1805475794 0.8707839336 -0.2501889885 -0.4841179118 0.0000065616 0.0208613698
0.0293170739 0.7307417704 0.1083867563 -0.4842016189 0.0007292529 0.0200450556
-0.0097675520 0.8360767640 -0.3427237445 -0.4841036745 -0.0000153810 0.0193813477
0.0237488594 0.1213271805 0.1160225782 -0.4835904942 -0.0004790538 0.0199334727
-0.4350909041 0.8579051255 -0.3046197388 -0.4848166603 0.0000093494 0.0202924107
-0.0223270620 0.1695776997 -0.1162499205 -0.4846418042 0.0004494562 0.0200123149
-0.0910310581 1.1544694980 -0.3737780346 -0.4841023398 -0.0001091201 0.0193892469
-0.0058996983 0.4100270682 0.0051486138 -0.4833812578 0.0001180816 0.0201803858
0.1581745998 0.6795530187 0.0089491481 -0.4841025078 -0.0007402516 0.0201223211
0.0102530978 1.2133837452 -0.3828644424 -0.4841019400 -0.0001144610 0.0193900708
0.0385507729 0.9237849155 -0.2342767386 -0.4841827802 0.0000018047 0.0208544210
-0.1641477280 1.1348514160 -0.3709393706 -0.4841030371 -0.0001046593 0.0193886125
0.1315526610 0.9629061373 -0.3498315641 -0.4841035323 -0.0000643747 0.0193841614
0.0107526240 0.9685706337 -0.2421330125 -0.4841073202 0.0000653133 0.0208559837
0.3782080037 0.6795530187 -0.1704639801 -0.4841084498 -0.0007161712 0.0201223299
-0.0649225615 0.7215279501 0.0578557061 -0.4840704933 0.0007361047 0.0200707061
0.1389848383 1.1432765025 -0.3713192112 -0.4841034664 -0.0001075811 0.0193890138
-0.0203184276 0.1703864596 0.0955277544 -0.4844686825 0.0005966039 0.0202305965
-0.4964993707 1.0061001113 0.0120634974 -0.4845971499 -0.0002770607 0.0200358328
0.0082619031 0.7406077847 0.1934116794 -0.4841670528 0.0007272402 0.0200047214
0.1207746577 0.9341265110 -0.2358732048 -0.4842048575 0.0000263293 0.0208523446
-0.4744803746 0.0620254793 0.3180881428 -0.4847595460 -0.0000604003 0.0199512262
-0.3399724379 0.6801131340 -0.2058192108 -0.4841151795 -0.0007401532 0.0201228585
0.0086171205 0.6346838051 -0.0343529356 -0.4839609831 -0.0007202914 0.0200279505
0.3108290005 1.0373594798 -0.2745080480 -0.4838962279 0.0000850907 0.0208246857
-0.0800799642 0.7516229912 0.2624709255 -0.4840666588 0.0007262727 0.0199839328
-0.0088759851 0.1712213467 -0.0643861343 -0.4838916791 0.0005803027 0.0202122989
0.0416033266 0.1629615678 -0.2856569466 -0.4843979564 0.0005096544 0.0200325742
-0.0616109834 1.3283330927 -0.3063215002 -0.4840998451 0.0002450292 0.0208194936
0.3834153533 0.6936178867 -0.3107561781 -0.4840775946 0.0006589251 0.0202945729
-0.0218949462 0.3350933557 -0.0390852244 -0.4837529030 0.0000629231 0.0194747204
-0.3510564665 0.6829203061 0.2542848721 -0.4841507057 -0.0007380634 0.0201501613
0.0604614551 0.7479557441 0.2086370796 -0.4842048050 0.0007250757 0.0200143202
-0.0776835368 0.6601615669 0.1572107071 -0.4841342277 -0.0007191403 0.0202939459
-0.3065518450 1.3179136047 -0.3225041160 -0.4839619987 0.0001340518 0.0208348620
-0.4572633852 0.9348636018 0.1745525678 -0.4841054873 -0.0006558456 0.0197832130
-0.0596321687 1.1273720689 -0.3698463844 -0.4841019075 -0.0001070525 0.0193889664
0.3334896960 0.8133984483 -0.2770361569 -0.4836875800 -0.0000209055 0.0207226010
-0.1269720443 0.6795530187 -0.1097872025 -0.4841036745 -0.0007402538 0.0201214039
-0.1387880248 1.2605203474 -0.2874314956 -0.4840238055 0.0001858777 0.0208323829
0.3523831569 0.8861445619 -0.3576450506 -0.4843339992 -0.0000053787 0.0196439061
-0.0556093880 1.5255852567 -0.3546208717 -0.4841050476 0.0000565761 0.0208594895
0.0909927692 0.9546403616 -0.2553759382 -0.4841081271 0.0000610894 0.0208587863
-0.1675184264 0.6795530187 -0.2214165227 -0.4841036745 -0.0007402538 0.0201214039
0.0095372871 1.2967016992 -0.3961381367 -0.4841023472 -0.0001210426 0.0193911190
0.1824707299 0.9563007820 -0.2542119497 -0.4841152994 0.0000685061 0.0208581282
0.0917904038 0.1535459676 -0.3505751839 -0.4835056508 0.0002809123 0.0203117698
0.0341522631 1.6792856997 -0.4357301954 -0.4841036745 0.0006810816 0.0198382139
-0.2779808889 0.7350171153 -0.3460733886 -0.4841036745 0.0000378418 0.0193821390
0.0710347871 0.5958503888 0.2101627575 -0.4846046124 -0.0002290390 0.0205732600
0.1879553587 0.6795530187 -0.1171671616 -0.4841022324 -0.0007402479 0.0201214327
0.1519592510 0.9187837739 -0.2519849982 -0.4841150277 0.0000406740 0.0208602816
-0.2657053217 0.7556443720 -0.0200125451 -0.4839566326 0.0007250994 0.0201002570
-0.2034959419 0.6795530187 0.0638202784 -0.4841040890 -0.0007402509 0.0201229399
-0.0436681862 0.4539421841 0.0175598369 -0.4842693048 0.0000666177 0.0208393457
0.2315472458 1.0654481909 -0.2733099249 -0.4840749489 0.0001166492 0.0208514370
0.1343352544 1.5622684850 -0.4426795185 -0.4841030600 -0.0001267574 0.0193920947
-0.3457115851 0.7641450917 -0.1051636208 -0.4840893757 0.0007390006 0.0200873396
0.0920969148 0.6805166501 0.2568328606 -0.4841012975 -0.0007401939 0.0201292720
-0.2034674103 0.6795530187 -0.0492868305 -0.4841036745 -0.0007402538 0.0201214039
-0.1578840124 0.6795530187 -0.1295265744 -0.4841036745 -0.0007402538 0.0201214039
-0.3338756222 1.0321974930 -0.2686969377 -0.4840995734 0.0001059888 0.0208535527
-0.2675086741 1.0368496522 -0.3579102207 -0.4841030371 -0.0000866304 0.0193862948
-0.2792182298 0.6795530187 -0.1288874703 -0.4841058560 -0.0007402449 0.0201213839
-0.2302136659 1.1733346752 -0.3767193503 -0.4841029542 -0.0001095827 0.0193893284
0.4056814328 0.7439970761 0.1472069339 -0.4838875833 -0.0000100460 0.0203716245
0.1984807074 1.6258853139 -0.4532134964 -0.4841042852 -0.0000864217 0.0193866294
0.2754065177 0.7233307377 0.3253921400 -0.4835157108 -0.0000832341 0.0205471557
0.2448180035 1.4142039830 -0.3344942945 -0.4841761608 0.0001134668 0.0208484457
-0.0251526234 0.9675171814 -0.2376339955 -0.4840659674 0.0000652119 0.0208555588
-0.2901404301 0.6799757370 0.0543638932 -0.4841093026 -0.0007402250 0.0201235188
0.0650454806 0.7596804358 0.2678516144 -0.4841926071 0.0007255050 0.0200086003
-0.3349013557 0.6812781388 0.1913314210 -0.4841218995 -0.0007399563 0.0201308806
-0.2817962867 0.8028116074 -0.2531240690 -0.4841138078 -0.0000421182 0.0208601306
0.0948897644 0.6813764542 -0.3411462317 -0.4841036937 -0.0006134780 0.0197313456
-0.2919380447 0.1623996907 0.1858737434 -0.4841656618 0.0005129197 0.0200507378
-0.2971724462 1.0602806011 -0.2520141857 -0.4843385281 0.0001378464 0.0207993483
-0.3803850266 1.5167602244 -0.4329630089 -0.4842638128 -0.0000988964 0.0194144134
0.1818952529 1.0364528680 -0.3571172178 -0.4841035086 -0.0000862832 0.0193862489
0.0606991099 1.1091897648 -0.2619031530 -0.4840732426 0.0000513255 0.0208569438
-0.3586110974 1.1010622440 -0.3664471536 -0.4841084624 -0.0000990400 0.0193879374
-0.2315433802 0.9003573992 -0.3458229245 -0.4841014115 -0.0000416563 0.0193824544
-0.0832490397 0.6822771025 0.3788590562 -0.4841062646 -0.0007397238 0.0201470929
-0.2308442415 1.0309432542 -0.2472321970 -0.4840096992 0.0001346662 0.0208418308
-0.1440684108 1.6655870279 -0.3740007340 -0.4841117565 0.0003412859 0.0207711654
-0.3794811478 1.2560290349 -0.3071870872 -0.4842182976 0.0001252584 0.0208402747
-0.0858088434 0.7242975314 0.0798178329 -0.4840385514 0.0007337470 0.0200576621
0.0138704192 0.7369841378 -0.2452822537 -0.4841286935 0.0005101726 0.0195868895
-0.4233861600 1.0388136922 -0.0927975324 -0.4835511971 0.0002185007 0.0201731091
0.0172892142 1.2620522716 -0.3905516690 -0.4841022287 -0.0001182467 0.0193906638
-0.0386048751 1.1989290958 -0.3807099166 -0.4841018941 -0.0001150917 0.0193901745
-0.3097150814 1.3246067030 -0.4015814696 -0.4841027040 -0.0001226926 0.0193913981
0.0404782614 0.7483404192 0.2300496242 -0.4841832132 0.0007252770 0.0199972781
0.4064216867 1.0094711036 -0.3689751493 -0.4836890361 -0.0000300802 0.0198197268
-0.3614369187 1.4984730988 -0.4316689201 -0.4841380807 -0.0001240702 0.0193930607
-0.3284122854 0.7278205141 -0.3464603452 -0.4841036745 0.0000369446 0.0193821176
-0.1229732545 0.1694521401 0.0899264617 -0.4837420693 0.0004534817 0.0205160102
-0.1159122885 1.2804658148 -0.2947286929 -0.4841143089 0.0002003475 0.0208319965
0.1474688416 1.4275866560 -0.3472185813 -0.4841227249 0.0000258341 0.0208609115
0.4392606910 0.1356222823 -0.0206662759 -0.4840879226 -0.0000854949 0.0195941485
-0.4986876854 1.0395161739 -0.1072738231 -0.4847439437 -0.0001160666 0.0200952589
0.3960790067 0.9291422672 0.1867763571 -0.4840534060 -0.0006513679 0.0197780749
-0.4740715058 1.0645238678 -0.2141332859 -0.4841644345 0.0007298037 0.0202050814
-0.2987479373 1.4701026360 -0.4268842887 -0.4841028320 -0.0001292690 0.0193925277
0.1431022293 1.0972240753 -0.3651966198 -0.4841034154 -0.0000982842 0.0193878057
-0.1323356089 0.1701643360 -0.0407929381 -0.4843554148 0.0004541235 0.0205762588
-0.0653818772 0.8840406398 -0.2522847322 -0.4841050869 0.0000228302 0.0208610774
-0.2387119687 1.1321855265 -0.2637509857 -0.4840448894 0.0000712835 0.0208545816
0.1389856518 1.2855283123 -0.2913711421 -0.4841101606 0.0002144345 0.0208283937
-0.2455772537 0.7507146175 -0.0218108874 -0.4839413827 0.0007216853 0.0201046512
-0.1392477017 1.2146737678 -0.3831647189 -0.4841028542 -0.0001132781 0.0193898991
-0.3223299735 1.6038728831 -0.3660641048 -0.4841965600 0.0001594958 0.0208373996
-0.1962696795 0.6796689543 0.1259765835 -0.4841043466 -0.0007402479 0.0201242065
0.0723002754 0.1264738405 0.3885451806 -0.4845494501 -0.0004087163 0.0202537916
-0.1136937182 0.6517304718 0.1059423404 -0.4841955903 -0.0007195386 0.0202684509
-0.3564171176 0.8814020398 -0.3451273331 -0.4841061062 -0.0000333210 0.0193821235
0.0679636190 0.6465535296 -0.0207991381 -0.4839372106 -0.0007208037 0.0200971954
0.3531287420 0.8171231213 -0.3257300304 -0.4834187028 0.0000039989 0.0198740880
-0.4587712667 0.0524571152 0.3298654932 -0.4841183174 -0.0001476214 0.0208261825
-0.3964996833 1.0944801120 -0.2852217128 -0.4843407363 0.0000950138 0.0208102737
-0.0326991552 0.5579781640 0.0159393806 -0.4838085693 0.0000409790 0.0207979892
-0.1650258985 0.6858230375 0.4212755920 -0.4841439916 -0.0007241333 0.0202443001
-0.1047330277 0.7647451022 0.3137530224 -0.4840630997 0.0007275600 0.0199919283
-0.1584978479 0.6803187550 0.2361968623 -0.4841048381 -0.0007402316 0.0201267789
0.1072054755 0.7485134646 0.1246174789 -0.4842603507 0.0007199146 0.0200544450
-0.2264750087 1.6108570403 -0.3625923128 -0.4841127640 0.0001061287 0.0208536570
-0.0130602899 0.7447512911 -0.2026565052 -0.4841202473 0.0007339750 0.0202104461
-0.1275069931 0.6785604264 -0.2916599876 -0.4841074224 -0.0007380753 0.0201724251
0.0658595615 0.6483660759 0.0487263984 -0.4839497624 -0.0007205734 0.0201916666
0.1944267961 0.7658510548 -0.3437102601 -0.4841036745 0.0000244550 0.0193815853
-0.4847186884 1.0582976757 -0.2962957007 -0.4842037642 -0.0007316624 0.0201111921
0.1055298295 0.6548080105 -0.0038858415 -0.4839360566 -0.0007208703 0.0201113201
-0.1970990762 1.3221370815 -0.3064019688 -0.4841282501 0.0002339861 0.0208220697
-0.2257141522 1.4257238220 -0.4187081526 -0.4841026640 -0.0001278922 0.0193922835
-0.4477412743 0.0332651115 0.3065032421 -0.4843326616 -0.0005259422 0.0196593700
-0.3214834303 0.7634682724 -0.0897346893 -0.4840453832 0.0007372277 0.0201001734
-0.2799377003 1.5459214537 -0.3553182478 -0.4840954739 0.0000852054 0.0208564286
0.0435272004 0.7677691909 -0.2533371229 -0.4841020614 -0.0000283525 0.0208610885
0.1173769178 1.5289745932 -0.4368445521 -0.4841034790 -0.0001303224 0.0193927150
0.0482578850 0.6459611096 -0.0604562585 -0.4839619714 -0.0007203114 0.0200269682
-0.4359138347 0.9530907261 -0.3655323642 -0.4839336352 -0.0000759412 0.0194230839
0.0925682484 0.7769753747 0.3762796891 -0.4841229314 0.0007391968 0.0201039650
0.2526096452 0.6891509264 -0.2668615975 -0.4840580208 -0.0004014115 0.0207410918
0.1102995959 1.5418363229 -0.3554372332 -0.4841087282 0.0000624523 0.0208589602
0.1429542148 0.7525178566 -0.1635777081 -0.4841911947 0.0007333976 0.0201512820
0.3731614098 0.8518724002 0.1804077069 -0.4841048581 0.0004031630 0.0195337630
-0.1576819150 1.6438742408 -0.3672702255 -0.4841131119 0.0001551046 0.0208442329
0.0641779957 0.7295342943 0.0233365898 -0.4842423173 0.0007255983 0.0200907959
0.1989313924 0.6799137481 0.0504863089 -0.4840983705 -0.0007402272 0.0201234166
-0.2684977879 1.2966400723 -0.3196135387 -0.4841449392 0.0001750515 0.0208394360
