-0.2253628658 0.0880274198 0.0150901579 0.0235852178 0.0370298427 -0.4710996602
0.3504051812 0.5051147902 0.4126271951 0.0231291185 0.0368081460 -0.4714032962
-0.0587141911 0.2076391768 0.0610134932 0.0236404142 0.0371828720 -0.4710634052
0.1059064706 0.7318003480 0.3603237872 0.0233296586 0.0364116301 -0.4717422585
-0.0363872180 0.6946826375 0.0123936816 0.0236896852 0.0378491521 -0.4712086514
0.1895906402 0.0068885269 -0.0784858934 0.0237947113 0.0362690977 -0.4720950359
0.2372779341 0.6636942255 0.2074303120 0.0244917389 0.0379853890 -0.4722516427
-0.4134110103 0.2022233665 0.2815738648 0.0246399084 0.0370666938 -0.4716569740
-0.0026494864 0.0874390290 -0.1476242801 0.0237279721 0.0373035605 -0.4731258851
0.1670393477 0.5507278768 -0.2926409153 0.0227061551 0.0373035605 -0.4722638697
-0.2684651116 0.0823537739 0.0063188902 0.0235668550 0.0370947046 -0.4710867480
-0.3684183578 0.3945432420 -0.0891870490 0.0227425501 0.0376253313 -0.4720864257
0.3608495522 0.4427058585 -0.0415752051 0.0246858353 0.0376999179 -0.4720892557
0.0355784718 0.7122794592 0.2063366120 0.0235731525 0.0362972328 -0.4718944824
0.3704065166 0.2384686041 0.0190103877 0.0227027031 0.0371692952 -0.4720157960
0.2674137402 0.6578946944 0.4499907132 0.0233525640 0.0369093822 -0.4712070467
0.2839947646 0.5715878917 -0.1458522534 0.0243372904 0.0377910148 -0.4727716927
0.0220205657 0.2014851070 -0.1476242801 0.0237279721 0.0373035605 -0.4731258851
0.4356672552 0.3358890236 0.2849105158 0.0246495367 0.0375668644 -0.4724842115
-0.0562728148 0.7170028808 0.2601732621 0.0240393600 0.0363410885 -0.4718627916
0.3775726674 0.1512016048 -0.0056749516 0.0234002966 0.0382865869 -0.4720594671
-0.2331028024 0.5959877847 -0.0451781941 0.0230424293 0.0380811259 -0.4720844126
-0.0430901384 0.7319229667 0.3069864701 0.0239441425 0.0363307947 -0.4718036021
0.2846545533 0.5988026410 0.4202422198 0.0229931677 0.0367258843 -0.4716409788
-0.1244386015 0.0309028528 -0.1476242158 0.0237279721 0.0373035605 -0.4731258851
-0.2218532004 0.7534285354 0.3887213845 0.0231974884 0.0379618047 -0.4726891739
-0.1673442028 0.6746071799 -0.0538228894 0.0231038579 0.0381300900 -0.4721332150
0.4296072378 0.4467275111 0.3471676289 0.0245992591 0.0377249203 -0.4724606240
0.3367102720 0.3963421268 0.0170113142 0.0240715961 0.0372982737 -0.4711112497
0.3487866502 0.5044593045 0.1715482804 0.0246503152 0.0377610655 -0.4722099784
-0.1436873150 0.6431620787 0.0757535103 0.0243485720 0.0364792432 -0.4719894635
-0.4135800068 0.1250502642 -0.0564063005 0.0226928810 0.0373600195 -0.4720892557
0.4161310865 0.0698277971 -0.0849951342 0.0247594567 0.0372004118 -0.4720892557
-0.3387769825 0.5338562644 0.2245526031 0.0228726927 0.0378711597 -0.4722339267
-0.4087266903 0.3288481817 0.1068415103 0.0227208078 0.0375219597 -0.4722011630
0.2060539335 0.3117885289 -0.1476242480 0.0237279721 0.0373035605 -0.4731258851
-0.1910680942 0.4154071496 -0.1476242480 0.0237279721 0.0373035605 -0.4731258851
0.0505340944 0.7658158268 0.2028632960 0.0239070218 0.0382974673 -0.4723231162
-0.2192319689 0.0119208744 -0.0787959524 0.0236102607 0.0362736723 -0.4720806102
0.1873713203 0.4315540574 -0.1476242480 0.0237279721 0.0373035605 -0.4731258851
-0.1061056310 0.7452383783 0.2001404986 0.0233151396 0.0382324344 -0.4722926362
0.3872170093 0.4533533602 0.2657772870 0.0246716936 0.0377088806 -0.4722296288
0.3120349611 0.1164957619 0.0073064217 0.0238762702 0.0371382441 -0.4710766947
0.0796063841 0.7173808608 0.2753670586 0.0234257946 0.0363335345 -0.4718834930
-0.2384103242 0.6753695929 0.2885334039 0.0230172144 0.0380327951 -0.4722832671
-0.1549674934 0.6268867947 0.0103917605 0.0243476111 0.0364773752 -0.4719994525
0.3220297926 0.4148092082 0.0224570032 0.0227623787 0.0369335533 -0.4720162832
-0.1554532393 0.5477275416 -0.3051623403 0.0237279721 0.0362786875 -0.4722449326
0.2209805533 0.5747322635 0.0098133700 0.0229791006 0.0365918595 -0.4720039670
-0.4009491863 0.1393635042 0.1928562540 0.0228918372 0.0367461369 -0.4723437316
0.1263303124 0.0031939392 -0.0721003153 0.0237926349 0.0362689577 -0.4720852139
0.3673992858 0.1083031221 -0.0057712814 0.0238934223 0.0372235441 -0.4710690475
-0.3438460837 0.3962854367 0.1984091554 0.0246797513 0.0369141206 -0.4719586653
-0.3714782619 0.1891850823 0.0229245428 0.0247587145 0.0372495915 -0.4719930337
-0.4226753477 0.1339240463 0.2569518916 0.0237604984 0.0362812895 -0.4722580853
-0.0171459351 0.8711660747 0.4169468216 0.0236220244 0.0382570896 -0.4724818853
0.0028800939 0.4098138176 0.0690912175 0.0237466438 0.0373846032 -0.4710559673
0.4104696748 0.2917288893 -0.1110027067 0.0247465890 0.0374733304 -0.4719987123
0.0563539341 0.7290227586 0.0035626864 0.0238647149 0.0383291301 -0.4721533536
-0.0670578202 0.0019269365 -0.0935892751 0.0236916216 0.0362675686 -0.4720886876
0.0491686462 0.0829496897 0.0334108310 0.0237351549 0.0369372240 -0.4711195407
-0.3165595541 0.4932588792 -0.0183217475 0.0228666554 0.0378800322 -0.4721096016
0.2369526429 0.6366596714 0.0651806999 0.0244812140 0.0380068607 -0.4722014874
0.2254638615 0.4095677248 0.0464697100 0.0239679000 0.0373241376 -0.4710809843
-0.4053654267 0.3728606419 0.1846137720 0.0227464592 0.0376091475 -0.4722228586
0.3940283995 0.5364290470 0.3776339291 0.0245855901 0.0377490769 -0.4724642315
-0.4202014896 0.2294807606 0.0441295429 0.0227067874 0.0374462557 -0.4721961197
0.2054419780 0.6738473606 0.1230163843 0.0243798907 0.0380965219 -0.4722335286
-0.2416816800 0.6612318512 0.2483831844 0.0230073892 0.0380212533 -0.4722899523
-0.2735464564 0.1513294585 -0.1476242480 0.0237279721 0.0373035605 -0.4731258851
0.3468178193 0.3983424982 0.2285175966 0.0227767205 0.0369128197 -0.4719587098
-0.4001636151 0.3256553133 0.0121415153 0.0227169246 0.0375226211 -0.4721555544
0.2613548932 0.6497961535 0.2604740526 0.0244894759 0.0379845431 -0.4722652526
0.2191592545 0.6606290066 0.1123484144 0.0243798907 0.0380965219 -0.4722335286
-0.3171451253 0.4058813131 -0.0476537294 0.0246867403 0.0369183801 -0.4720055831
-0.0689784540 0.6962694694 0.1806857281 0.0240255718 0.0363257349 -0.4719163646
-0.2644635478 0.5956089827 0.3721939021 0.0244984376 0.0366743472 -0.4717975793
0.0547737978 0.3995634673 0.0688849552 0.0237832638 0.0373861094 -0.4710573989
-0.1171897568 0.2187563535 0.0569262914 0.0235962807 0.0371834204 -0.4710680679
-0.2471259457 0.6260003708 0.1016969590 0.0229999172 0.0380343158 -0.4721918913
-0.3476883631 0.4942841824 0.1280002280 0.0228146788 0.0377819246 -0.4721972549
0.2065486172 0.6770898006 0.1458313425 0.0243798648 0.0380965343 -0.4722335804
0.2588022306 0.2772288259 -0.1476242480 0.0237279721 0.0373035605 -0.4731258851
0.2098501523 0.5765514890 -0.2586651705 0.0237279721 0.0383302850 -0.4719462941
0.3370558252 0.5024988890 0.0496748209 0.0246044329 0.0378508480 -0.4721722835
-0.2582577544 0.5429062093 0.1393369068 0.0245231010 0.0366440476 -0.4720031501
0.1662206230 0.6594481198 0.0137002245 0.0242809061 0.0381116951 -0.4717489883
-0.0056789291 0.7357474358 0.0298780715 0.0236616869 0.0383309826 -0.4722101288
0.3212426716 0.5186879669 -0.0732544705 0.0246154129 0.0378390408 -0.4720716195
-0.3572827529 0.5225585287 0.2912814463 0.0228438651 0.0378279281 -0.4722233966
-0.1533027588 0.7105814602 0.1520980658 0.0231929075 0.0381730407 -0.4722690041
0.0077163973 0.6824013882 -0.0053302204 0.0236868231 0.0362748427 -0.4719682302
-0.1162475436 0.1440298625 -0.1476242480 0.0237279721 0.0373035605 -0.4731258851
-0.4288792752 0.2680375823 0.1651882956 0.0227151717 0.0374570563 -0.4722482342
-0.4036090292 0.3101965077 -0.1295013607 0.0227117788 0.0375067990 -0.4721146604
0.3662173551 0.2324719206 -0.0406944743 0.0227038061 0.0371691812 -0.4720019238
-0.2975155376 0.3897883442 0.0249324121 0.0234431882 0.0373035605 -0.4710925116
-0.3028126352 0.4950129682 0.2379279951 0.0245937339 0.0367469994 -0.4719655754
0.4099618633 0.0544022870 -0.3314768878 0.0247589933 0.0371969028 -0.4721040691
0.3933516868 0.0408412626 -0.2822572845 0.0239312510 0.0362871682 -0.4721042412
0.0811219301 0.7209664189 -0.0281464443 0.0240035248 0.0383024380 -0.4721195242
0.3655865133 0.4377096448 -0.1408702124 0.0246792164 0.0377112368 -0.4721487085
-0.0323657821 0.1673211000 0.0557666960 0.0236859989 0.0371164458 -0.4710705175
-0.0802797723 0.7921599690 0.3304669111 0.0233924493 0.0382430246 -0.4723710945
0.0489385103 0.7272013177 -0.0962971720 0.0238972754 0.0383193817 -0.4719707430
0.0536483044 0.7541602621 0.3723290485 0.0235685271 0.0363407567 -0.4717397032
-0.2591804956 0.5993292446 -0.1046004253 0.0229643069 0.0379978016 -0.4719920624
-0.4137296422 0.0917236744 -0.0579142978 0.0226913427 0.0373035605 -0.4720892557
-0.2748323724 0.5127365219 0.0963163434 0.0245969910 0.0367462748 -0.4719952407
0.3652043888 0.2934383720 0.0827162765 0.0227180950 0.0370863732 -0.4720021975
-0.1782099564 0.3203505281 -0.1476242480 0.0237279721 0.0373035605 -0.4731258851
0.0954200166 0.6604186310 -0.0502615946 0.0233379682 0.0363502170 -0.4719724949
-0.3763875097 0.1937691177 -0.1476242480 0.0237279721 0.0373035605 -0.4731258851
0.4170775229 0.2883503523 0.3395121103 0.0229488663 0.0369483802 -0.4715049264
0.4127117094 0.0787405502 -0.1508593497 0.0237279721 0.0383401049 -0.4721025442
-0.2671818524 0.0594396580 -0.1476242480 0.0237279721 0.0373035605 -0.4731258851
-0.1466708039 0.6070288624 0.0316975832 0.0236354446 0.0375294981 -0.4710817877
0.0451757736 0.0271185925 -0.1476242480 0.0237279721 0.0373035605 -0.4731258851
-0.2240840984 0.5601586481 -0.0294689937 0.0244951888 0.0366130658 -0.4719933540
0.2640242264 0.5300867461 0.0838754614 0.0229015359 0.0366843351 -0.4719989020
-0.3348963924 0.4199308563 0.0123862791 0.0233956318 0.0373277710 -0.4711076423
-0.4006801271 0.2601976452 -0.1377780401 0.0227039128 0.0374581354 -0.4720444173
-0.0052788762 0.6053928684 -0.1476242801 0.0237279721 0.0373035605 -0.4731258851
0.3459318070 0.0249747112 -0.0559166476 0.0238620487 0.0362756388 -0.4720892557
-0.1763155328 0.5519363493 0.0387408291 0.0235731224 0.0374256838 -0.4710715582
-0.1957309487 0.4832400995 0.0440081577 0.0235549752 0.0374116841 -0.4710728986
0.2276284992 0.6077842533 0.2722553355 0.0229581358 0.0366230797 -0.4719517852
-0.0628344043 0.3450853135 0.0694052944 0.0236457249 0.0372828974 -0.4710561011
0.2448952053 0.5578290785 0.1003229057 0.0229057373 0.0366795407 -0.4719937044
-0.4364307131 0.2624330671 0.3418138402 0.0240337353 0.0369563374 -0.4711615999
-0.1013474667 0.0407454397 -0.1476242480 0.0237279721 0.0373035605 -0.4731258851
-0.0982362578 0.6737703598 0.1163948372 0.0242184668 0.0363985965 -0.4719665582
-0.3379863493 0.4348557190 0.2668407433 0.0246703418 0.0369020719 -0.4719300502
-0.3125169264 0.3340072541 0.0197435698 0.0234396523 0.0372823801 -0.4710937535
-0.4061478973 0.2185896033 -0.1098884130 0.0227006433 0.0374400027 -0.4720651779
0.0404548958 0.0699633146 -0.1476242480 0.0237279721 0.0373035605 -0.4731258851
0.0488388653 0.8717292485 0.4240136052 0.0238889181 0.0382692378 -0.4724300829
0.3447013787 0.4721235396 -0.1462148902 0.0244190587 0.0376491033 -0.4727803423
-0.1203490912 0.0207942595 0.0025118842 0.0236701675 0.0368418437 -0.4711629309
0.3289089141 0.5803393878 0.4367264251 0.0236544419 0.0370140351 -0.4710965980
-0.4137296422 0.1133765647 -0.0993924137 0.0226913427 0.0373035605 -0.4720892557
0.3666697412 0.3371362816 0.0062416053 0.0240785871 0.0372784679 -0.4711140435
-0.1711851066 0.6752628553 -0.0016182464 0.0231047660 0.0381288876 -0.4721603135
0.1165993684 0.2842863088 0.0639748210 0.0238551862 0.0372380259 -0.4710625510
-0.1735157667 0.0220717788 -0.1476242158 0.0237279721 0.0373035605 -0.4731258851
-0.3084262457 0.5408035609 0.0191935570 0.0228622393 0.0378696514 -0.4721574379
-0.4440166013 0.1384747064 0.2025107508 0.0246972880 0.0369804556 -0.4719142405
-0.3628979143 0.1646082760 -0.0793429600 0.0247559125 0.0372615563 -0.4719620758
-0.1069208996 0.0597035870 -0.1476242480 0.0237279721 0.0373035605 -0.4731258851
-0.0951093097 0.0029265925 -0.0292934177 0.0236945563 0.0362676650 -0.4721093580
-0.2996403304 0.4954420073 0.2176523488 0.0245937339 0.0367469994 -0.4719655754
0.3791276115 0.2500837381 0.1410150399 0.0227088233 0.0371457700 -0.4719841933
0.2451907908 0.5668280274 0.1626607526 0.0229019236 0.0366844326 -0.4719947845
0.4211968664 0.3981079846 0.3076967489 0.0246742810 0.0376820837 -0.4722785173
0.3778159436 0.3637428715 -0.0699150994 0.0246770115 0.0377120174 -0.4721734414
0.3850548864 0.1962438766 -0.1476242480 0.0237279721 0.0373035605 -0.4731258851
0.2186967758 0.7198382997 0.3440165512 0.0243433298 0.0380214772 -0.4725141452
0.3861230885 0.1533921831 0.1128593898 0.0226965237 0.0372537774 -0.4719985050
-0.3714047410 0.2140516606 0.0396297212 0.0247515389 0.0371691346 -0.4719952293
0.4647339419 0.2007044712 0.3260877469 0.0236818887 0.0369348905 -0.4711214958
0.2454314101 0.0885883079 -0.1476242480 0.0237279721 0.0373035605 -0.4731258851
-0.2979400529 0.6119998623 0.2973535487 0.0229398372 0.0379498306 -0.4722784084
-0.0829382624 0.0789280651 -0.1476242480 0.0237279721 0.0373035605 -0.4731258851
-0.1818738443 0.6645367398 -0.0640150619 0.0231355145 0.0381536837 -0.4720595117
0.3380406045 0.3979556281 0.1410617328 0.0227679319 0.0369207105 -0.4720095762
-0.0178669098 0.6919773664 0.0838499002 0.0238037839 0.0362800973 -0.4719430464
-0.3922786447 0.5127819191 0.3454705784 0.0229351341 0.0376706155 -0.4726471790
-0.0718854479 0.5443651076 -0.1476242480 0.0237279721 0.0373035605 -0.4731258851
0.0454857631 0.1454295796 -0.1476242480 0.0237279721 0.0373035605 -0.4731258851
-0.4247371549 0.2157694634 0.0749359881 0.0227034940 0.0374319875 -0.4721817365
0.2137549125 0.5920387356 0.0895989412 0.0229815305 0.0365925945 -0.4719799214
-0.4071594714 0.0582552395 -0.1257264643 0.0227751593 0.0368952125 -0.4720892557
-0.0186917714 0.3517493780 -0.1476242480 0.0237279721 0.0373035605 -0.4731258851
0.3710328035 0.0555192883 -0.2308425625 0.0226916837 0.0373035605 -0.4721158276
-0.3657175152 0.2362897303 0.0094414326 0.0247521381 0.0371691812 -0.4720019238
-0.2971737485 0.5956463750 0.4311652980 0.0243176473 0.0367764272 -0.4714191701
0.0312342897 0.8768788617 0.4320463439 0.0238359951 0.0382757696 -0.4724323883
0.1420653984 0.0848689717 -0.1476242480 0.0237279721 0.0373035605 -0.4731258851
0.2482631914 0.6455113889 0.1814623149 0.0244830944 0.0379981447 -0.4722373869
0.2947188079 0.4497407212 -0.1226589991 0.0228429331 0.0368208126 -0.4723306297
0.1821447695 0.6832097995 0.0618960577 0.0243717127 0.0381038861 -0.4722295303
-0.4396606254 0.1317206003 0.2680207448 0.0238120241 0.0362889356 -0.4722843763
0.1173340141 0.8369866613 0.3991211484 0.0240897620 0.0381351364 -0.4725914415
-0.1218055224 0.1410163673 0.0432413153 0.0236036097 0.0370587595 -0.4710896526
0.3338681451 0.5481016300 0.2492171579 0.0246048963 0.0378362854 -0.4722369329
-0.3694210739 0.2033823306 0.0087437447 0.0247590120 0.0372487539 -0.4719967707
0.2522159900 0.5513119293 0.1213324939 0.0229015359 0.0366843351 -0.4719989020
0.4027592377 0.1750413924 0.2335148543 0.0227168935 0.0372165998 -0.4718776952
0.1877071778 0.6191468727 0.0263554047 0.0238432390 0.0375417292 -0.4710869636
-0.1793545259 0.6460793706 0.0087214105 0.0231197536 0.0381215099 -0.4719004979
-0.3593003344 0.4490820085 0.3679854427 0.0245898921 0.0368606295 -0.4717211444
0.1501170162 0.7701684170 0.4616386214 0.0235118421 0.0368885916 -0.4711642205
-0.0092388037 0.7307315768 -0.1050927683 0.0236947771 0.0383326143 -0.4719686459
-0.0945420547 0.8029541631 0.3610739265 0.0233330163 0.0382251251 -0.4723525596
0.2495432235 0.6169685847 0.0142499211 0.0244755498 0.0380174063 -0.4721676881
-0.1527129955 0.6842010639 -0.0919189572 0.0231951197 0.0381916472 -0.4720448517
0.2568485376 0.5293122792 0.0096265000 0.0229014664 0.0366836810 -0.4720041743
0.2291798680 0.1979214405 -0.1476242480 0.0237279721 0.0373035605 -0.4731258851
0.4121668207 0.0467782435 -0.0926111396 0.0247114048 0.0369757493 -0.4720892557
0.1571851516 0.8148659110 0.3971796835 0.0242022259 0.0380939832 -0.4725635095
0.3232709127 0.5554209272 0.2102527606 0.0246074599 0.0378363995 -0.4722203416
-0.2987401764 0.2183752408 -0.1476242480 0.0237279721 0.0373035605 -0.4731258851
0.1642946744 0.8249797549 0.4245649469 0.0242746262 0.0381235417 -0.4724108171
0.0281672474 0.6895728838 0.0584005972 0.0236869029 0.0362768309 -0.4719523584
0.2576308974 0.5241590596 -0.0203182595 0.0229014664 0.0366836810 -0.4720041743
-0.0807849820 0.7151608764 0.2877823784 0.0241152672 0.0363740533 -0.4718430469
-0.2969262335 0.2102109621 0.0184526552 0.0234507639 0.0372412518 -0.4710923230
0.0507295374 0.0465233477 0.0196381922 0.0237351549 0.0369372240 -0.4711195407
-0.0488454272 0.6820961692 0.0466191245 0.0239876239 0.0363082273 -0.4719608256
-0.3778015500 0.4870566280 0.3007973167 0.0228457953 0.0377710389 -0.4723682344
0.3485266698 0.6179771857 0.3933054832 0.0245361729 0.0378376755 -0.4724582170
0.3972147506 0.0392720420 -0.0164438695 0.0237853858 0.0373609742 -0.4710558108
-0.3337034838 0.6421508851 0.4025869986 0.0229220114 0.0379304186 -0.4722683583
0.0039222517 0.8005312066 0.3099061027 0.0236660998 0.0382935084 -0.4723905448
0.0402985887 0.8186006619 0.3758736079 0.0237279721 0.0373035605 -0.4731258851
-0.0814917486 0.0024211454 -0.1159297970 0.0236916216 0.0362675686 -0.4720886876
-0.0551565038 0.2313343110 -0.1476242480 0.0237279721 0.0373035605 -0.4731258851
-0.2735921697 0.4922875761 -0.0524500385 0.0246060635 0.0367599800 -0.4719993872
0.0688132847 0.7164352775 0.2569696066 0.0234553759 0.0363300017 -0.4718601834
0.0034975757 0.6759609226 -0.0682540179 0.0238100410 0.0362776934 -0.4719649079
-0.3924409664 0.0963246432 -0.1476242480 0.0237279721 0.0373035605 -0.4731258851
0.0780219281 0.6650712518 -0.0685959025 0.0234674920 0.0363050542 -0.4719905893
-0.0354935885 0.0903377942 0.0366838940 0.0237027706 0.0369373235 -0.4711198040
-0.2784880347 0.5451742787 -0.0706361965 0.0229077390 0.0379373765 -0.4720990674
0.4188186104 0.3584800667 0.2360672629 0.0247036446 0.0376233182 -0.4722321509
0.1588548371 0.4616249467 -0.1476242480 0.0237279721 0.0373035605 -0.4731258851
0.1403272539 0.1211071073 -0.1476242480 0.0237279721 0.0373035605 -0.4731258851
0.0936216698 0.0998327142 -0.1476242480 0.0237279721 0.0373035605 -0.4731258851
-0.1391220550 0.3287722568 -0.1476242480 0.0237279721 0.0373035605 -0.4731258851
0.2949719227 0.6242769993 0.3194582913 0.0245523838 0.0378914020 -0.4723114883
-0.3159963482 0.4936994654 -0.0386699029 0.0228304635 0.0378221209 -0.4720760490
-0.3580330187 0.3106893876 0.0819145722 0.0247345320 0.0370709865 -0.4720035378
-0.2481850679 0.6131212113 -0.1422857713 0.0231091748 0.0377985988 -0.4727575572
-0.2755872885 0.5482796110 -0.1125360122 0.0229077390 0.0379373765 -0.4720990674
0.2796910670 0.5873001294 0.0527757879 0.0245439933 0.0379362134 -0.4721812348
-0.1491709675 0.2259927659 0.0534438334 0.0235807095 0.0372014577 -0.4710682317
0.1178801520 0.7096189840 -0.0178655653 0.0240871424 0.0382733222 -0.4721610900
-0.4034621139 0.4013233136 0.2328283019 0.0227561693 0.0376309530 -0.4722409581
0.1339586640 0.4941401469 0.0538708480 0.0238434920 0.0374263006 -0.4710664207
-0.3427984132 0.4675739867 0.3508398679 0.0246028044 0.0368261035 -0.4718041163
0.3435228958 0.5032652567 0.1196475917 0.0246511082 0.0377640914 -0.4721909045
-0.4145595345 0.3363770314 0.1679176102 0.0227260355 0.0375223121 -0.4722404916
-0.3636712730 0.1844148558 -0.1356572964 0.0247468461 0.0373035605 -0.4722802951
-0.2689969667 0.5155282209 0.0591371328 0.0245968873 0.0367462924 -0.4719941771
-0.3270755148 0.3459531362 0.0151639639 0.0233830544 0.0372827657 -0.4711119122
0.1371047586 0.8405391291 0.4228651131 0.0242110435 0.0381623551 -0.4724113033
-0.4129540682 0.2389292791 -0.0288075609 0.0227015421 0.0374308337 -0.4721588446
0.1180618348 0.0861883501 -0.1476242480 0.0237279721 0.0373035605 -0.4731258851
0.3478421429 0.4771306992 -0.1270251609 0.0246406206 0.0377949871 -0.4721024188
-0.2329870803 0.0136044850 -0.0655166684 0.0236102607 0.0362736723 -0.4720806102
0.4111243074 0.0754446492 -0.3270828541 0.0237279721 0.0383401049 -0.4721025442
-0.2418457732 0.2116897917 0.0330653722 0.0234680020 0.0372016910 -0.4710909380
-0.2674605606 0.4587280909 -0.1476242480 0.0237279721 0.0373035605 -0.4731258851
0.2345504864 0.0351065530 0.0002314768 0.0238708611 0.0369786114 -0.4711152988
-0.1665017517 0.4180484855 -0.1476242480 0.0237279721 0.0373035605 -0.4731258851
-0.0815540231 0.3105208970 -0.1476242480 0.0237279721 0.0373035605 -0.4731258851
0.3131117672 0.4101279888 -0.0850792525 0.0227778701 0.0369015940 -0.4719876225
-0.4308084663 0.4266265877 0.3299933291 0.0229410532 0.0376456990 -0.4726708919
0.0907582298 0.0012921959 -0.1318652220 0.0237854677 0.0362686395 -0.4720739830
-0.3204476732 0.4092751611 0.0058122811 0.0246867403 0.0369183801 -0.4720055831
0.3382383571 0.5536430487 0.2948375206 0.0245843586 0.0378607281 -0.4722646606
0.4267654914 0.2112947281 0.3115501959 0.0229524893 0.0370119256 -0.4714662176
0.2143591171 0.6500880849 0.0055320543 0.0243698261 0.0381136885 -0.4721687341
-0.3142168566 0.6053467436 0.4424350997 0.0238093889 0.0370593089 -0.4710851080
-0.4090274165 0.2713254515 -0.0464549048 0.0227017608 0.0374501617 -0.4720892557
0.1347282909 0.5146638783 -0.1476242480 0.0237279721 0.0373035605 -0.4731258851
-0.4066057258 0.5061786581 0.3616436798 0.0228806654 0.0377680928 -0.4724645974
-0.1383760447 0.0080494181 -0.0072854787 0.0236561855 0.0363316821 -0.4717358449
0.1942599653 0.6070408842 0.0455978383 0.0229789285 0.0365917589 -0.4720063523
-0.3147360245 0.4972172611 -0.0911434465 0.0228304635 0.0378221209 -0.4720760490
0.0272890046 0.1284415497 0.0478106409 0.0237279721 0.0370377325 -0.4710872891
0.4391954898 0.3034539247 0.2626198195 0.0247090423 0.0375833188 -0.4722732066
-0.1868253255 0.6103475445 0.0728497590 0.0243471570 0.0364779806 -0.4719911335
-0.1125551992 0.0033223548 -0.0179637621 0.0236633413 0.0362689484 -0.4720902861
-0.3700194900 0.5833734145 0.4201742035 0.0228972411 0.0376782036 -0.4715951608
-0.0393022707 0.7664886480 0.2094144218 0.0235497983 0.0382947669 -0.4723349472
0.3708128111 0.4186280142 -0.0920222781 0.0246858353 0.0376999179 -0.4720892557
-0.3029473390 0.4467868913 -0.0086068588 0.0246483487 0.0368320486 -0.4720172514
0.2832656161 0.5741325184 -0.0430004751 0.0245481823 0.0379373599 -0.4720768286
0.2229998255 0.5798796624 0.0717726357 0.0229794500 0.0365912831 -0.4720057365
0.0013849312 0.7820945907 0.4218135510 0.0237881681 0.0364006211 -0.4715836096
-0.2416544415 0.5394913550 -0.0303974623 0.0245203996 0.0366401322 -0.4720084950
0.1914464370 0.7271155854 0.2991611329 0.0243917622 0.0380679928 -0.4723120263
-0.2575478551 0.5552405744 0.2115040687 0.0245226594 0.0366502124 -0.4719619410
0.4207907305 0.2104930870 -0.0663447570 0.0247624526 0.0373702666 -0.4720881797
-0.4248853348 0.2671346760 0.1372554866 0.0227056886 0.0374327992 -0.4722025479
-0.2925929401 0.6233689358 0.3139184235 0.0229398372 0.0379498306 -0.4722784084
-0.1001441815 0.0223623750 0.0041637594 0.0237130291 0.0368403126 -0.4711620135
0.1707267723 0.4439092381 -0.1476242480 0.0237279721 0.0373035605 -0.4731258851
-0.0138707552 0.7224004526 0.2510681458 0.0237639887 0.0362950974 -0.4718519702
-0.0144934792 0.3821900226 0.0701706182 0.0236896935 0.0373449645 -0.4710541605
-0.1236611616 0.0046061996 -0.0722717168 0.0236554101 0.0362695600 -0.4720759340
0.2058836879 0.5903432038 0.0075236298 0.0229791006 0.0365918595 -0.4720039670
-0.4524978989 0.1604690656 0.2158153430 0.0227181893 0.0373715572 -0.4723135647
0.0482968450 0.2032067857 -0.1476242480 0.0237279721 0.0373035605 -0.4731258851
-0.3948984695 0.3404597404 -0.1012765561 0.0227284167 0.0375701090 -0.4720226191
-0.4063572923 0.0515657600 -0.2654764032 0.0226972991 0.0371969390 -0.4721200115
0.2363333646 0.4369077507 -0.1476242480 0.0237279721 0.0373035605 -0.4731258851
-0.2393543256 0.5902333024 -0.0062024083 0.0230424293 0.0380811259 -0.4720844126
0.4148428609 0.2633249488 -0.0061173726 0.0247522459 0.0374472343 -0.4721586985
-0.3330090862 0.5160753560 0.1050113380 0.0228596540 0.0378576638 -0.4722058475
0.1825937244 0.2672346910 -0.1476242480 0.0237279721 0.0373035605 -0.4731258851
-0.1502290448 0.7651160511 0.3451333442 0.0232479505 0.0381009732 -0.4725456691
-0.1797923599 0.6088670075 0.0159016066 0.0243476111 0.0364773752 -0.4719994525
0.1328522466 0.3492194622 -0.1476242480 0.0237279721 0.0373035605 -0.4731258851
-0.2968725164 0.4755374132 0.0932887075 0.0246520691 0.0368432867 -0.4719954853
0.3108554344 0.5069549277 -0.1140518868 0.0246199710 0.0378306503 -0.4720558659
-0.3233140956 0.3940177777 -0.0299236583 0.0246988782 0.0369540340 -0.4719903996
-0.2732730631 0.7210841665 0.4330552611 0.0229356607 0.0379696240 -0.4720326619
-0.4137296422 0.1206486383 -0.0751397832 0.0226913427 0.0373035605 -0.4720892557
0.0098042145 0.1131715837 -0.1476242480 0.0237279721 0.0373035605 -0.4731258851
-0.2222493390 0.5662342305 -0.1418252228 0.0243383830 0.0367541905 -0.4727218629
-0.1447852694 0.5564825487 -0.2581324145 0.0247497891 0.0373035605 -0.4722638697
0.3957818882 0.0425326220 -0.3921557337 0.0240438766 0.0363163597 -0.4721046963
0.2344320909 0.3894351977 0.0447465292 0.0239679000 0.0373241376 -0.4710809843
-0.1741421324 0.6703989735 -0.0810822126 0.0231451552 0.0381606447 -0.4720710432
-0.0261834704 0.8768913261 0.4352030525 0.0236137832 0.0383312635 -0.4721626625
0.3647064792 0.2223654638 -0.0666358031 0.0227055434 0.0371899573 -0.4719614517
0.0744227228 0.6992916650 -0.0086825618 0.0238595535 0.0383317632 -0.4720799084
-0.4739084346 0.1685034971 0.2634772654 0.0236207981 0.0375536329 -0.4730895450
-0.0998542196 0.7707947983 0.2860837470 0.0233215895 0.0382179216 -0.4723601778
-0.3599649310 0.4477890694 0.0186155148 0.0227704717 0.0376949140 -0.4721573426
0.2031203811 0.6565055197 -0.0706341087 0.0243355292 0.0381427110 -0.4720531634
0.2100235618 0.2257228525 -0.1476242480 0.0237279721 0.0373035605 -0.4731258851
0.4098898300 0.0778626868 -0.2193326961 0.0237279721 0.0383401049 -0.4721025442
-0.1675797603 0.6754923391 -0.1446404584 0.0232979056 0.0379486602 -0.4727773620
0.2266599805 0.2397549959 -0.1476242480 0.0237279721 0.0373035605 -0.4731258851
-0.2797327623 0.7123470329 0.4169803555 0.0229618584 0.0379682774 -0.4723033166
-0.3517811647 0.2976834659 -0.0263453442 0.0247378399 0.0370893048 -0.4719951132
0.2078873329 0.6873087369 0.4242096815 0.0230372493 0.0366376837 -0.4716966862
-0.0325226821 0.2596631643 0.0676349128 0.0236865235 0.0372389495 -0.4710554729
0.3753126639 0.1867326887 0.0128423981 0.0226969995 0.0372513186 -0.4719945658
-0.4091230186 0.1927923422 -0.0507103753 0.0226976827 0.0374180376 -0.4720892557
-0.0575286861 0.0824162215 -0.1476242480 0.0237279721 0.0373035605 -0.4731258851
-0.0401922471 0.7011770088 -0.1042099499 0.0236693890 0.0383385334 -0.4720892557
-0.1812682952 0.6421224130 -0.1310399489 0.0230433602 0.0380819552 -0.4720863801
0.2058032703 0.3456754408 0.0517180890 0.0239081227 0.0373035605 -0.4710683996
-0.2923282782 0.0727820033 0.0004781375 0.0235622192 0.0370644340 -0.4710942957
0.4496466300 0.1349633647 0.1853396147 0.0247437673 0.0373855693 -0.4722790843
0.3592267814 0.4180303901 -0.1305831654 0.0246654562 0.0377447293 -0.4720561675
0.3843313533 0.1452111131 -0.0293104371 0.0237279721 0.0362670659 -0.4721059734
0.2758292678 0.5894026192 0.3856528122 0.0229438314 0.0366839246 -0.4718139839
-0.3420254971 0.3554151951 0.0380062548 0.0247157120 0.0369969763 -0.4720187027
-0.3152904989 0.4906127023 0.2983076728 0.0246365166 0.0368345044 -0.4719185674
0.3389133625 0.3793513125 0.0653356511 0.0227629230 0.0369323881 -0.4720150216
0.0479263194 0.7036291340 0.1718324931 0.0235733370 0.0362984353 -0.4718882304
0.2109761517 0.4122748950 -0.1476242480 0.0237279721 0.0373035605 -0.4731258851
-0.1061396946 0.5958418822 0.0376637068 0.0236682767 0.0375065232 -0.4710744432
0.4108484779 0.2940433044 -0.1310342547 0.0247437839 0.0375067233 -0.4721273487
-0.0014228863 0.5423202897 -0.1476242480 0.0237279721 0.0373035605 -0.4731258851
-0.1959999447 0.4669091371 -0.1476242480 0.0237279721 0.0373035605 -0.4731258851
0.3582186241 0.3388327630 0.1361689995 0.0227395646 0.0370008367 -0.4720117334
-0.1296945584 0.7430452208 0.2366679565 0.0232501222 0.0381955470 -0.4723142437
-0.0279757664 0.8653469295 0.4663906415 0.0236770902 0.0377615009 -0.4711606534
-0.1764398288 0.6134904608 0.0337576177 0.0243471570 0.0364779806 -0.4719911335
0.2392855183 0.5620599685 0.0796811116 0.0229057373 0.0366795407 -0.4719937044
0.1641503693 0.7966782023 0.3812091115 0.0242171108 0.0379883548 -0.4726945654
-0.1622704502 0.3802780727 0.0570169903 0.0235309026 0.0373243263 -0.4710717428
-0.2170387171 0.6068096920 0.2375700086 0.0244469948 0.0365720412 -0.4719392990
0.2412317134 0.7615071461 0.4258056886 0.0244569091 0.0380103127 -0.4722984289
0.1503374907 0.7396527018 0.2420082680 0.0242210117 0.0381910314 -0.4722987979
-0.3866969862 0.2644868228 -0.1509852898 0.0236203015 0.0373343235 -0.4731198188
-0.4108731538 0.1746764615 -0.0899136194 0.0226928810 0.0373600195 -0.4720892557
-0.0731718076 0.0950270091 -0.1476242480 0.0237279721 0.0373035605 -0.4731258851
-0.4519750603 0.2407872911 0.2588521671 0.0228417286 0.0375585071 -0.4725627279
0.0146348278 0.4238312180 0.0677794231 0.0237466438 0.0373846032 -0.4710559673
0.3244466744 0.5215833040 0.0423666281 0.0246044329 0.0378508480 -0.4721722835
0.2348955980 0.5740115448 0.1201360421 0.0229730073 0.0366002292 -0.4719894884
-0.3572471955 0.4895799011 0.4049345371 0.0243594453 0.0367946118 -0.4714436450
0.0990514227 0.7268734474 0.0686820453 0.0240017791 0.0382961104 -0.4722095648
0.0930856546 0.1090581169 0.0390063772 0.0237800876 0.0370524588 -0.4710848489
0.3714032545 0.0433751166 -0.2452911552 0.0226916837 0.0373035605 -0.4721158276
-0.2089154682 0.5992910925 -0.4265933829 0.0237279721 0.0383310396 -0.4719518225
-0.0161010323 0.7025406223 -0.0388758812 0.0236693890 0.0383385334 -0.4720892557
0.1672651609 0.5818292265 -0.1476242480 0.0237279721 0.0373035605 -0.4731258851
0.0665785781 0.2047302205 -0.1476242480 0.0237279721 0.0373035605 -0.4731258851
-0.4001078102 0.2626504970 -0.1135999112 0.0227292595 0.0375733506 -0.4721554808
0.2315215061 0.5922459475 -0.0951809170 0.0244663093 0.0380285594 -0.4721511808
0.2202763326 0.5919391477 0.1358931389 0.0229730073 0.0366002292 -0.4719894884
0.3643354270 0.2495936426 -0.0344899778 0.0227078531 0.0371466190 -0.4719926760
-0.3658555093 0.2811036751 0.0934989557 0.0247345320 0.0370709865 -0.4720035378
-0.4020671818 0.2115621743 -0.0156284350 0.0228783278 0.0373735309 -0.4714995027
-0.1680254394 0.6250373245 0.0773940604 0.0243485720 0.0364792432 -0.4719894635
0.3453284244 0.4207349013 0.2798812428 0.0227805125 0.0369111217 -0.4719378860
-0.3471499284 0.3919758064 0.0088236875 0.0233835115 0.0372996317 -0.4711115379
-0.2870843588 0.4915685036 0.0840903930 0.0245969910 0.0367462748 -0.4719952407
0.1374398574 0.6435141813 -0.0123587877 0.0232231429 0.0364020796 -0.4720051177
0.0168620987 0.7427083671 0.0772625836 0.0237958205 0.0383212818 -0.4722742961
0.3285444736 0.3589903143 -0.1476242480 0.0237279721 0.0373035605 -0.4731258851
-0.1962775302 0.4113996688 0.0496198702 0.0235368000 0.0373848084 -0.4710736512
-0.0609081478 0.7512928912 0.3778834696 0.0240186782 0.0363951031 -0.4716833054
0.0494304179 0.3572880434 0.0707658073 0.0237474659 0.0373449853 -0.4710536380
0.1013295921 0.3429526434 0.0673157750 0.0238067466 0.0372828922 -0.4710558305
0.0596992316 0.8659396504 0.4635125768 0.0238860052 0.0380147111 -0.4713517664
0.0804712367 0.8684747235 0.4337906574 0.0240722035 0.0382788816 -0.4721589213
0.3999585853 0.0362339808 -0.0508721901 0.0241915673 0.0363763712 -0.4720892557
0.3773750091 0.4766022929 0.2740946188 0.0246516980 0.0377525185 -0.4722298527
0.2938010643 0.3825315267 -0.1476242480 0.0237279721 0.0373035605 -0.4731258851
0.0554055696 0.2669935181 0.0680846420 0.0238082538 0.0372390915 -0.4710577524
0.3582133093 0.6046962566 0.4023638423 0.0246041966 0.0378419641 -0.4722194574
0.2338596165 0.6158627374 0.3292324337 0.0229583939 0.0366318900 -0.4719125964
0.2838885484 0.5751895850 -0.0050697341 0.0245464180 0.0379359957 -0.4721583450
-0.0019552391 0.7132173227 -0.1505002872 0.0237279721 0.0374180376 -0.4731195451
0.2387561314 0.1813490989 -0.1476242480 0.0237279721 0.0373035605 -0.4731258851
0.0863230305 0.0313533730 0.0100297250 0.0237805821 0.0368300707 -0.4711685816
-0.2351169039 0.6236443537 -0.0973975468 0.0230572760 0.0380860385 -0.4719774728
0.0360104177 0.6829792406 0.0122129173 0.0235652886 0.0362867888 -0.4719696359
-0.3460151665 0.1603049495 0.0011905673 0.0234324332 0.0372452138 -0.4710973620
0.3784744976 0.4008583677 -0.0120978587 0.0246890354 0.0376858663 -0.4721585440
-0.0434610320 0.2208284730 0.0633664087 0.0236845891 0.0371825454 -0.4710606280
-0.2955725852 0.5785166813 0.1408483841 0.0229287878 0.0379530265 -0.4722079974
0.2952478787 0.4612599691 -0.0274913059 0.0228244189 0.0368060230 -0.4719860623
0.0504708196 0.4687361457 -0.1476242480 0.0237279721 0.0373035605 -0.4731258851
-0.4055939609 0.3184551870 0.0564283817 0.0227211126 0.0375253132 -0.4721972372
-0.1922826880 0.5614207113 -0.3984792104 0.0237279721 0.0362778790 -0.4722395151
0.3588269410 0.2813082446 -0.0270558127 0.0227221907 0.0370685038 -0.4720012116
0.2913684911 0.6403698739 0.3603447925 0.0240405272 0.0376161157 -0.4711515891
0.4193333187 0.2370463236 -0.1109879015 0.0247529653 0.0374402266 -0.4720163672
0.1506284260 0.6275364597 -0.0756949221 0.0231096631 0.0364791478 -0.4719768353
0.2276129343 0.5832266257 -0.4525690220 0.0247620669 0.0373035605 -0.4720168036
-0.3045188287 0.0216274214 -0.0487747622 0.0236044629 0.0362743150 -0.4720892557
-0.1231116070 0.6759299201 0.2030204614 0.0242156295 0.0364082113 -0.4719017958
0.2074501002 0.5088767795 -0.1476242158 0.0237279721 0.0373035605 -0.4731258851
0.2643492481 0.5621888506 -0.0556722953 0.0244663093 0.0380285594 -0.4721511808
-0.2941779061 0.4461962261 0.0238240966 0.0234593119 0.0373317206 -0.4710884408
-0.1583905878 0.5912062807 0.0338914995 0.0236346930 0.0375104541 -0.4710777749
-0.3728083103 0.3799877853 -0.0087085035 0.0228759353 0.0375546073 -0.4715548307
-0.1048401594 0.3624255093 0.0657340672 0.0236293098 0.0373448049 -0.4710581567
0.0333990300 0.2694582818 0.0688483207 0.0237495215 0.0372389111 -0.4710548685
-0.3885704990 0.3704271512 0.3494718892 0.0246036015 0.0369181013 -0.4716901389
0.3014115030 0.4480909981 -0.1476242480 0.0237279721 0.0373035605 -0.4731258851
-0.0625791146 0.7753916143 0.4280778704 0.0239996861 0.0364204912 -0.4716191909
0.4327325003 0.4153275862 0.3271662613 0.0245199227 0.0376890229 -0.4726359119
-0.4530055218 0.3974671776 0.3453408100 0.0228173356 0.0376538055 -0.4724395006
0.3053818113 0.5440177507 -0.0783281277 0.0245955998 0.0378708549 -0.4720892557
-0.2988449848 0.4093395710 -0.1476242480 0.0237279721 0.0373035605 -0.4731258851
-0.1874718588 0.0129542209 -0.0074116407 0.0236263762 0.0363553349 -0.4716828731
0.3802964765 0.3652889576 -0.0266573645 0.0247098343 0.0376346019 -0.4721202250
0.4013934100 0.5193941645 0.3735611852 0.0245674947 0.0378166019 -0.4724157369
0.0626721179 0.0009093355 -0.0575647577 0.0237613930 0.0362675085 -0.4720803780
-0.3652694944 0.4335003633 -0.1168443135 0.0227918781 0.0377356038 -0.4719812451
-0.1557963408 0.7732164900 0.4665944999 0.0238032832 0.0371042074 -0.4710747676
0.1670085350 0.6598100289 -0.0655417869 0.0242942496 0.0381718527 -0.4720892557
-0.1763589997 0.4759400370 0.0480412941 0.0235568266 0.0374094875 -0.4710723533
0.3528923900 0.4647315768 0.0147397015 0.0246553397 0.0377597324 -0.4721698588
0.3745879604 0.0514943217 -0.3694941749 0.0226916837 0.0373035605 -0.4721158276
0.1266861240 0.6760539943 0.0167005908 0.0239779708 0.0379212051 -0.4712951416
0.1005371407 0.6619208708 0.0212413179 0.0237652804 0.0376129986 -0.4711005911
-0.2441723366 0.0718247548 0.0078952200 0.0235852178 0.0370298427 -0.4710996602
-0.2804872668 0.5422465470 -0.0926357834 0.0229077390 0.0379373765 -0.4720990674
0.1679591469 0.6136033984 -0.0820237458 0.0230641436 0.0365152640 -0.4719773598
-0.4138743421 0.3717046840 0.2364536582 0.0227544423 0.0376223811 -0.4722479834
0.1076264803 0.4213820359 0.0643073728 0.0237832638 0.0373861094 -0.4710573989
-0.0760486222 0.0022149650 -0.0767406303 0.0236955930 0.0362674411 -0.4720922909
0.2649862278 0.1970484606 0.0292425482 0.0239318024 0.0371800275 -0.4710803986
0.3970181372 0.4023463715 0.1886967028 0.0246851356 0.0376810056 -0.4722156416
-0.4059209450 0.3032117235 0.0249568973 0.0227175393 0.0375247710 -0.4721577593
0.2380853969 0.5295043065 0.0340430329 0.0239009119 0.0374481071 -0.4710774266
-0.2963195607 0.5213057973 -0.1218260694 0.0229077390 0.0379373765 -0.4720990674
-0.3425965161 0.4852201612 0.0303233723 0.0228032458 0.0377672148 -0.4721563940
0.3984684938 0.0655783452 -0.1486608774 0.0237279721 0.0373035605 -0.4710526263
0.0050363329 0.7001959314 0.1283179104 0.0237659075 0.0362793157 -0.4719340671
-0.4481611898 0.1561392293 0.1950856023 0.0227205414 0.0373821547 -0.4723205723
-0.1989205423 0.4623529404 0.0456594959 0.0235568266 0.0374094875 -0.4710723544
-0.3775120225 0.1999262082 0.0893473139 0.0247569532 0.0372428348 -0.4719792113
-0.1379467837 0.4242307101 0.0581825028 0.0235947538 0.0373855413 -0.4710644957
-0.0929809343 0.6916173544 -0.0174225430 0.0234582546 0.0383044667 -0.4720955771
0.3215136600 0.1641790150 0.0114147241 0.0240241941 0.0371874902 -0.4711026551
0.3751475278 0.0600617632 -0.3913169128 0.0226916837 0.0373035605 -0.4721158276
-0.0067802929 0.6955009818 0.1027666787 0.0238037839 0.0362800973 -0.4719430464
0.3618959881 0.3027925230 0.0673246962 0.0227167121 0.0370869319 -0.4720183596
0.0228122437 0.8549190098 0.4710772390 0.0238704381 0.0374235328 -0.4710694953
-0.0436898430 0.6895065136 0.0923784298 0.0238839599 0.0362896395 -0.4719401500
0.0484295284 0.5264361768 -0.1476242480 0.0237279721 0.0373035605 -0.4731258851
-0.2279029676 0.6320160982 0.0120296215 0.0230171397 0.0380538833 -0.4721688450
0.2619003510 0.6003424006 -0.0671570919 0.0245124787 0.0379810891 -0.4720995214
-0.3775831384 0.0397422364 -0.2785275479 0.0236368648 0.0362710154 -0.4721015201
-0.0355403850 0.4882923400 0.0604824611 0.0236919658 0.0374472000 -0.4710632579
0.2157869819 0.6442990559 -0.1465017597 0.0241975403 0.0378670422 -0.4728217816
0.1263969759 0.5874543840 -0.1476242480 0.0237279721 0.0373035605 -0.4731258851
-0.1311693856 0.7145862509 0.1115546186 0.0232562891 0.0382132339 -0.4722461319
0.0061140108 0.3003094587 0.0710984223 0.0237486964 0.0372828362 -0.4710530409
0.4030305112 0.0748652625 -0.3722749447 0.0237279721 0.0383401049 -0.4721025442
0.2848428156 0.0495841941 -0.1476242158 0.0237279721 0.0373035605 -0.4731258851
0.1337591709 0.4382371025 0.0600115359 0.0238439450 0.0373857082 -0.4710624141
-0.4165470610 0.3571679240 0.2236477666 0.0227544423 0.0376223811 -0.4722479834
0.2706581426 0.5153484373 0.0539844190 0.0228557386 0.0367499880 -0.4720034280
0.3130812073 0.4387936015 0.0450708231 0.0228042026 0.0368386872 -0.4720175323
-0.4096047631 0.2454577856 0.2952782011 0.0246708798 0.0370859668 -0.4717175328
0.1000328008 0.6715952345 0.0573590956 0.0233536867 0.0363470522 -0.4719492454
-0.1636349178 0.1259101151 0.0342892832 0.0235772887 0.0370595981 -0.4710930745
-0.3470565406 0.4680703466 -0.0250606618 0.0228067506 0.0377732024 -0.4721626553
-0.4066474211 0.1958947014 0.2617923000 0.0246992980 0.0371653198 -0.4717545664
0.3678835286 0.1836112057 -0.0683758779 0.0227017473 0.0372327867 -0.4719609780
0.2049260994 0.6472326716 0.3247450765 0.0230172144 0.0365743259 -0.4718952443
-0.3006954036 0.5589434054 0.0624275967 0.0229389333 0.0379679736 -0.4721920842
0.1270761330 0.3497422053 0.0642757380 0.0238704858 0.0372830290 -0.4710626743
0.1915586635 0.1241109370 0.0311836026 0.0238744323 0.0370983556 -0.4710837500
-0.3785202431 0.4381507067 0.3904316583 0.0243533519 0.0368663030 -0.4713876100
-0.0522925890 0.2597365276 0.0668609839 0.0236877177 0.0372375770 -0.4710555123
0.4286736131 0.1605556760 0.0451543091 0.0247589529 0.0373549794 -0.4721843032
0.4338896607 0.3669435850 0.3796580900 0.0238725643 0.0370843404 -0.4710864411
-0.0035128982 0.7417743629 0.0706558427 0.0236619813 0.0383264131 -0.4722442339
0.0080734238 0.3792471053 -0.1476242480 0.0237279721 0.0373035605 -0.4731258851
-0.0583861559 0.0985358245 0.0382996106 0.0236484191 0.0370385172 -0.4710902445
-0.4050742551 0.3582401429 0.1482266499 0.0227431534 0.0376081243 -0.4721986802
-0.3607144058 0.4384590884 -0.0506557408 0.0227679351 0.0376945751 -0.4720831935
0.4026298808 0.3828091589 0.1761160552 0.0247060900 0.0376221727 -0.4722172100
0.4350310353 0.2968340704 0.2294901955 0.0247250541 0.0375300869 -0.4722598818
0.3187458460 0.5242032221 -0.0978662578 0.0246243186 0.0378157581 -0.4719953526
0.3886114666 0.4608732255 0.3010141464 0.0245760521 0.0377513461 -0.4724827644
0.0509387365 0.5736908884 -0.1476242801 0.0237279721 0.0373035605 -0.4731258851
0.2277665876 0.1635596642 -0.1476242480 0.0237279721 0.0373035605 -0.4731258851
0.3781753222 0.2139601231 0.0784854186 0.0227090887 0.0371456000 -0.4719818972
-0.1083634119 0.5113712001 0.0524066981 0.0236166329 0.0374632751 -0.4710710731
0.4538829291 0.3755632561 0.3280020054 0.0246125010 0.0376971988 -0.4724597388
-0.1733710657 0.0514177718 0.0113237080 0.0235879214 0.0369003563 -0.4711445795
-0.2600819786 0.6123210889 0.0962063788 0.0229999182 0.0380343158 -0.4721918913
0.0485355818 0.4883736429 -0.1476242480 0.0237279721 0.0373035605 -0.4731258851
-0.3613297148 0.1515367502 -0.1162794946 0.0243930041 0.0365176140 -0.4722101702
0.0603761703 0.0319430461 0.0115710654 0.0237279721 0.0367942427 -0.4711863743
0.4300872729 0.3343912133 0.2617707246 0.0247095316 0.0375884056 -0.4722624723
-0.3175926403 0.4537699982 0.0173255166 0.0234593119 0.0373317206 -0.4710884408
0.4058503660 0.2592943274 -0.0248156773 0.0247540548 0.0374506582 -0.4721000480
0.4133047153 0.0745886193 -0.2447986069 0.0247645165 0.0373035605 -0.4721025442
0.2810500612 0.5089523249 0.1216832043 0.0228385845 0.0367760851 -0.4720160417
0.2167030015 0.6806861158 0.2026613989 0.0243899408 0.0380824227 -0.4722617996
0.1872532254 0.0072952339 -0.0144342607 0.0238321253 0.0363810630 -0.4716280064
-0.0488413864 0.4552440188 -0.1476242480 0.0237279721 0.0373035605 -0.4731258851
0.3739271278 0.3393761962 0.2670454880 0.0227615432 0.0369744908 -0.4719094544
0.1547936403 0.1571302719 -0.1476242480 0.0237279721 0.0373035605 -0.4731258851
-0.1721180026 0.5334587336 -0.2112262779 0.0237279721 0.0362786875 -0.4722449326
-0.4103229825 0.1819927691 -0.0696606556 0.0226976827 0.0374180376 -0.4720892557
-0.1085432588 0.6739680813 0.1532893293 0.0242287885 0.0364111387 -0.4719238252
-0.1631635500 0.5101003422 -0.1476242480 0.0237279721 0.0373035605 -0.4731258851
-0.0811969147 0.6397054670 -0.1476242480 0.0237279721 0.0373035605 -0.4731258851
0.0812587061 0.2935550592 -0.1476242480 0.0237279721 0.0373035605 -0.4731258851
-0.3643959143 0.4558020365 0.3864093412 0.0245066176 0.0367862410 -0.4716412680
0.0818684193 0.1287226069 -0.1476242480 0.0237279721 0.0373035605 -0.4731258851
0.1509001908 0.3910715401 0.0602451953 0.0238672909 0.0373245201 -0.4710622452
-0.3467255707 0.2928736485 -0.0942912339 0.0247483212 0.0371213553 -0.4720722498
-0.2770737425 0.6414266232 0.4464763342 0.0240514575 0.0368680995 -0.4712058919
0.3249213957 0.4223178116 0.0982725512 0.0227629230 0.0369323881 -0.4720150216
0.0551490038 0.0527474387 -0.1476242480 0.0237279721 0.0373035605 -0.4731258851
-0.3142323263 0.5344139970 0.0379040089 0.0228654767 0.0378739907 -0.4721621266
0.3384345288 0.5045245044 0.0775805821 0.0246044329 0.0378508480 -0.4721722835
-0.1028521022 0.0031790864 -0.0696970361 0.0236554101 0.0362695600 -0.4720759340
-0.0908652203 0.7662213925 0.4305749179 0.0241156362 0.0364636212 -0.4716214746
-0.3606378165 0.0307251216 -0.0332395560 0.0235467848 0.0362830797 -0.4721090408
-0.2058370738 0.5716593881 -0.0908610686 0.0244607893 0.0365707433 -0.4720656164
-0.1508377266 0.7020388211 0.1014281206 0.0232001888 0.0381831986 -0.4722385272
-0.1958244153 0.7674970593 0.4646919459 0.0235634300 0.0374107045 -0.4710713913
-0.3535629659 0.4204937129 0.3112792697 0.0246291223 0.0368900957 -0.4717866428
0.1490999687 0.4787767216 0.0540446534 0.0238409367 0.0374288030 -0.4710664394
0.0670093183 0.7004430669 -0.0309817045 0.0238595535 0.0383317632 -0.4720799084
-0.0515326744 0.7591859918 0.1888223589 0.0235497983 0.0382947669 -0.4723349472
0.3247713488 0.4034799320 0.0034294381 0.0227635729 0.0369337337 -0.4720011515
0.2126275687 0.5610090709 -0.3956693134 0.0237279721 0.0362778790 -0.4722395151
0.2150038312 0.7869251926 0.4285470873 0.0244289855 0.0380240460 -0.4723423996
-0.0055551597 0.8051223285 0.3269376638 0.0236660998 0.0382935084 -0.4723905448
0.1135684101 0.6889715579 -0.1064383486 0.0240328303 0.0382943492 -0.4720892557
-0.3827192442 0.2247850989 -0.1510847202 0.0240072711 0.0372636607 -0.4730867524
-0.2584588916 0.5707827707 -0.0907641376 0.0229077390 0.0379373765 -0.4720990674
-0.1432431701 0.6331195415 -0.0111692326 0.0243087810 0.0364517082 -0.4719815115
-0.3802457024 0.3539511395 -0.0947695606 0.0227166571 0.0375260502 -0.4720408627
0.3386681882 0.4612748054 -0.1246828117 0.0246654562 0.0377447293 -0.4720561675
0.1915821691 0.5895091670 -0.4354585330 0.0227063396 0.0373035605 -0.4722649499
0.0557043593 0.1644595342 -0.1476242480 0.0237279721 0.0373035605 -0.4731258851
-0.0332270884 0.6791980488 -0.0026889156 0.0238910639 0.0362842345 -0.4719945181
0.4037501538 0.3644268924 0.1384962273 0.0247159255 0.0376032180 -0.4721828167
-0.0603527404 0.3733833540 0.0691362030 0.0236481412 0.0373242278 -0.4710559114
-0.2362999261 0.4076470122 0.0410407241 0.0234860508 0.0373035605 -0.4710812507
-0.4032594570 0.2364990776 -0.0488182291 0.0227275511 0.0375179365 -0.4722559924
0.1828177027 0.7033610554 0.4112115729 0.0231045348 0.0365820260 -0.4716826668
0.2115176081 0.5954306856 -0.3977327574 0.0237279721 0.0383310396 -0.4719518225
0.1735772503 0.3681512676 0.0571315741 0.0239061054 0.0373243968 -0.4710682587
-0.4137767155 0.2466536682 -0.1119501559 0.0227026720 0.0374402671 -0.4720209024
0.3697249317 0.4212827008 -0.0207653629 0.0246890354 0.0376858663 -0.4721585440
-0.3855336257 0.0755966771 -0.3152243972 0.0237279721 0.0383401049 -0.4721025442
-0.3155781916 0.4991226617 0.3196093189 0.0245888462 0.0367870361 -0.4718309940
0.2166983035 0.5505479977 -0.2967075368 0.0247620980 0.0373035605 -0.4720172597
0.0166850672 0.0002515962 -0.1298208779 0.0237381342 0.0362669850 -0.4720921935
0.0368553650 0.0002487050 -0.0590232456 0.0237381342 0.0362669850 -0.4720921935
-0.3647323887 0.2009011965 -0.0451351698 0.0247575814 0.0372300169 -0.4719938785
0.2014182854 0.6631307355 0.0325103597 0.0243750828 0.0381080762 -0.4721820029
-0.0211220682 0.7384891516 0.0564714692 0.0236619813 0.0383264131 -0.4722442339
0.2277249234 0.0588856231 0.0091664262 0.0238708611 0.0369786114 -0.4711152988
0.0252202540 0.4642973172 -0.1476242480 0.0237279721 0.0373035605 -0.4731258851
-0.2045401477 0.4860971891 -0.1476242480 0.0237279721 0.0373035605 -0.4731258851
-0.2995629191 0.4652669430 0.0594812004 0.0246391818 0.0368155413 -0.4720109352
-0.4365120791 0.2278047154 0.1727605501 0.0227213075 0.0374754306 -0.4722672636
0.3436808833 0.3751990063 0.1023933180 0.0227685933 0.0369204949 -0.4720029231
-0.3904787161 0.3102781267 -0.0774365777 0.0227039128 0.0374581354 -0.4720444173
-0.4063450176 0.2198243969 0.2741469437 0.0246671573 0.0371106925 -0.4716951333
0.4015568699 0.3290443524 0.3416748976 0.0228606056 0.0369328909 -0.4716592794
0.3958739150 0.2572053304 -0.0053202864 0.0240668410 0.0372659081 -0.4711103012
-0.3817068471 0.1691478794 0.1112698368 0.0247557829 0.0372395279 -0.4719704932
0.3070373240 0.0803750059 -0.1476242480 0.0237279721 0.0373035605 -0.4731258851
0.1773839235 0.5078515074 0.0467009965 0.0238802923 0.0374281862 -0.4710714795
-0.2797541790 0.6495106119 0.3383713369 0.0230214594 0.0379566402 -0.4724751659
