0.1251003816 1.3425594246 0.0977683806 -0.0964398474 0.0562114604 0.0570941614
-0.2484069343 1.3197773029 0.2403598147 -0.0964784415 0.0545607951 0.0570895308
0.1833525676 1.3428808163 0.1300651053 -0.0964363209 0.0562114100 0.0570939203
0.4229450069 0.5716931469 -0.0605356256 -0.0969270519 0.0557409440 0.0565229207
0.4446930900 0.9052807889 0.0335954402 -0.0965843819 0.0557071680 0.0578408198
0.3782951383 2.0069901762 -0.4349187041 -0.0966458358 0.0556554452 0.0578469097
-0.2780293171 1.3429013818 0.0342958331 -0.0964736680 0.0562106255 0.0570929458
-0.3763193798 1.9172216578 -0.4335868637 -0.0966406478 0.0551341500 0.0563310396
-0.1754596167 1.9234954516 -0.4518696004 -0.0963537895 0.0556239544 0.0578749038
0.0216006184 1.3368422191 0.4568278100 -0.0964494108 0.0561753712 0.0573280144
0.0967751969 2.0193226282 -0.5124491811 -0.0963787428 0.0551656310 0.0563016489
0.1917048230 1.3422720063 -0.1134900653 -0.0964361368 0.0562114076 0.0570938782
0.4482209391 0.5108513523 -0.0928770986 -0.0956979518 0.0555874159 0.0568279438
-0.3899368452 0.6083189576 -0.0449576505 -0.0956795293 0.0555445950 0.0568425756
0.4154327262 1.9999584708 -0.4442760137 -0.0961841545 0.0551556852 0.0563455598
0.2294875380 1.3429014826 0.3597510314 -0.0963999005 0.0562089762 0.0570960799
0.2688677858 1.3197773029 0.2499085942 -0.0964138344 0.0545608306 0.0570909893
0.3756546443 1.9422740875 -0.4131254068 -0.0966461571 0.0556401710 0.0578517500
0.2896279768 1.3138113921 0.4607967914 -0.0964072127 0.0545865933 0.0568968007
-0.3888583480 1.9907836828 -0.4320261271 -0.0963234251 0.0556679612 0.0578585972
-0.0595153322 1.9026620456 -0.4764982128 -0.0964740148 0.0550927043 0.0563239587
0.4297359716 0.0237289726 -0.4002964503 -0.0972613955 0.0553062906 0.0570995659
-0.4541491964 0.3232226123 0.2657389918 -0.0961135501 0.0556704775 0.0577892176
-0.0741805751 1.3499019366 -0.2767306569 -0.0964637659 0.0561730976 0.0573394617
-0.3917473458 0.2994161558 -0.2372982635 -0.0956609128 0.0552575335 0.0572789724
-0.2014319718 2.0293135987 -0.4839338256 -0.0963485618 0.0556870996 0.0578532068
0.0132486784 1.3419797494 0.0499216569 -0.0964465996 0.0562115562 0.0570946256
0.0156281296 1.3197774037 0.0598287944 -0.0964459067 0.0545598735 0.0570891757
0.1864898428 1.9261948203 -0.4708187614 -0.0963358328 0.0551312438 0.0563187954
0.3469325216 1.3429013818 0.3340462656 -0.0963752767 0.0562076136 0.0570968290
-0.1301196892 1.3197773029 -0.1031999575 -0.0964641747 0.0545603574 0.0570895160
-0.2146390838 1.9660784529 -0.4984117792 -0.0964103964 0.0545660451 0.0571527834
-0.3500684861 1.3017977105 0.4780239915 -0.0964830489 0.0546209739 0.0567835249
-0.3057591633 1.3197773029 -0.0911965215 -0.0964856826 0.0545609842 0.0570902502
-0.0226841309 1.3425103280 0.2187906377 -0.0964485313 0.0562115356 0.0570944753
0.0734589932 2.0173966971 -0.5132042195 -0.0963948636 0.0551552120 0.0563034971
-0.0756700045 1.3435163411 -0.2570337151 -0.0964601966 0.0561999669 0.0572246473
0.4651457250 0.8487370049 0.0475350042 -0.0957011487 0.0555414493 0.0573905791
-0.1028729207 1.3197773029 -0.0733484523 -0.0964607606 0.0545602583 0.0570894334
0.4135789770 1.6458652660 -0.2958312138 -0.0969992147 0.0556178224 0.0576592569
-0.1698931967 1.3428396843 0.1026418694 -0.0964574935 0.0562114076 0.0570934504
-0.2147827670 1.3423200945 -0.1847546371 -0.0964605533 0.0562113638 0.0570930705
-0.3190637046 1.3121163228 0.4526293271 -0.0964810429 0.0545925420 0.0568708373
0.2056000779 1.3424463123 -0.0687943772 -0.0964352482 0.0562113952 0.0570938212
-0.0344506946 1.3423472124 0.1325476502 -0.0964493481 0.0562115240 0.0570943720
-0.1353485819 1.9607775047 -0.4908616931 -0.0965193802 0.0551526526 0.0563075653
0.4418439127 1.5524319941 -0.2633105836 -0.0956414324 0.0554807816 0.0572445489
-0.3462600230 2.0558556403 -0.4878028763 -0.0968607964 0.0560052969 0.0568117867
-0.1739029640 1.3429013818 0.1883498673 -0.0964648065 0.0562108914 0.0570936279
-0.4506726101 0.7802401773 0.0524427769 -0.0972631059 0.0554478166 0.0571261949
-0.1497636727 1.3163487544 0.4426547392 -0.0964610241 0.0545806719 0.0569150398
0.0055907350 1.3414659059 -0.1576967848 -0.0964473264 0.0562115529 0.0570945636
-0.0757792327 1.3197773029 0.2062460247 -0.0964566999 0.0545601386 0.0570896671
-0.1166252886 1.8770658309 -0.4418518141 -0.0963810115 0.0555995841 0.0578854517
0.0375480733 1.9181654695 -0.4817526857 -0.0964202225 0.0550644590 0.0563371485
-0.3569979673 1.3197773029 0.2342543163 -0.0964922556 0.0545612155 0.0570893260
0.0524589311 1.3419980975 -0.0033499907 -0.0964443235 0.0562115240 0.0570944604
-0.3730076236 1.6344259155 -0.3124829481 -0.0957521084 0.0555256258 0.0575006150
0.4196770030 1.7468289645 -0.3689658422 -0.0964747614 0.0550519233 0.0563437619
-0.3754672336 1.3429013818 0.1497572463 -0.0965092815 0.0562083998 0.0570930763
-0.1216269583 1.3197773029 0.2893447048 -0.0964623215 0.0545603095 0.0570896654
-0.3128954118 1.3046841877 -0.1679785250 -0.0964620514 0.0546386638 0.0574231254
-0.4288299148 0.8223930599 0.0149761565 -0.0963165597 0.0550595609 0.0563511245
-0.1955591800 0.2297122694 0.3523826601 -0.0964615204 0.0549459878 0.0577908181
0.4754709912 0.4608766426 0.2222173214 -0.0958365212 0.0556245705 0.0575912944
0.4390784116 1.9796964723 -0.4295145738 -0.0956264802 0.0554250592 0.0571253946
-0.4773431637 0.0298173683 0.3565770352 -0.0964422960 0.0551110243 0.0563197402
-0.3932875407 0.2197764440 -0.2859351345 -0.0957077076 0.0551844614 0.0573919409
-0.0568503383 1.9025412719 -0.4543513641 -0.0964168992 0.0556217270 0.0578805436
0.4211171665 1.5214052860 -0.2677450701 -0.0968037849 0.0550810596 0.0564235367
0.3300914101 2.0511575542 -0.4631601004 -0.0966313957 0.0556877058 0.0578379177
0.2276579081 1.3627048826 -0.3317542573 -0.0964228256 0.0554718681 0.0562820479
-0.3894395602 1.3429013818 0.2651934304 -0.0965247945 0.0562073278 0.0570933884
-0.4299642120 0.6394214268 0.1229898614 -0.0958306493 0.0555714016 0.0576006333
0.0948458757 1.9178912576 -0.4559120503 -0.0965107871 0.0556327366 0.0578747890
0.0244527563 1.3427961334 0.3420869580 -0.0964455516 0.0562115414 0.0570945884
0.2092343862 1.3146731415 0.4561377446 -0.0964169983 0.0545855536 0.0568973904
0.2106200859 2.0006583144 -0.5029989217 -0.0964037358 0.0561928926 0.0569487721
-0.0765693387 1.3197773029 0.3438935266 -0.0964565983 0.0545601410 0.0570896200
-0.3083913401 1.3429014826 0.2583225208 -0.0965045551 0.0562084997 0.0570935437
-0.4611159529 0.0946616305 0.3611275566 -0.0959088772 0.0556179685 0.0576662916
-0.1488053853 1.3197773029 0.0623199654 -0.0964660222 0.0545604103 0.0570898067
0.4539600712 0.8868560068 0.0409459812 -0.0961796544 0.0557038795 0.0578021134
-0.0425209635 1.3197773029 0.0007219465 -0.0964531759 0.0545600378 0.0570892616
0.0360531297 1.3419482956 0.0029466630 -0.0964452964 0.0562115372 0.0570945289
0.3706856233 1.3427690146 -0.2000826715 -0.0964255435 0.0562112573 0.0570931308
0.4708448343 0.6957299134 0.1130365955 -0.0956762069 0.0555157023 0.0573292549
0.1543289886 1.3113945014 0.4654514026 -0.0964221897 0.0546017503 0.0568386288
0.0234340663 1.9355099401 -0.4656180215 -0.0964667448 0.0556874118 0.0578556101
-0.0370550597 1.3427787928 0.3034949415 -0.0964492820 0.0562115248 0.0570944009
0.1330857529 1.2988323975 0.4948179984 -0.0964223391 0.0546430210 0.0567336892
-0.1236088339 1.9013714379 -0.4717447288 -0.0965142772 0.0551061022 0.0563211193
-0.3264338399 1.9080525153 -0.4418663311 -0.0966032165 0.0550832548 0.0563425372
0.3027084110 1.3197773029 -0.1353185334 -0.0964115278 0.0545608736 0.0570916426
-0.2189847276 1.3197772021 0.3399309712 -0.0964747152 0.0545606919 0.0570893401
0.4762338430 0.4915402721 0.1860618289 -0.0957568083 0.0552269239 0.0566748038
0.2110580171 0.2282794651 0.3595995844 -0.0964605864 0.0550791643 0.0578531449
-0.2913501525 1.3108010153 0.4021722772 -0.0965451090 0.0557878537 0.0578041268
0.0468256272 1.3423676781 0.1453500050 -0.0964444681 0.0562115257 0.0570944885
-0.3883521405 0.7066985171 0.0227849598 -0.0956403827 0.0554733200 0.0569509978
0.3686067587 1.3247883131 -0.2603224365 -0.0963981472 0.0545804580 0.0569204261
0.3912514210 1.2525261710 0.3754801752 -0.0965707619 0.0556084728 0.0563186864
0.0099627550 1.3417320517 -0.0420571791 -0.0964469151 0.0562115587 0.0570946247
-0.2340042496 1.3209275788 -0.2457091913 -0.0964763933 0.0545641696 0.0570284329
-0.2387686332 1.3197773029 -0.0732131483 -0.0964773943 0.0545607414 0.0570900313
0.4078484643 1.2379923670 0.3976400279 -0.0959331806 0.0553743679 0.0577294947
-0.2823968131 1.3422880354 0.4185990729 -0.0965040728 0.0562057116 0.0571280770
0.2327394376 1.3197773029 -0.1151761996 -0.0964199788 0.0545606283 0.0570909984
-0.0592240489 1.3197773029 0.2032555585 -0.0964546815 0.0545600799 0.0570895911
0.4247247599 0.7300723600 0.0783305301 -0.0965105137 0.0549365688 0.0577783955
0.3830202432 0.2494027967 0.3436568682 -0.0964147701 0.0561739168 0.0568598071
0.2884767933 1.9103716177 -0.4476921125 -0.0962738313 0.0550635588 0.0563558814
-0.3167023372 1.3429013818 0.2939311668 -0.0965103040 0.0562081140 0.0570936312
-0.2515866133 1.3429013818 0.2150288769 -0.0964863202 0.0562096146 0.0570935387
0.4276469249 0.2331562169 -0.2676294877 -0.0972650640 0.0553943744 0.0570350802
-0.1713201158 1.3429013818 0.3004004872 -0.0964759763 0.0562100738 0.0570939657
0.4681082160 0.7331094022 0.1000557080 -0.0957518325 0.0555809915 0.0574848378
0.1886169715 1.3421662533 -0.1488036184 -0.0964363672 0.0562114109 0.0570938897
0.0340606872 1.3115677990 0.4620536016 -0.0964366034 0.0546058053 0.0568257454
-0.4221526421 0.3821675106 -0.1935921298 -0.0972398951 0.0555141018 0.0569073808
0.1026140450 1.3197773029 -0.1646309793 -0.0964359262 0.0545601650 0.0570896630
-0.0674669407 1.3388515223 -0.3140243785 -0.0964516142 0.0546241444 0.0567745801
-0.3062056637 1.3429013818 0.2762009098 -0.0965059104 0.0562083940 0.0570936015
-0.1793703791 1.8627761948 -0.4531056683 -0.0965441964 0.0550742868 0.0563354579
0.2213814434 1.3425245427 -0.0633309559 -0.0964342968 0.0562113811 0.0570937559
0.0960421223 1.9137133667 -0.4767130949 -0.0963867859 0.0550974794 0.0563241304
-0.1883782715 1.3250218969 0.4838520151 -0.0964790650 0.0561212468 0.0574644473
0.1257606814 1.3388479942 -0.3097028540 -0.0964244145 0.0546252634 0.0567728053
0.3005557765 1.3428789003 -0.0507487391 -0.0964295448 0.0562113142 0.0570934272
0.4023726057 0.2229818303 0.3376072069 -0.0962867271 0.0548336295 0.0565288264
-0.0814826076 1.3197773029 -0.2017929391 -0.0964584837 0.0545601931 0.0570891774
-0.0073280454 1.3197773029 0.1583625163 -0.0964484487 0.0545598991 0.0570893062
-0.4135210090 0.2932784340 -0.2271359873 -0.0967099325 0.0549575861 0.0577471986
-0.2317569393 1.3425852327 -0.1058628067 -0.0964614667 0.0562113514 0.0570929771
-0.4230799706 1.2399867502 -0.1528199571 -0.0972203899 0.0553253787 0.0568505509
0.3575986863 1.9098300501 -0.4066099143 -0.0966424358 0.0556247084 0.0578574138
0.4663313361 0.0715753280 0.3952005053 -0.0968884058 0.0556606630 0.0577269758
0.1406435005 1.3424188905 0.0206628556 -0.0964390174 0.0562114480 0.0570940945
0.3208948971 1.2779400152 0.5312251957 -0.0963959909 0.0546688647 0.0566864773
0.4459711966 1.0720690156 -0.0733394925 -0.0962513250 0.0550731809 0.0563569650
-0.4171004248 0.8325731045 0.0361244439 -0.0957099532 0.0554957677 0.0574399308
0.3563919050 1.3197774037 -0.0974171861 -0.0964047987 0.0545610726 0.0570920976
0.2061171480 1.3197773029 0.2729829093 -0.0964216363 0.0545605961 0.0570906986
-0.2820099935 2.0639418499 -0.5040614401 -0.0965008503 0.0558882527 0.0567026741
0.2203468754 1.3298195866 0.4815404240 -0.0964263892 0.0561447623 0.0574129169
-0.3690558548 1.3429013818 0.2936657008 -0.0965228826 0.0562073922 0.0570935173
0.4544627251 0.7385718523 0.0704975110 -0.0963940369 0.0550620979 0.0563413942
-0.1760284475 1.9579089718 -0.4633583993 -0.0963556633 0.0556459446 0.0578676900
-0.4031560230 0.6221606307 -0.0487104391 -0.0963434233 0.0558337757 0.0564090387
0.4334940779 0.3638063403 -0.1984866261 -0.0967478337 0.0557966252 0.0564470902
-0.1207873561 2.0085741500 -0.5080505089 -0.0965126469 0.0551816007 0.0562978540
-0.3002395770 1.3015746110 0.3762998858 -0.0963466615 0.0550654922 0.0563462635
-0.3893859272 1.3429012811 0.3252851385 -0.0965311057 0.0562068711 0.0570935668
-0.4021106685 1.3735862326 -0.1895207724 -0.0964675294 0.0557168925 0.0578455082
0.1615530458 1.3197773029 -0.0306274317 -0.0964284084 0.0545603830 0.0570904434
-0.1571936400 1.3427538923 0.0893547564 -0.0964567511 0.0562114183 0.0570935330
-0.3004011045 1.3223737414 0.4865345982 -0.0964939016 0.0561091190 0.0574859841
0.0937327742 1.3424038697 0.0870100350 -0.0964417378 0.0562114868 0.0570942919
0.4404750746 0.7122261944 0.0566346835 -0.0957185454 0.0551931454 0.0574296043
0.4109718023 1.3134994772 -0.1582889355 -0.0964035566 0.0560451760 0.0575813519
0.1248139461 1.3197773029 0.2724354187 -0.0964319241 0.0545602839 0.0570903889
-0.0434563754 1.3419755152 -0.0338359373 -0.0964501021 0.0562115133 0.0570942663
-0.4001041120 1.8761363346 -0.4129367854 -0.0972483874 0.0554422792 0.0572783918
-0.1514009517 1.3427862536 0.1123478283 -0.0964563745 0.0562114241 0.0570935775
0.3533662044 1.3561270369 -0.2870192525 -0.0964091535 0.0561782055 0.0573210276
-0.1325959081 1.3426840287 0.1027186265 -0.0964552612 0.0562114398 0.0570937023
-0.3921396590 1.0781482401 0.2833218097 -0.0959961929 0.0550101455 0.0576660356
0.1207899460 1.3197774037 0.2464590383 -0.0964325856 0.0545602616 0.0570904310
0.0822512090 1.3197773029 0.3742589265 -0.0964367116 0.0545601485 0.0570899991
0.0844091861 1.3361280600 -0.3032172775 -0.0964307026 0.0546169676 0.0567933931
0.1121875615 1.3311855020 -0.2885892379 -0.0964284612 0.0546043716 0.0568279257
0.4225045551 1.4329594343 -0.1998635039 -0.0968780429 0.0556545178 0.0577333209
-0.2804797031 1.3309251017 0.4675670890 -0.0964884088 0.0561502774 0.0573984297
0.0225029703 1.3421237108 0.0902957197 -0.0964459942 0.0562115471 0.0570945884
-0.3691426807 1.3197773029 0.1644392963 -0.0964937884 0.0545612551 0.0570894772
-0.1668433578 1.9994737620 -0.4785641725 -0.0963624057 0.0556743261 0.0578587789
-0.1294273436 1.3442253584 -0.3278119908 -0.0964607193 0.0546582284 0.0567044439
0.4085663539 1.8688933255 -0.3789510152 -0.0966548526 0.0556395986 0.0578502932
0.1512208746 1.3425757560 0.0638329037 -0.0964383286 0.0562114389 0.0570940524
0.0499233585 1.8899063800 -0.4487838159 -0.0964823957 0.0556335286 0.0578776110
0.2868997509 1.3429013818 0.2718100007 -0.0963965500 0.0562089267 0.0570958404
0.4586021062 0.2721326844 -0.2380234866 -0.0956318557 0.0553682946 0.0571655488
-0.3195494721 1.3413509792 0.4278031219 -0.0964970489 0.0562021835 0.0571799608
-0.4195547675 0.6338171824 -0.0293112050 -0.0972015174 0.0555674267 0.0568255067
-0.3907993254 1.0552926260 0.2672802340 -0.0959065227 0.0550456889 0.0576095385
-0.4503189331 0.5201001869 0.1811849631 -0.0965011443 0.0557147874 0.0578416481
0.2359581690 1.3464645158 -0.3240383344 -0.0964033782 0.0546920837 0.0566539252
-0.4328868057 0.5852569288 0.1463641329 -0.0958252176 0.0555691107 0.0575957128
-0.4119908449 1.0846274906 0.2851272189 -0.0970271164 0.0550791569 0.0575862889
-0.3543447460 1.3197773029 -0.2247975541 -0.0964919451 0.0545611651 0.0570903484
0.0815829570 1.8424176178 -0.4310403782 -0.0965081856 0.0555889495 0.0578900988
0.0292759263 1.9611507141 -0.4739977483 -0.0964693347 0.0557032840 0.0578492402
-0.0116531236 1.9525112428 -0.4714057455 -0.0964496528 0.0556770597 0.0578619147
0.2551870860 1.3197773029 0.3397184576 -0.0964150385 0.0545608026 0.0570907374
-0.3333351684 1.3429012811 0.3890221057 -0.0965243155 0.0562071602 0.0570938773
0.4914597788 0.0893769006 0.3677960834 -0.0956615214 0.0553163339 0.0568481262
-0.4669022655 0.2944498057 0.2435201380 -0.0966802907 0.0550826123 0.0563727381
-0.4106563329 0.0458963712 -0.4241145258 -0.0964594698 0.0558454872 0.0564119251
0.3887789829 1.3041284062 -0.1572625080 -0.0964329589 0.0550287910 0.0578251119
-0.3441094052 1.3160929913 0.4393811905 -0.0964850805 0.0545759224 0.0569443149
0.4468599136 0.4337594622 0.2210018447 -0.0972677299 0.0553643147 0.0571024935
-0.3941288756 0.6613028342 -0.0188390669 -0.0958975497 0.0557145760 0.0565845109
0.3832269097 1.9629824864 -0.4596510016 -0.0958602836 0.0559400283 0.0569489695
0.3981928995 0.2445685751 0.3355746665 -0.0964108407 0.0559190746 0.0564728909
-0.2755171081 1.9086116242 -0.4529314638 -0.0965929106 0.0550693250 0.0563472157
0.4208552550 0.8318292557 0.1063058888 -0.0964642532 0.0558363317 0.0564012583
0.3761967165 1.3197773029 0.0371553781 -0.0964015043 0.0545611849 0.0570918738
-0.3944670529 1.6720204889 -0.3482205968 -0.0970601186 0.0551969534 0.0565787620
0.2108939188 1.3160007477 0.5083853588 -0.0964295084 0.0560773234 0.0575412118
-0.4550868828 0.2463570722 0.2669571154 -0.0960281496 0.0550837007 0.0564550218
-0.3946024196 1.7379971421 -0.3696113980 -0.0972570441 0.0553815298 0.0569609568
-0.2524723943 1.3197773029 -0.2211636744 -0.0964794655 0.0545608026 0.0570899049
-0.0399666769 1.3480599823 -0.3329361380 -0.0964468878 0.0546719674 0.0566827618
-0.4131065669 0.1702062339 -0.3076294079 -0.0966509876 0.0549521751 0.0577587747
-0.3194613619 1.2938862099 0.3754714046 -0.0962722333 0.0550775250 0.0563584102
0.1328110116 1.3432292259 -0.2478499302 -0.0964365233 0.0562028781 0.0571994834
0.4162325261 1.9993513745 -0.4208558467 -0.0966192126 0.0556653713 0.0578499092
0.1896327132 1.3429013818 0.4203089870 -0.0964022823 0.0562090142 0.0570962418
0.4377868963 0.6575844980 -0.0036381200 -0.0959944107 0.0557709062 0.0565304022
0.1001185712 1.3425430924 0.1299437270 -0.0964413001 0.0562114811 0.0570942663
-0.2329971654 1.3197773029 0.2869386271 -0.0964764891 0.0545607406 0.0570894449
0.1972701529 1.3500024470 -0.2711183479 -0.0964283167 0.0561770031 0.0573251503
-0.2033713553 1.3423443905 -0.1555047832 -0.0964598324 0.0562113745 0.0570931547
-0.3503689083 1.3197773029 -0.2010849797 -0.0964913959 0.0545611494 0.0570903616
-0.3460499539 1.3197773029 -0.0276576764 -0.0964908186 0.0545611461 0.0570900082
-0.1994739123 1.3197773029 0.0054701631 -0.0964723755 0.0545605953 0.0570899578
-0.2639399967 1.3165772971 0.4969574514 -0.0964906287 0.0560776992 0.0575384402
-0.4094144179 1.4482088097 -0.2471196907 -0.0971441465 0.0552466223 0.0566828923
-0.0292441199 1.3197773029 0.2397697444 -0.0964509147 0.0545599701 0.0570895052
-0.1322152263 1.3429013818 0.2245899048 -0.0964585820 0.0562111912 0.0570938261
0.1325797221 1.3209890748 -0.2387282202 -0.0964306894 0.0545647320 0.0570189479
0.2163547815 1.8450238353 -0.4386307390 -0.0963189654 0.0550646870 0.0563435827
-0.2274744284 1.3197772021 -0.0164661252 -0.0964758615 0.0545606968 0.0570900536
0.0921773562 1.3080386392 0.5180293302 -0.0964448190 0.0560592181 0.0575687741
0.4488291436 0.4787271440 0.1905649930 -0.0971105968 0.0551737104 0.0566557454
-0.4621343158 0.5811306533 0.1379203648 -0.0972654224 0.0554363083 0.0570992661
-0.4845695392 0.0196867407 0.4025342467 -0.0966866317 0.0557025688 0.0578094916
0.1501778886 1.3197773029 0.3025153923 -0.0964285397 0.0545603896 0.0570904186
0.3956138511 1.3211501745 0.4333984941 -0.0963971661 0.0547121802 0.0570802539
0.2064853420 1.3197773029 0.2078400542 -0.0964219716 0.0545605796 0.0570908448
0.3381376977 0.2276005901 0.3318764424 -0.0964240478 0.0550436523 0.0563452163
-0.2422481307 1.3427947220 -0.0384834287 -0.0964620077 0.0562113431 0.0570929243
-0.3648660425 1.3429013818 -0.0597719678 -0.0964846792 0.0562101415 0.0570924783
-0.1081661380 1.3197773029 0.3013921839 -0.0964606111 0.0545602591 0.0570896630
0.1663648743 1.3519197082 -0.3341355865 -0.0964245599 0.0553629620 0.0562678506
0.4665029705 0.4226586672 0.2442718374 -0.0963296116 0.0557140763 0.0578349578
0.3875011281 1.3197774037 0.2512309579 -0.0963988203 0.0545612865 0.0570914402
-0.3986269492 1.9521291620 -0.4351258744 -0.0972586223 0.0554199546 0.0571554196
-0.4254506883 1.1833797557 -0.1305194447 -0.0971882945 0.0552796013 0.0567488413
-0.4737986802 0.3626855526 0.2405611891 -0.0971778581 0.0555671707 0.0574123628
0.1931695344 1.8766623768 -0.4532666168 -0.0963328993 0.0550980674 0.0563293994
0.3107038636 1.3429013818 0.3008882954 -0.0963876076 0.0562083701 0.0570962674
0.0069180389 1.3419336779 0.0347404455 -0.0964469977 0.0562115579 0.0570946247
0.2979220876 1.3197773029 0.3000498592 -0.0964098653 0.0545609553 0.0570909885
0.3466152129 1.9730450334 -0.4563292648 -0.0966314064 0.0556959727 0.0578324299
0.4886301605 0.1629383483 0.3339737559 -0.0956755321 0.0552984879 0.0568181863
-0.4130671238 0.5376399329 -0.1019293365 -0.0968297507 0.0557874978 0.0564852549
0.4175257047 0.5368430565 -0.0601693220 -0.0972190636 0.0552129544 0.0573137105
-0.3639628590 1.3197773029 0.1060090607 -0.0964931203 0.0545612295 0.0570896349
-0.1592116007 1.3197773029 -0.0911766992 -0.0964677044 0.0545604598 0.0570896588
0.4040077919 1.3223899720 0.0883943366 -0.0963927436 0.0547471504 0.0570926452
-0.2043882804 1.3301823117 0.4711701450 -0.0964794341 0.0561466469 0.0574077504
-0.4727753529 0.3339831637 0.2567859422 -0.0970245769 0.0556462584 0.0576153261
-0.1348861714 1.3419779349 -0.1881484813 -0.0964557749 0.0562114323 0.0570936081
-0.0655094552 1.9269527318 -0.4625017917 -0.0964127220 0.0556342429 0.0578760245
0.2632326427 1.3131722376 0.3857898649 -0.0963951700 0.0553093612 0.0562738182
0.0075754342 1.3417906241 -0.0222693044 -0.0964470323 0.0562115570 0.0570946140
-0.1276207155 1.8436241480 -0.4519454622 -0.0965124991 0.0550696438 0.0563334007
-0.1005607622 1.9369816077 -0.4632037520 -0.0963934729 0.0556388331 0.0578733157
-0.4119607523 1.1820782599 -0.1400920536 -0.0964630507 0.0550601951 0.0563392280
0.0303522564 1.3568422044 -0.3367620921 -0.0964285207 0.0553946775 0.0562695419
0.4368642555 1.6733941665 -0.3245806073 -0.0956574012 0.0553174257 0.0568681962
-0.0486757063 1.3420432621 -0.0151486126 -0.0964503903 0.0562115091 0.0570942366
-0.4776587339 0.3159130918 0.2514508183 -0.0972665390 0.0554120792 0.0570417821
-0.4226839773 1.2578497015 -0.1549374075 -0.0972636278 0.0554519005 0.0571359731
-0.3962737727 1.5799508133 -0.3106843440 -0.0968699164 0.0551251498 0.0564406857
0.0260816420 1.3425706142 0.2541213290 -0.0964455681 0.0562115414 0.0570945785
0.2578481456 1.3424320976 -0.2209987196 -0.0964305581 0.0562109955 0.0571005214
-0.2109014423 1.3451364058 -0.2627820217 -0.0964774240 0.0561979204 0.0572288319
0.0059095310 0.2393594295 0.3259872508 -0.0964330588 0.0555466142 0.0562884582
-0.4536991672 0.7117330172 0.0748216601 -0.0972380873 0.0553371167 0.0568732034
0.2196042109 2.0002439731 -0.4680495299 -0.0965702011 0.0556728288 0.0578540624
0.2395246048 1.3429013818 0.0743078009 -0.0964304408 0.0562111780 0.0570938674
-0.1429830106 1.3197772021 -0.1448782630 -0.0964658603 0.0545604070 0.0570895201
-0.3917898131 1.3263368005 0.3185374736 -0.0965092006 0.0550279321 0.0570904608
0.4956161470 0.0229305370 0.4145851787 -0.0958117561 0.0556261603 0.0575391447
-0.2291305336 1.3179629720 0.4308623921 -0.0964722203 0.0545687614 0.0569946486
-0.3127859036 1.3428618628 -0.1310339687 -0.0964663500 0.0562112812 0.0570924238
0.3719767852 1.3169656288 0.4524474356 -0.0963992233 0.0545717130 0.0569656477
-0.0097293538 1.9827952616 -0.4816578208 -0.0964502243 0.0557025259 0.0578512041
0.4526465789 1.2206693696 -0.1252207396 -0.0956545883 0.0553206078 0.0568802513
0.0555652688 1.9727385617 -0.5282221789 -0.0964056460 0.0546831372 0.0566657218
0.1741136375 1.3433947605 -0.2458025193 -0.0964318786 0.0562038526 0.0571909043
0.3381566000 1.3197773029 0.1874560093 -0.0964054354 0.0545610800 0.0570913931
-0.1987202846 1.2741255547 0.5247061239 -0.0964626708 0.0547231468 0.0567711701
0.0920340001 2.0042960500 -0.5240324923 -0.0963943020 0.0561561914 0.0568179963
0.4502099790 0.7584991016 0.0972048179 -0.0965721460 0.0557077874 0.0578411889
0.4537349558 0.2886670467 -0.2437406418 -0.0959002346 0.0557330414 0.0565899838
0.4568589990 0.1965587852 0.3159167392 -0.0971440309 0.0551964645 0.0567000404
-0.4146329262 0.5730707564 -0.0772831324 -0.0969124705 0.0557592451 0.0565288347
0.4176262152 0.9207907660 0.2020741064 -0.0965147793 0.0549377944 0.0577792924
-0.3572530994 2.0291395950 -0.4532763446 -0.0962941508 0.0556667513 0.0578536090
-0.2106165322 1.3282817850 -0.2864347633 -0.0964712276 0.0545971222 0.0568539551
-0.0062808756 1.3197773029 0.2554424704 -0.0964480622 0.0545598875 0.0570894235
0.0517800817 1.3419179511 -0.0326963224 -0.0964444020 0.0562115248 0.0570944620
0.2117182922 1.3197773029 0.3922151810 -0.0964202291 0.0545606498 0.0570904541
0.4143559427 0.6948193706 0.0482631038 -0.0970703518 0.0550798398 0.0575264157
-0.3719762310 1.3429014826 -0.0230072119 -0.0964902603 0.0562097633 0.0570925725
0.2441656817 1.3424305855 -0.1339674381 -0.0964330258 0.0562113630 0.0570936593
-0.2432624602 1.3225775851 -0.2608752192 -0.0964766650 0.0545712398 0.0569687389
0.0586835781 1.3197774037 -0.1268794157 -0.0964411663 0.0545600122 0.0570892979
-0.0219518318 1.3197773029 0.1052807249 -0.0964503796 0.0545599552 0.0570893029
-0.3828330331 1.3257435159 -0.0887955212 -0.0965043867 0.0549858446 0.0570912511
0.2499093503 1.3423605203 -0.1693710801 -0.0964327276 0.0562113588 0.0570936337
-0.1609038415 1.3207865418 -0.2419096260 -0.0964674212 0.0545637401 0.0570337919
0.0388393615 1.3197773029 0.1550601476 -0.0964428337 0.0545599627 0.0570895498
0.0473590914 1.3066097157 0.3841239311 -0.0964309727 0.0548180769 0.0564941304
-0.0379466308 2.0035324921 -0.4885809512 -0.0964364283 0.0556962733 0.0578556481
-0.3509963431 1.3429013818 0.3919482283 -0.0965288767 0.0562068934 0.0570938476
-0.1705287405 1.3684484001 -0.3291942128 -0.0964800172 0.0561503633 0.0573951378
0.1636806279 1.8978232239 -0.4639714434 -0.0963466871 0.0551032926 0.0563256723
-0.3444786835 1.3197773029 -0.0907554396 -0.0964906088 0.0545611337 0.0570901700
0.4518946144 0.5112706835 0.2024737921 -0.0968913533 0.0556479910 0.0577263102
0.0332584179 1.3426424937 0.2703332921 -0.0964451172 0.0562115347 0.0570945496
-0.3324020945 1.3197773029 0.3764413515 -0.0964891504 0.0545611345 0.0570890171
-0.0244154051 1.3177732414 0.4371971022 -0.0964464955 0.0545764865 0.0569450260
-0.3691662202 1.3429013818 0.3227152894 -0.0965259664 0.0562071701 0.0570936031
-0.1455007893 2.0606003032 -0.5114475030 -0.0964461611 0.0554999028 0.0571467894
0.4345449525 0.0545139722 -0.3866908311 -0.0972238437 0.0555273783 0.0568678890
0.2661887316 1.3197773029 -0.1017299152 -0.0964158776 0.0545607472 0.0570913419
0.3694693645 1.3197774037 0.0559705682 -0.0964022451 0.0545611643 0.0570918061
-0.0033150836 1.3197773029 0.3053463469 -0.0964475659 0.0545598726 0.0570894738
-0.3935261903 0.2576898761 -0.2785811803 -0.0957260698 0.0555939963 0.0567647350
-0.1962833329 1.3372824693 -0.3124489491 -0.0964695643 0.0546261512 0.0567718068
0.0139859740 1.3427134665 0.3268105398 -0.0964461974 0.0562115504 0.0570946313
-0.2675915439 1.3477969607 -0.3373923496 -0.0964804318 0.0547196708 0.0566105800
0.4223249066 1.4198354996 -0.2220403950 -0.0969276069 0.0551046842 0.0564851178
-0.4100421805 0.1822438836 -0.3369307525 -0.0964895270 0.0558338211 0.0564063704
0.4541482384 1.1988432576 -0.1091261230 -0.0956353664 0.0554476680 0.0571700563
0.1254733639 1.3197829485 0.5002776768 -0.0964399531 0.0560933715 0.0575152707
-0.0570157093 1.3423230180 0.0843702596 -0.0964507611 0.0562115042 0.0570942069
-0.4095400807 1.0139099040 0.2102899859 -0.0968325653 0.0557813740 0.0564890811
-0.3209950549 1.3429012811 0.0898991087 -0.0964898656 0.0562096080 0.0570930176
0.3493692222 1.3197772021 0.3146896690 -0.0964032717 0.0545611568 0.0570911528
0.1122087828 0.2520909114 0.3439681786 -0.0964393964 0.0562108460 0.0570985005
0.4483298172 0.4932392230 0.2057968651 -0.0971035869 0.0555667784 0.0575545263
0.2835936898 1.3429013818 0.2298136557 -0.0964021667 0.0562093148 0.0570954754
0.1019302940 1.3427575220 0.2084189729 -0.0964410903 0.0562114778 0.0570942622
-0.1123940612 1.3197773029 0.3593347492 -0.0964611587 0.0545602806 0.0570895077
-0.4368383722 0.2319404503 0.3330782339 -0.0968494400 0.0553061354 0.0578078201
0.1766426578 1.9101449901 -0.4665894054 -0.0963397994 0.0551156871 0.0563226521
-0.1351718628 1.8803188635 -0.4415837524 -0.0963711433 0.0556008840 0.0578841782
-0.0052679889 2.0013158162 -0.5355642871 -0.0964809851 0.0559414794 0.0564881107
-0.0473791161 1.3197773029 -0.2175156057 -0.0964543511 0.0545600733 0.0570890072
0.2768876855 1.3197773029 0.2787621138 -0.0964126510 0.0545608694 0.0570909554
-0.0801344383 1.3420039446 -0.0845729190 -0.0964523633 0.0562114811 0.0570940053
0.1501116538 1.3197773029 0.1842870913 -0.0964292309 0.0545603582 0.0570906705
-0.0799329937 2.0356436452 -0.5202594651 -0.0964953972 0.0551853121 0.0562940204
0.4270353426 1.0300757700 0.2659505862 -0.0957992286 0.0551346266 0.0575215514
-0.4170721722 1.0297328044 0.2326853888 -0.0972442564 0.0554963111 0.0569361100
-0.4069775661 0.3924433524 -0.2001646579 -0.0964335650 0.0558335560 0.0564087150
0.0500786227 1.9773273667 -0.5010402759 -0.0964135718 0.0551198924 0.0563137477
0.2767615684 1.3197773029 0.0339275136 -0.0964141020 0.0545608026 0.0570915013
0.3321903869 1.8694732014 -0.3992824231 -0.0966371222 0.0556040991 0.0578650282
0.3383906371 1.8672329357 -0.4196910034 -0.0962619646 0.0550492459 0.0563631193
-0.3194537756 1.2837479522 0.3951181407 -0.0961487887 0.0546638112 0.0573386143
0.2972179090 1.8743098049 -0.4101806090 -0.0966289371 0.0555888355 0.0578714699
0.1956514492 1.8394244800 -0.4403770215 -0.0963318860 0.0550722684 0.0563374491
0.2182303574 1.3007921013 0.4930330037 -0.0964124701 0.0546322981 0.0567581025
-0.3627434503 1.3429013818 -0.1364243385 -0.0964761018 0.0562107543 0.0570922562
-0.2615583033 1.3424587118 -0.2078554028 -0.0964633827 0.0562113242 0.0570927484
0.4609992365 0.1786930740 0.3194312564 -0.0969655576 0.0551183935 0.0565113620
0.1106200206 1.3422629334 0.0076705828 -0.0964408301 0.0562114745 0.0570942192
0.2560159199 1.3197773029 0.0291963097 -0.0964167538 0.0545607216 0.0570914320
-0.4532905721 0.5916458509 0.1479115244 -0.0968070437 0.0556974221 0.0577602984
0.4563658723 0.9434030174 -0.0142255250 -0.0959828371 0.0551295087 0.0564647934
0.1255679769 1.8768742859 -0.4613751056 -0.0963708600 0.0550819524 0.0563309025
-0.0333164098 1.9747862749 -0.5297917861 -0.0964976427 0.0547702638 0.0565450182
-0.3882170009 0.8226682290 0.0964233281 -0.0956565927 0.0555043864 0.0569024025
0.1297141631 1.3424214110 0.0383895969 -0.0964396483 0.0562114571 0.0570941408
-0.3932799048 1.3326499111 0.4163370565 -0.0965106302 0.0555255366 0.0571313912
0.0456776951 0.2525041445 0.3407474304 -0.0964385590 0.0562004443 0.0570096537
-0.1118243508 1.3197773029 0.2215096016 -0.0964610711 0.0545602657 0.0570898455
-0.2971439756 2.0616221431 -0.4785587293 -0.0962870922 0.0556884953 0.0578437673
0.0654413746 1.3388113987 0.4512000261 -0.0964434200 0.0561838907 0.0572995123
-0.4171864431 1.2151541933 -0.1222967345 -0.0968689229 0.0556869865 0.0577292056
0.1304362364 2.0343092851 -0.5141640100 -0.0963592112 0.0551870612 0.0562971017
-0.0945602917 1.3429013818 0.3534211856 -0.0964630722 0.0562107304 0.0570942894
-0.4478016079 0.5770228267 0.1562242228 -0.0965461455 0.0557172443 0.0578419974
0.4065110287 0.8271996714 0.1198964154 -0.0972597008 0.0554291712 0.0569822739
-0.1995740949 1.3138992000 0.4494417719 -0.0964666325 0.0545889718 0.0568810986
0.1471150383 1.3197773029 0.1494743645 -0.0964296876 0.0545603450 0.0570905871
0.1443930881 1.3421760323 -0.0771617533 -0.0964389199 0.0562114472 0.0570940755
0.1487198047 1.3197773029 0.2052756996 -0.0964292937 0.0545603574 0.0570906301
0.3465066371 1.3429013818 -0.0078444098 -0.0964147800 0.0562104174 0.0570940780
0.4386428490 0.7068029091 0.1042981514 -0.0972621115 0.0554038429 0.0571933299
-0.3567012491 1.8716263654 -0.4201101835 -0.0956955592 0.0554189809 0.0574253511
0.1529648125 1.3609141416 -0.3045378515 -0.0964349797 0.0561624564 0.0573701027
-0.0629429326 1.3197773029 0.3682511785 -0.0964548689 0.0545600907 0.0570895862
0.2506038003 1.9683786017 -0.4515966495 -0.0965875285 0.0556474608 0.0578600623
-0.3903414835 0.2328369172 0.3203369349 -0.0964585019 0.0550605882 0.0563401306
-0.2170275196 1.3432009980 -0.2445463392 -0.0964729321 0.0562092835 0.0571325887
-0.4242238196 0.6701687308 0.0946038364 -0.0956462430 0.0552727979 0.0569337026
0.1089989599 0.2300677608 0.3586612423 -0.0964604063 0.0551074393 0.0578639100
0.2494178612 1.3429013818 0.0997832419 -0.0964251809 0.0562108369 0.0570941523
-0.0791470318 1.3341178491 0.4635767855 -0.0964625726 0.0561639470 0.0573651789
0.0038451709 1.9895765481 -0.5106346479 -0.0964184394 0.0555099238 0.0579069323
-0.2988168788 1.3197773029 -0.2111531219 -0.0964851119 0.0545609669 0.0570901213
0.0149926419 1.3424040712 0.2080458891 -0.0964462907 0.0562115513 0.0570946231
-0.3391500368 1.3017019380 0.3772736631 -0.0966992178 0.0559934037 0.0566070139
0.3353609046 2.0696775043 -0.4736773138 -0.0965770904 0.0558100173 0.0575848577
-0.0706348850 1.3200025190 -0.2275214962 -0.0964570657 0.0545608009 0.0570772833
0.3500057042 1.3197773029 0.1601203295 -0.0964040967 0.0545611180 0.0570914997
0.3937967478 1.3197772021 0.3362258422 -0.0963975253 0.0545613336 0.0570912742
0.4890401165 0.0189560165 0.3856939925 -0.0960687546 0.0551077077 0.0564244774
-0.3248056842 1.3428162959 -0.1699903240 -0.0964671197 0.0562112705 0.0570923322
-0.4218844293 0.1068925736 -0.3790210300 -0.0970545234 0.0557007891 0.0566371305
-0.2545804696 1.3425370438 -0.1641830171 -0.0964629087 0.0562113308 0.0570928070
-0.4243736529 0.1323565351 -0.3435147220 -0.0972239081 0.0552548387 0.0573235622
0.4275204040 0.3854785360 -0.1511174525 -0.0969750112 0.0550294294 0.0576072245
0.1050361527 1.3023987573 0.3920023139 -0.0964299874 0.0546166389 0.0567978041
-0.4157661399 1.3170669461 -0.1710423573 -0.0970630867 0.0556344907 0.0575811141
0.4313274054 0.3927312241 -0.1786876361 -0.0968073493 0.0557797793 0.0564709006
-0.2227859950 0.2316547341 0.3526774880 -0.0964612421 0.0550395734 0.0578349314
-0.3970717582 1.1635115331 -0.1141363775 -0.0956258666 0.0553557060 0.0571272966
0.1267828995 1.3287080229 0.3914933851 -0.0964736663 0.0562057562 0.0570297584
0.1742068895 1.3203135272 -0.2269533137 -0.0964265213 0.0545619348 0.0570622659
0.2809002946 1.9250981766 -0.4540751866 -0.0962791036 0.0550783665 0.0563486766
0.2488985993 1.9068613098 -0.4537094875 -0.0962993942 0.0550861866 0.0563402727
0.4076974971 1.6996699616 -0.3370285409 -0.0972286749 0.0552669013 0.0568915408
-0.0857250386 1.3197773029 0.1692964150 -0.0964580155 0.0545601766 0.0570896646
0.4185851484 1.5422221591 -0.2755651579 -0.0969169904 0.0551009860 0.0564778667
0.4764367791 0.1481401873 0.3639886799 -0.0963382212 0.0557217849 0.0578353848
-0.4167960451 1.3473040867 -0.1888625645 -0.0972037216 0.0555468579 0.0573610736
0.3225568998 1.3197773029 -0.2017847474 -0.0964092905 0.0545609396 0.0570917293
0.4383156102 0.1845468809 -0.2803881776 -0.0967666269 0.0549618393 0.0577222106
-0.3787858709 1.3197773029 0.1917955797 -0.0964950198 0.0545612956 0.0570893888
0.1772788127 1.3197773029 0.3641354881 -0.0964247506 0.0545605102 0.0570903848
0.4585208002 1.0310172628 -0.0311412000 -0.0957204754 0.0555612369 0.0574373393
-0.3753825251 1.5723437684 -0.2871200148 -0.0956876244 0.0554764938 0.0573955376
-0.0883693597 1.3425711188 0.1319599798 -0.0964525763 0.0562114778 0.0570940086
0.4483638921 1.0756751967 -0.0417243014 -0.0961364388 0.0556991853 0.0577861445
0.1508248805 1.3425266602 0.0458194131 -0.0964383757 0.0562114389 0.0570940532
0.1600018612 1.3429013818 0.2766047917 -0.0964258044 0.0562105875 0.0570948461
-0.3441371037 1.3197773029 0.2213677196 -0.0964906171 0.0545611643 0.0570893847
0.4619484412 0.9654035353 -0.0054278089 -0.0956551351 0.0554924064 0.0572746680
-0.1274794166 1.3197773029 -0.0805333935 -0.0964637915 0.0545603467 0.0570895325
-0.2392077240 1.9909068763 -0.4868175304 -0.0963824980 0.0558013565 0.0577886304
-0.3360896566 1.3197773029 -0.2129870860 -0.0964896798 0.0545610990 0.0570902832
-0.2779467641 1.3058980771 -0.1746742961 -0.0964450899 0.0548231675 0.0564980557
0.2610468408 1.3422532552 0.4308992147 -0.0963976583 0.0562059569 0.0571321626
-0.3897341106 0.0140773331 -0.4190640981 -0.0956926365 0.0551818517 0.0573503267
-0.4151116112 1.1164055570 0.2847833209 -0.0971963797 0.0555788566 0.0568165816
0.4019699081 1.3235763397 -0.2523287232 -0.0963951444 0.0545751684 0.0569524340
0.3205449249 1.3429013818 0.0715778738 -0.0964117244 0.0562101151 0.0570945050
0.2446248343 1.3197773029 0.0577092710 -0.0964180273 0.0545606861 0.0570913254
-0.2487681217 1.3197773029 0.3595084243 -0.0964785075 0.0545608092 0.0570892302
-0.0373516450 1.3313255307 0.4723158341 -0.0964583871 0.0561510124 0.0573998907
-0.0400427402 1.3428976514 0.3467472907 -0.0964494050 0.0562115232 0.0570943927
0.2952229212 1.3197773029 0.2320099295 -0.0964106053 0.0545609273 0.0570911297
0.1903347742 1.3415495804 0.4367982358 -0.0964253254 0.0562038435 0.0571729303
-0.2886904664 1.3429013818 0.2298757810 -0.0964968177 0.0562089886 0.0570935024
0.2168276705 1.3212664118 -0.2412180988 -0.0964199887 0.0545657073 0.0570060934
0.0793224280 1.3425277686 0.1560972733 -0.0964425099 0.0562114976 0.0570943539
0.4585858243 0.1221379542 -0.3242886781 -0.0959036173 0.0550732255 0.0576184727
0.1927454900 1.9713094366 -0.4629431503 -0.0965602107 0.0556584869 0.0578602655
-0.2087770984 1.3422398473 -0.2071962377 -0.0964602230 0.0562113687 0.0570931043
-0.1592666451 1.9752060603 -0.4937010913 -0.0965298248 0.0551683712 0.0563043123
-0.2803842832 1.3406441794 0.4361618537 -0.0964846998 0.0561978891 0.0572281985
0.4271487068 1.1178518203 0.3100809278 -0.0956243652 0.0554182038 0.0571062446
0.3269629312 1.9037893362 -0.4125851499 -0.0966354143 0.0556091071 0.0578637440
0.0490855773 1.9592433327 -0.4949733509 -0.0964141516 0.0551050624 0.0563199218
-0.0870218998 1.3423117269 0.0288137053 -0.0964526292 0.0562114769 0.0570939897
-0.1794886075 1.3197773029 0.0338868474 -0.0964698533 0.0545605218 0.0570899058
-0.3901891041 0.4414929016 -0.1513708966 -0.0956320622 0.0554489794 0.0569868938
0.4197038195 1.9832321853 -0.4143117736 -0.0966195545 0.0556633727 0.0578505088
-0.1403575506 1.3197773029 0.0328983517 -0.0964650658 0.0545603830 0.0570897323
-0.0534479282 1.3418861951 -0.0871216475 -0.0964507694 0.0562115034 0.0570941846
-0.4074799177 0.1263638962 -0.3726616960 -0.0963642729 0.0558387597 0.0564074704
0.2825767895 1.3186568678 0.3897398945 -0.0963214133 0.0559082451 0.0564791220
0.4342689261 0.6224709327 0.0075938893 -0.0962075445 0.0549603569 0.0577568356
0.3611725069 1.3429013818 -0.1009049753 -0.0964220608 0.0562109822 0.0570934495
0.1896510861 1.3429013818 0.3501782838 -0.0964103609 0.0562095882 0.0570956785
0.4521497721 0.2136137465 -0.2617441767 -0.0960518790 0.0550000345 0.0577029317
-0.1928199405 1.3197773029 -0.0954762971 -0.0964718296 0.0545605804 0.0570898017
-0.1135649060 1.3225190126 -0.2577907702 -0.0964604228 0.0545712943 0.0569639737
-0.4036017429 1.2800098069 -0.1824442055 -0.0963337078 0.0550560815 0.0563483546
0.2025082449 1.3197773029 0.3364889389 -0.0964217206 0.0545605994 0.0570905425
-0.3918337926 0.5139050785 -0.1101843824 -0.0957318616 0.0556034813 0.0567533819
-0.3744812319 1.3429013818 0.2310065881 -0.0965175946 0.0562077944 0.0570933191
0.4520201773 0.3037491730 0.2851796164 -0.0971827406 0.0555127011 0.0574334635
0.0442459743 1.3055009747 0.4780363415 -0.0964340655 0.0546269490 0.0567691096
-0.1486066801 1.9758516664 -0.4727460543 -0.0963697046 0.0556617482 0.0578636573
0.1571777620 1.3429014826 0.3813388968 -0.0964143968 0.0562097674 0.0570956645
0.4684065719 0.7856919927 0.0719761431 -0.0956409294 0.0554766474 0.0572372359
0.1842049418 1.3419666438 -0.2176686144 -0.0964367198 0.0562114158 0.0570939054
0.1099875193 1.3424575019 0.0823526515 -0.0964407715 0.0562114736 0.0570942242
-0.0453406707 1.3197773029 0.2579480643 -0.0964528365 0.0545600262 0.0570895986
0.3195555711 1.3429013818 0.3340307907 -0.0963817085 0.0562079802 0.0570966060
-0.3201321204 1.2877848069 0.5038982742 -0.0964779352 0.0546631852 0.0566951621
-0.2048597201 1.3197773029 0.3282131259 -0.0964729165 0.0545606357 0.0570893987
-0.4165609995 0.2554576121 -0.2869738359 -0.0968827272 0.0557664986 0.0565142178
0.4463652747 1.3857575858 -0.1992269203 -0.0956792972 0.0552896810 0.0568129545
-0.3926997010 0.1829326376 -0.3236137854 -0.0956589092 0.0555038248 0.0569092696
0.1017051283 1.3197773029 0.0903057820 -0.0964353629 0.0545601799 0.0570900553
0.3081638553 1.3208052929 -0.2317304882 -0.0964094557 0.0545638046 0.0570378725
-0.0161028455 1.3426771740 0.2977944968 -0.0964480358 0.0562115430 0.0570945405
0.2572522909 1.3429013818 0.1822957580 -0.0964138311 0.0562100565 0.0570948791
0.4100194214 1.3304678140 -0.2187547483 -0.0964089652 0.0552961127 0.0570714329
0.4338449577 1.1190812351 -0.0924275740 -0.0968242885 0.0550868886 0.0564322025
-0.3939100360 0.1658221167 -0.3377224871 -0.0957291701 0.0556018882 0.0567610037
0.2203023913 1.3429013818 0.2044658183 -0.0964199549 0.0562103695 0.0570947569
-0.1021167600 1.3421041528 -0.0811861325 -0.0964536747 0.0562114621 0.0570938583
-0.0288218338 1.3420232003 0.0104080079 -0.0964491688 0.0562115265 0.0570943770
-0.1705321934 1.3424658695 -0.0503704382 -0.0964577305 0.0562114043 0.0570934049
-0.1870313344 1.3197773029 0.0173951920 -0.0964708204 0.0545605498 0.0570899182
-0.2090756435 1.3424618368 -0.1174684474 -0.0964601239 0.0562113704 0.0570931266
0.1714028018 1.3429013818 0.3106133712 -0.0964192066 0.0562101564 0.0570952119
0.4379848929 0.1366477720 -0.3439291393 -0.0969248989 0.0557447488 0.0565250795
-0.3687940943 1.3429013818 0.2722659778 -0.0965205677 0.0562075591 0.0570934537
-0.3892020197 0.6749281626 -0.0000921177 -0.0956632400 0.0555169758 0.0568845821
0.2378277202 1.3429013818 0.2982133242 -0.0964050341 0.0562093677 0.0570956529
-0.1636094793 1.9895745313 -0.5210688930 -0.0965351475 0.0555297188 0.0562867041
0.4389752799 1.1172202274 -0.0589683119 -0.0965359667 0.0557105920 0.0578420074
0.4346738923 1.3173623282 -0.1800934983 -0.0964374846 0.0550582981 0.0563414809
0.1000033423 1.3197773029 0.0479816689 -0.0964356817 0.0545601708 0.0570899718
0.3459165280 1.3072393934 -0.1566491113 -0.0964399671 0.0552903813 0.0579052897
-0.1340395377 1.3281570801 -0.2842236826 -0.0964613428 0.0545970950 0.0568526626
-0.4312498546 1.1088246226 -0.0889434145 -0.0972595134 0.0554746538 0.0571885250
-0.3207518936 1.3429013818 0.0657651484 -0.0964872674 0.0562097955 0.0570929466
-0.3110375044 1.3429013818 0.3785099333 -0.0965178399 0.0562075483 0.0570938939
-0.4016619746 1.0935710130 -0.0919264826 -0.0956938894 0.0552193226 0.0568049486
0.3803392730 1.3429013818 -0.0328684225 -0.0964097175 0.0562101688 0.0570941515
-0.0837283801 1.3197773029 0.1387538235 -0.0964578528 0.0545601724 0.0570896175
-0.3949373711 0.8513495733 0.1363022912 -0.0960750716 0.0549850377 0.0577021463
-0.0699454282 0.2388828232 0.3242984059 -0.0964329927 0.0554662754 0.0562755946
-0.3963865571 0.5990124573 -0.0287948658 -0.0959954257 0.0550095137 0.0576633235
-0.1109953013 1.8906896975 -0.4690552399 -0.0965056428 0.0550966288 0.0563239793
-0.0536720889 1.3047137262 0.4037557472 -0.0964715703 0.0548976593 0.0577513238
0.2749629395 1.3426588259 -0.0948228272 -0.0964311329 0.0562113365 0.0570935321
-0.1273759694 1.3422963023 -0.0459733484 -0.0964551415 0.0562114414 0.0570936973
0.4286836352 1.0671650682 0.2750620762 -0.0956403175 0.0554852380 0.0569927656
0.1564028378 0.2188615035 0.3428146265 -0.0964528993 0.0545639227 0.0570428318
0.2468739218 1.3197773029 -0.1252777495 -0.0964182875 0.0545606770 0.0570911190
0.4109306703 1.5843845688 -0.2830709622 -0.0972597611 0.0553132526 0.0569873546
-0.4122262175 0.9493448337 0.1695664935 -0.0969769305 0.0557324385 0.0565669952
-0.1581636059 1.3197773029 -0.2224671614 -0.0964679250 0.0545604673 0.0570894887
-0.4316136889 0.6602859842 0.1166764040 -0.0959882234 0.0556340530 0.0577251573
0.4269911360 1.1061554977 -0.0786704574 -0.0971780150 0.0552158177 0.0567556001
0.1027062894 1.8544897712 -0.4562457910 -0.0963864456 0.0550620475 0.0563363011
-0.1235523914 1.3428850504 -0.2459822437 -0.0964633753 0.0562066746 0.0571571671
-0.1009350932 1.3197773029 0.0587754438 -0.0964601718 0.0545602401 0.0570895919
0.2868122957 1.8429601930 -0.4206655124 -0.0963414420 0.0551261243 0.0566657102
-0.3988618188 1.2160385250 -0.1505110748 -0.0959012620 0.0551170366 0.0565431171
0.1069672883 1.8816058424 -0.4651755026 -0.0963815887 0.0550811497 0.0563302773
-0.2701402221 1.9631587067 -0.4975609684 -0.0963573332 0.0546353653 0.0567733190
-0.1991040171 1.9751949707 -0.4660598343 -0.0963462650 0.0556527827 0.0578645228
0.3569071599 1.9451444348 -0.4190640981 -0.0966417652 0.0556320486 0.0578551848
-0.1602617444 2.0284385415 -0.4891847200 -0.0963671857 0.0556941376 0.0578525660
-0.1636499241 1.3603199502 -0.3098727491 -0.0964766493 0.0561668120 0.0573564488
0.3772577731 1.3197773029 -0.0177930377 -0.0964016926 0.0545611742 0.0570920002
-0.1818924497 0.2470635195 0.3254154394 -0.0964332661 0.0558732708 0.0564305772
0.2096390997 1.3197773029 0.3188492878 -0.0964209220 0.0545606217 0.0570906094
0.4302530912 0.5173566628 -0.0988760636 -0.0966107087 0.0558227430 0.0564164211
0.4356659930 0.7751434254 0.1011128079 -0.0958445741 0.0550939827 0.0575745906
0.4288797167 1.8828188242 -0.4005415771 -0.0962120372 0.0551254174 0.0563464650
0.2507230115 1.8948202063 -0.4265836876 -0.0965985950 0.0556047184 0.0578719654
-0.2096197812 2.0575926484 -0.4923348737 -0.0963465995 0.0557037448 0.0578474341
-0.3922331133 1.3231847821 0.3383575833 -0.0965032511 0.0548037392 0.0570897282
-0.3583206836 1.3429013818 -0.0140886585 -0.0964879108 0.0562098839 0.0570926278
-0.1516651377 1.3422452906 -0.1080055491 -0.0964566751 0.0562114191 0.0570935164
-0.1766693347 1.3426782824 0.0255466842 -0.0964579989 0.0562114001 0.0570933843
-0.1948150926 1.9540397692 -0.4818858094 -0.0965528275 0.0551268734 0.0563182891
0.2229370885 1.8624289950 -0.4433445015 -0.0963151268 0.0550723675 0.0563415726
0.4136203104 1.8214007322 -0.4007894763 -0.0967044702 0.0550568421 0.0563823602
0.0019392571 1.9645186743 -0.4755127653 -0.0964560425 0.0556974477 0.0578525519
0.4365764854 1.6151385772 -0.3038805256 -0.0957643270 0.0552222701 0.0566659687
-0.4005040372 0.4666765142 -0.1499825632 -0.0961675184 0.0558090734 0.0564438157
-0.4187376526 0.3718752606 -0.2071622635 -0.0970317280 0.0557041057 0.0566153237
0.0825906466 1.3425884585 0.1740633571 -0.0964422911 0.0562114951 0.0570943415
-0.2509596195 1.9780364856 -0.4595230701 -0.0963118936 0.0556515521 0.0578599682
-0.1247919940 1.3421261297 -0.1107645482 -0.0964550704 0.0562114423 0.0570936973
0.0710119974 1.3002424684 0.3979847328 -0.0964476071 0.0545643009 0.0570836722
-0.3595038503 1.3428967446 -0.1962132169 -0.0964692306 0.0562112399 0.0570920910
-0.1075972658 1.8624640784 -0.4376012872 -0.0963850169 0.0555905789 0.0578888097
0.4544893896 0.3841459143 -0.1677437313 -0.0956255511 0.0554415145 0.0570542823
0.4282927326 0.2146310375 -0.2799284700 -0.0972647361 0.0553981056 0.0570295338
-0.3936550798 1.6911416873 -0.3563896996 -0.0970697473 0.0552021827 0.0565879307
0.3781272847 1.3197772021 0.2854779979 -0.0963998055 0.0545612593 0.0570913279
-0.1118827283 1.3429013818 0.4013605816 -0.0964722888 0.0562101258 0.0570943943
-0.2779012593 1.3425656747 -0.1922036330 -0.0964643407 0.0562113101 0.0570926427
-0.2790296218 1.3427064095 -0.1368934715 -0.0964643366 0.0562113101 0.0570926501
0.2729191327 1.3197773029 0.0100829115 -0.0964147272 0.0545607811 0.0570915393
-0.2580561607 1.3429013818 0.0454075038 -0.0964700284 0.0562108171 0.0570930217
-0.3102402250 1.3197773029 -0.0748485369 -0.0964862557 0.0545610032 0.0570901998
-0.0218384049 1.2888256002 0.5088050435 -0.0964393510 0.0546964913 0.0566384123
0.0026804160 1.8781239640 -0.4462860231 -0.0964567651 0.0556309139 0.0578797549
0.3037155580 1.3429013818 0.0666892254 -0.0964162410 0.0562103802 0.0570943283
-0.3006995108 1.3197773029 0.2255686851 -0.0964850921 0.0545609966 0.0570894623
