-0.0557384011 0.2002005170 -0.0759898316 0.0460620708 0.0001746619 -0.0018728164
-0.4941034591 0.0196864483 -0.0018583054 0.0460469199 0.0000000000 -0.0014455208
0.4735593138 0.0000000000 -0.0514274361 0.0460469199 0.0004127846 -0.0018583054
-0.0569859129 0.0518382901 0.0382860303 0.0463359529 -0.0000107493 -0.0017856194
0.4872438885 0.0000000000 0.0602037628 0.0460469199 0.0004127846 -0.0018583054
0.2719803123 0.0000000000 -0.0021940833 0.0460469199 0.0004127846 -0.0018583054
-0.4324288994 0.1456235263 -0.0018583054 0.0460469199 0.0000000000 -0.0014455208
0.1678183684 0.1931379930 0.1179491409 0.0462984399 0.0000209926 -0.0020527702
0.1537574027 0.1513853904 -0.0117651351 0.0458373219 0.0000166695 -0.0015459785
-0.1160447430 0.0000000000 0.1462871774 0.0460469199 0.0004127846 -0.0018583054
0.0319597329 0.1614411945 0.0741904620 0.0460456584 0.0004108924 -0.0018970873
0.3503845390 0.0000000000 -0.1438384233 0.0460469199 0.0004127846 -0.0018583054
-0.2643438233 0.0000000000 0.0474370762 0.0460469199 0.0004127846 -0.0018583054
0.3968300843 0.0000000000 0.1304873464 0.0460469199 0.0004127846 -0.0018583054
0.0314287491 0.1590704295 -0.0118755880 0.0460457286 0.0004122393 -0.0018383580
0.1579115387 0.1017735299 -0.0240332428 0.0463872100 -0.0000024437 -0.0017628378
-0.0605006034 0.0000000000 0.0031562734 0.0460469199 0.0004127846 -0.0018583054
0.3179130260 0.0000000000 -0.0428384422 0.0460469199 0.0004127846 -0.0018583054
-0.4874082568 0.1828350952 -0.0018583054 0.0460469199 0.0000000000 -0.0014455208
-0.0668060616 0.0521335178 0.0956997970 0.0456481816 0.0000706419 -0.0018691719
0.1500686066 0.0000000000 -0.0168189684 0.0460469199 0.0004127846 -0.0018583054
-0.0530704812 0.0248796315 -0.0054215485 0.0464322865 -0.0001432412 -0.0018573126
0.4334654456 0.0000000000 -0.1109892216 0.0460469199 0.0004127846 -0.0018583054
0.1590735532 0.0731003144 0.0716173483 0.0461146459 -0.0000061010 -0.0015839564
0.4541279540 0.0000000000 0.0670025712 0.0460469199 0.0004127846 -0.0018583054
0.3188601834 0.0000000000 0.1431126362 0.0460469199 0.0004127846 -0.0018583054
0.0384844263 0.4755162365 -0.1656658811 0.0460365470 -0.0001052770 -0.0022399639
-0.1220795255 0.0000000000 0.0590090586 0.0460469199 0.0004127846 -0.0018583054
0.1023688476 0.4985671205 -0.1564549579 0.0460019351 0.0001804174 -0.0015290828
-0.0465811985 0.4875174237 -0.1383364388 0.0463270508 0.0000581469 -0.0016241562
-0.4543930996 0.0998850293 -0.0018583054 0.0460469199 0.0000000000 -0.0014455208
0.0928961294 0.0000000000 -0.1418514819 0.0460469199 0.0004127846 -0.0018583054
0.1663918629 0.0251798068 0.1318838957 0.0462154710 -0.0000280871 -0.0015011815
0.1484174935 0.1157063825 -0.0958462332 0.0457993131 0.0000098135 -0.0020900810
0.1516866396 0.1610605832 0.0696231761 0.0460533660 0.0004111826 -0.0018940273
0.0240222262 0.4732981242 -0.1645050884 0.0460181269 -0.0001240979 -0.0022361589
0.0657149464 0.1592700699 -0.0500487245 0.0460478706 -0.0004094381 -0.0019104281
-0.4713937572 0.2728677589 -0.0018583054 0.0460469199 0.0000000000 -0.0014455208
0.2253885640 0.0000000000 0.1226900035 0.0460469199 0.0004127846 -0.0018583054
0.2575747000 0.0000000000 -0.1335133797 0.0460469199 0.0004127846 -0.0018583054
0.1521664410 0.1843568103 0.0315279708 0.0456523313 -0.0000374003 -0.0018426406
-0.3028697953 0.0000000000 0.0776121096 0.0460469199 0.0004127846 -0.0018583054
-0.1283196546 0.0000000000 -0.1321775993 0.0460469199 0.0004127846 -0.0018583054
0.0733051726 0.0000000000 -0.0058009677 0.0460469199 0.0004127846 -0.0018583054
0.1508349688 0.2002005042 -0.0435206587 0.0457504320 0.0001330479 -0.0018495093
0.0548549947 0.1517161927 -0.0856535733 0.0460494433 -0.0000420776 -0.0014606485
-0.4555674597 0.0613351665 -0.0018583054 0.0460469199 0.0000000000 -0.0014455208
-0.0493063160 0.1729564331 0.1165075569 0.0464036661 0.0000257730 -0.0019449484
0.1874081883 0.0000000000 -0.0273065410 0.0460469199 0.0004127846 -0.0018583054
-0.0503738958 0.1501792100 0.1318838957 0.0462522534 0.0000074417 -0.0015301206
-0.0419073528 0.1558509418 0.0453806140 0.0460410253 -0.0004122096 -0.0018377227
-0.0532614923 0.0035731491 0.1318838957 0.0463004823 -0.0000206215 -0.0016360122
-0.3312842332 0.0000000000 -0.0903479142 0.0460469199 0.0004127846 -0.0018583054
0.4193522648 0.0000000000 -0.0942324139 0.0460469199 0.0004127846 -0.0018583054
0.0617326531 0.4421501220 -0.1526407823 0.0463467055 0.0000423971 -0.0016507688
-0.0645700484 0.1809253870 0.0348686499 0.0456523457 -0.0000673338 -0.0018635556
-0.0493063160 0.1063604296 0.1208757319 0.0464103714 0.0000091977 -0.0018846901
0.1678183812 0.3075158386 -0.1157561226 0.0463063013 -0.0000081253 -0.0018917256
0.4906855401 0.0000000000 -0.0713889616 0.0460469199 0.0004127846 -0.0018583054
0.2532659589 0.0000000000 0.1215816278 0.0460469199 0.0004127846 -0.0018583054
-0.0660735477 0.0460836092 0.1318838957 0.0458943655 -0.0000219395 -0.0015085501
-0.0645793451 0.0360322207 -0.0925316490 0.0457306365 -0.0000098119 -0.0018861795
-0.0256769313 0.0000000000 0.0187200474 0.0460469199 0.0004127846 -0.0018583054
-0.0462878036 0.0076417685 -0.0984498950 0.0461688408 -0.0000328638 -0.0022356544
0.0740377839 0.4743949357 -0.1547181966 0.0460194734 -0.0000049955 -0.0014603827
-0.4640917736 0.2299412622 -0.0018583054 0.0460469199 0.0000000000 -0.0014455208
-0.0961255193 0.0000000000 -0.0223164998 0.0460469199 0.0004127846 -0.0018583054
-0.0231306495 0.1601857717 0.0595255557 0.0460422005 0.0004111801 -0.0018940447
-0.3942772652 0.0460896499 -0.0018583054 0.0460469199 0.0000000000 -0.0014455208
0.1442907751 0.1620416144 -0.0955604030 0.0460710579 0.0001518379 -0.0022119045
0.0159136462 0.2532151672 -0.1186421125 0.0463463514 -0.0000471350 -0.0020895968
0.1486701239 0.1619589391 -0.0480308763 0.0460527876 0.0004100544 -0.0018113387
0.4101273457 0.0000000000 -0.0745986485 0.0460469199 0.0004127846 -0.0018583054
0.1615206070 0.1194283718 0.0806649805 0.0463598383 0.0000001024 -0.0017229401
-0.1020073969 0.0000000000 -0.0502194605 0.0460469199 0.0004127846 -0.0018583054
0.3070401434 0.0000000000 0.0955371735 0.0460469199 0.0004127846 -0.0018583054
-0.0537873237 0.1764281668 0.0166852886 0.0464393955 -0.0000989639 -0.0018521495
0.1796846526 0.0000000000 -0.1606879902 0.0460469199 0.0004127846 -0.0018583054
0.3079387259 0.0000000000 -0.0874460899 0.0460469199 0.0004127846 -0.0018583054
-0.0645793451 0.5073941698 -0.1437288401 0.0457909365 0.0000518808 -0.0016170761
0.1528759021 0.0527474576 0.0544007622 0.0456959094 0.0001956231 -0.0018355618
0.1815768129 0.0000000000 -0.1389693717 0.0460469199 0.0004127846 -0.0018583054
-0.1642173121 0.0000000000 0.1138848987 0.0460469199 0.0004127846 -0.0018583054
0.2709267845 0.0000000000 -0.1573373654 0.0460469199 0.0004127846 -0.0018583054
-0.2496971011 0.0000000000 0.1166611544 0.0460469199 0.0004127846 -0.0018583054
0.0146034131 0.4025424042 -0.1475560288 0.0461747812 -0.0000480093 -0.0021353078
0.3333114727 0.0000000000 0.0458899906 0.0460469199 0.0004127846 -0.0018583054
0.1649493971 0.1163140707 -0.0827640813 0.0461868316 0.0000039326 -0.0015022882
-0.2322499488 0.0000000000 -0.0122059201 0.0460469199 0.0004127846 -0.0018583054
-0.1148491695 0.0000000000 0.1597878202 0.0460469199 0.0004127846 -0.0018583054
-0.0777160428 0.0000000000 0.0593405659 0.0460469199 0.0004127846 -0.0018583054
-0.2011854154 0.0000000000 0.0353628914 0.0460469199 0.0004127846 -0.0018583054
0.2135157041 0.0000000000 0.0373533567 0.0460469199 0.0004127846 -0.0018583054
0.1490673572 0.1815829983 -0.0593241771 0.0456511218 -0.0000618273 -0.0018616076
0.1630132980 0.1101115441 -0.0984498950 0.0462045235 0.0000087494 -0.0021722111
-0.2828448307 0.0000000000 0.0054589901 0.0460469199 0.0004127846 -0.0018583054
-0.0395107635 0.1567584681 0.1170236511 0.0460312324 -0.0000064432 -0.0022584880
0.0648084575 0.1399610408 0.1170236511 0.0460386857 -0.0001247435 -0.0022488590
0.1661213383 0.2176688323 -0.0914628408 0.0462698665 0.0000342430 -0.0015335673
0.0395907661 0.3141954459 -0.1282130759 0.0457407902 0.0000434588 -0.0016300140
0.0355172222 0.0000000000 -0.0364815685 0.0460469199 0.0004127846 -0.0018583054
0.4175455005 0.0000000000 -0.1605456799 0.0460469199 0.0004127846 -0.0018583054
0.3447333911 0.0000000000 -0.0261547615 0.0460469199 0.0004127846 -0.0018583054
-0.0558979131 0.0256464144 0.0312658423 0.0463086596 -0.0001478231 -0.0018504166
-0.0555240599 0.0093518450 -0.0984498950 0.0459378069 -0.0000253929 -0.0021617029
0.1678183684 0.2493002139 -0.1108731886 0.0463067195 -0.0000433630 -0.0020999379
0.0902299856 0.0755395765 0.1174790899 0.0460445253 -0.0001576556 -0.0022042461
0.1650250308 0.0000000000 -0.0037542827 0.0460469199 0.0004127846 -0.0018583054
0.2148137556 0.0000000000 0.0204661368 0.0460469199 0.0004127846 -0.0018583054
0.1620063166 0.0616757757 -0.0827640813 0.0461741868 -0.0000108521 -0.0015312991
0.3893473060 0.0000000000 -0.0748334478 0.0460469199 0.0004127846 -0.0018583054
-0.0253627449 0.0000000000 -0.1282198155 0.0460469199 0.0004127846 -0.0018583054
0.1002261043 0.4684941621 -0.1617930153 0.0460899131 -0.0001661012 -0.0022274454
0.0135651905 0.1574425834 -0.0348770398 0.0460446298 -0.0004106381 -0.0018995533
0.1573559649 0.2002005170 -0.0027179957 0.0461453500 0.0002239604 -0.0018668678
-0.0528139896 0.0000000000 -0.1579935026 0.0460469199 0.0004127846 -0.0018583054
-0.2078700867 0.0000000000 0.1368796498 0.0460469199 0.0004127846 -0.0018583054
0.2468125216 0.0000000000 -0.1538861273 0.0460469199 0.0004127846 -0.0018583054
-0.4413345049 0.1046694279 -0.0018583054 0.0460469199 0.0000000000 -0.0014455208
0.1344160873 0.0884216600 0.1269304808 0.0460658287 -0.0000276751 -0.0014652651
0.1306401437 0.0000000000 -0.1124787629 0.0460469199 0.0004127846 -0.0018583054
0.1608010307 0.0992545087 0.0567110295 0.0463384969 0.0000012408 -0.0020666757
-0.0591503802 0.1500233450 -0.0827640813 0.0458569243 0.0000266692 -0.0015769167
0.1484872190 0.1908778819 -0.0763315805 0.0456456392 0.0000038079 -0.0018565618
0.3538619163 0.0000000000 -0.0711857061 0.0460469199 0.0004127846 -0.0018583054
0.2049816650 0.0000000000 -0.1336528934 0.0460469199 0.0004127846 -0.0018583054
0.0359032505 0.1600121826 0.0575291851 0.0460460465 0.0004112688 -0.0018929202
-0.4599789941 0.1707070292 -0.0018583054 0.0460469199 0.0000000000 -0.0014455208
-0.0112424778 0.4799344221 -0.1513356004 0.0461087166 0.0000333629 -0.0014710259
-0.0493063222 0.0070202507 0.1226093941 0.0463377526 -0.0000235531 -0.0019269201
0.1678183812 0.0039123800 -0.0868452039 0.0463509973 -0.0000225228 -0.0017932158
-0.0183725981 0.1675822467 -0.0856039025 0.0460438451 0.0004080669 -0.0018755527
-0.2622920693 0.0000000000 -0.0323909506 0.0460469199 0.0004127846 -0.0018583054
-0.1836234021 0.0000000000 0.1413759631 0.0460469199 0.0004127846 -0.0018583054
0.2395903284 0.0000000000 0.0791128247 0.0460469199 0.0004127846 -0.0018583054
0.0894989078 0.2785110461 -0.1238773135 0.0462532614 -0.0000549751 -0.0021347447
-0.0510988702 0.1874587035 -0.0621288085 0.0464461503 -0.0000204242 -0.0018569551
-0.1325184097 0.0000000000 0.1402661258 0.0460469199 0.0004127846 -0.0018583054
-0.0563279999 0.1546243537 0.0088740935 0.0463009318 0.0000184804 -0.0015610303
0.3403756219 0.0000000000 0.0733553567 0.0460469199 0.0004127846 -0.0018583054
-0.2194270974 0.0000000000 -0.1316203628 0.0460469199 0.0004127846 -0.0018583054
0.1553576859 0.3158320215 -0.1085141141 0.0460262865 0.0000589543 -0.0015147943
0.0527793913 0.0755395765 0.1243939621 0.0460553069 -0.0001576284 -0.0016726382
0.4107215801 0.0000000000 -0.1272789948 0.0460469199 0.0004127846 -0.0018583054
0.1275791034 0.0000000000 -0.1350322222 0.0460469199 0.0004127846 -0.0018583054
-0.0488755992 0.0000000000 -0.0209795480 0.0460469199 0.0004127846 -0.0018583054
-0.0568789249 0.0411047986 0.1065862657 0.0464098818 0.0000316944 -0.0018312259
0.1644897260 0.4908739690 -0.1389194743 0.0462122798 0.0000613476 -0.0015516543
-0.4345043109 0.0958699283 -0.0018583054 0.0460469199 0.0000000000 -0.0014455208
0.0862140565 0.0000000000 0.1672912328 0.0460469199 0.0004127846 -0.0018583054
-0.1869883877 0.0000000000 0.1178974549 0.0460469199 0.0004127846 -0.0018583054
0.0650661725 0.1651726952 -0.0713382262 0.0460477628 0.0004071913 -0.0017908853
-0.0202079894 0.0000000000 -0.1178613388 0.0460469199 0.0004127846 -0.0018583054
-0.3826887111 0.0000000000 0.0997283957 0.0460469199 0.0004127846 -0.0018583054
0.2191771564 0.0000000000 0.0024696781 0.0460469199 0.0004127846 -0.0018583054
0.1501112923 0.1580086002 -0.0827640813 0.0457526957 0.0000341245 -0.0016182769
0.0621455182 0.3889467157 -0.1467582620 0.0463692316 -0.0000316040 -0.0020499224
-0.1224684763 0.0000000000 0.1061055318 0.0460469199 0.0004127846 -0.0018583054
0.4486502441 0.0000000000 -0.0061496687 0.0460469199 0.0004127846 -0.0018583054
-0.0337807700 0.0000000000 0.1152905177 0.0460469199 0.0004127846 -0.0018583054
-0.0598858227 0.4708313434 -0.1427097155 0.0458542255 -0.0000333134 -0.0016225096
-0.0409310520 0.1623338816 0.1038251641 0.0460417692 -0.0004074774 -0.0017928939
-0.2507994806 0.0000000000 -0.0842252664 0.0460469199 0.0004127846 -0.0018583054
0.3733820363 0.0000000000 0.1116266262 0.0460469199 0.0004127846 -0.0018583054
0.1591615321 0.2043283627 0.1270474582 0.0461234147 0.0000315842 -0.0017280636
0.3729939169 0.0000000000 -0.1123077438 0.0460469199 0.0004127846 -0.0018583054
-0.2630733971 0.0000000000 -0.0025327396 0.0460469199 0.0004127846 -0.0018583054
0.1533870582 0.0618911560 0.0037179238 0.0457449622 -0.0000201781 -0.0021150512
-0.3589598466 0.0000000000 -0.0060418493 0.0460469199 0.0004127846 -0.0018583054
0.0893768065 0.1398262006 -0.0856535733 0.0460672933 -0.0001255806 -0.0014681563
0.3318178246 0.0000000000 0.0119776304 0.0460469199 0.0004127846 -0.0018583054
-0.4969105655 0.1279814955 -0.0018583054 0.0460469199 0.0000000000 -0.0014455208
-0.0495606152 0.2430135882 -0.1099174277 0.0459607544 0.0001598166 -0.0022097683
-0.0645793579 0.3727820826 -0.1335926409 0.0457896614 -0.0000362759 -0.0021462404
0.0893430053 0.0000000000 -0.1337846976 0.0460469199 0.0004127846 -0.0018583054
0.4547569312 0.0000000000 0.1319502450 0.0460469199 0.0004127846 -0.0018583054
0.0616865777 0.1674050928 0.1269304808 0.0460391393 0.0001355944 -0.0014794327
0.1478491527 0.1964347898 -0.0950367507 0.0456423254 0.0000431418 -0.0018551170
0.1547373252 0.0762174563 0.0368291092 0.0457510743 -0.0000104480 -0.0019571210
0.1625359275 0.2282572704 -0.1051263152 0.0463145277 -0.0000964636 -0.0020646110
0.1678183684 0.0566060258 -0.0866376781 0.0463794501 -0.0000018278 -0.0017333357
-0.0454534352 0.1587960879 -0.0055655785 0.0460408619 0.0004123429 -0.0018403773
0.1905360316 0.0000000000 0.0299598167 0.0460469199 0.0004127846 -0.0018583054
-0.2396799452 0.0000000000 -0.1009247255 0.0460469199 0.0004127846 -0.0018583054
-0.0111582090 0.0000000000 0.1208029328 0.0460469199 0.0004127846 -0.0018583054
-0.0523832163 0.1224681863 0.1318838957 0.0462193198 0.0000007847 -0.0015361864
0.1678183684 0.0959256773 0.1276575401 0.0463586792 0.0000014485 -0.0016958940
0.2608934537 0.0000000000 -0.1050645320 0.0460469199 0.0004127846 -0.0018583054
0.0992961296 0.4453677959 -0.1539313887 0.0463658864 -0.0000334244 -0.0020830406
0.1531884254 0.1899579217 0.0614879138 0.0456718209 0.0000564367 -0.0018340324
0.1678183684 0.0407078233 0.1137777720 0.0463965633 -0.0000090453 -0.0020294545
-0.0217202059 0.0837952679 -0.0913374170 0.0460320906 -0.0002201364 -0.0019093693
0.4720934048 0.0000000000 0.0416375334 0.0460469199 0.0004127846 -0.0018583054
0.1582960425 0.1324728583 0.0559315346 0.0460512665 0.0000040523 -0.0021491249
-0.0575225654 0.0275600783 0.0878372825 0.0463308938 -0.0001479383 -0.0018391043
0.1521325547 0.0965645308 -0.0351905051 0.0457553338 -0.0000031029 -0.0018582624
0.0184848355 0.1617341675 0.0777061411 0.0460450880 0.0004104234 -0.0019018034
0.1592632670 0.0480323751 0.1262914131 0.0459901736 0.0001257932 -0.0018312626
0.0805997335 0.1506912226 -0.0856535733 0.0460556383 -0.0000492270 -0.0014614378
0.0737183192 0.1630858958 0.1269304808 0.0460450438 0.0000713370 -0.0014678999
-0.0447656795 0.4211964172 -0.1348945853 0.0463464574 -0.0000006807 -0.0019028939
0.2643757943 0.0000000000 0.1337761947 0.0460469199 0.0004127846 -0.0018583054
0.1220458716 0.1585405289 -0.0443394632 0.0460511472 -0.0004096965 -0.0019081206
0.1488130452 0.1564103070 0.0542726553 0.0460533779 -0.0004115037 -0.0018266745
-0.2742633507 0.0000000000 0.1264391652 0.0460469199 0.0004127846 -0.0018583054
-0.0387388836 0.1577441601 0.0696242217 0.0460412053 -0.0004105836 -0.0018163396
0.1565281787 0.0251447961 0.0163042174 0.0460393965 -0.0001498945 -0.0018532178
-0.0506744335 0.1899766666 -0.0745711744 0.0464476685 -0.0000025572 -0.0018570307
-0.0632461723 0.1952264554 -0.0019350160 0.0456708496 0.0001001651 -0.0018805743
-0.0493063160 0.0355149455 0.1257165656 0.0463919414 -0.0000108967 -0.0018151875
-0.0606100223 0.0749348236 0.0664612257 0.0461163631 -0.0000087762 -0.0021933721
0.2704262225 0.0000000000 -0.1300722568 0.0460469199 0.0004127846 -0.0018583054
0.1484174935 0.4606475266 -0.1354847632 0.0457020553 0.0000437077 -0.0016919375
0.4395211394 0.0000000000 -0.1008247478 0.0460469199 0.0004127846 -0.0018583054
0.0992961296 0.2660880294 -0.1161044975 0.0462865298 0.0000301618 -0.0016706927
-0.0654475429 0.1849448215 0.0592630367 0.0456499120 -0.0000382007 -0.0018626231
-0.2464161386 0.0000000000 0.0888974049 0.0460469199 0.0004127846 -0.0018583054
0.0623916104 0.1671451500 0.1144626559 0.0460461393 0.0004061722 -0.0018569428
0.0982183272 0.0000000000 0.0499096768 0.0460469199 0.0004127846 -0.0018583054
-0.0305807575 0.1597943645 -0.0542430174 0.0460423475 -0.0004094113 -0.0019106423
0.3163811833 0.0000000000 -0.0626551311 0.0460469199 0.0004127846 -0.0018583054
-0.0146055988 0.2427753504 -0.1067594077 0.0461075026 0.0001566332 -0.0015032999
-0.0559393009 0.1386956159 0.1196390789 0.0460177311 -0.0001334735 -0.0020414847
-0.3097017275 0.0000000000 0.0582276739 0.0460469199 0.0004127846 -0.0018583054
-0.0607709765 0.1292607273 -0.0028846529 0.0457609774 0.0000013948 -0.0016869936
0.0599587288 0.1613465773 0.0980308369 0.0460475713 -0.0004082452 -0.0017976562
-0.0217395110 0.0000000000 0.1583068825 0.0460469199 0.0004127846 -0.0018583054
-0.0623614846 0.1995599752 -0.0265291150 0.0456862498 0.0001734669 -0.0018872061
-0.0583215546 0.0543464749 0.0666372527 0.0463091417 -0.0000201414 -0.0021554797
-0.0734430018 0.0000000000 -0.0158158673 0.0460469199 0.0004127846 -0.0018583054
-0.0600292291 0.4742693167 -0.1521746486 0.0458836797 -0.0000368286 -0.0021922799
-0.1315368373 0.0000000000 -0.0916499594 0.0460469199 0.0004127846 -0.0018583054
0.0873735172 0.0909337591 -0.0955604030 0.0460513194 -0.0000380166 -0.0022098657
0.4250543553 0.0000000000 -0.1504294090 0.0460469199 0.0004127846 -0.0018583054
0.3148654648 0.0000000000 0.0631833814 0.0460469199 0.0004127846 -0.0018583054
-0.1975588119 0.0000000000 0.0159521873 0.0460469199 0.0004127846 -0.0018583054
-0.0571124326 0.2295874832 -0.1078716826 0.0458168974 -0.0001316832 -0.0020875172
-0.0651874111 0.1718269315 0.0520313136 0.0456580550 -0.0001339218 -0.0018520220
0.1394901203 0.1395081720 -0.0955604030 0.0460527113 -0.0001280928 -0.0022490671
-0.2771805818 0.0000000000 0.0793617135 0.0460469199 0.0004127846 -0.0018583054
-0.0588003549 0.1442599692 0.1260362949 0.0460306223 -0.0000632064 -0.0015480883
-0.0645793451 0.2376578698 -0.1093864814 0.0457904073 -0.0000480089 -0.0021236284
0.1491379392 0.0221419060 -0.0722790597 0.0457254903 -0.0001519328 -0.0018713320
0.1158117261 0.1570327593 -0.0299592404 0.0460511881 -0.0004111297 -0.0018945767
0.0715682540 0.0843081750 -0.0856535671 0.0460620604 -0.0002087654 -0.0015084576
-0.3058841002 0.0000000000 0.0232774004 0.0460469199 0.0004127846 -0.0018583054
0.1595626769 0.1132218396 0.0248790726 0.0463360363 0.0000045216 -0.0021003040
0.0407559129 0.1617703337 -0.0463778796 0.0460464089 0.0004104916 -0.0018153964
0.0826080522 0.2353963977 -0.1211666386 0.0460741781 -0.0000059511 -0.0022165826
0.1678183684 0.1576120282 0.1293871715 0.0463977282 0.0000211944 -0.0017040672
-0.1049144619 0.0000000000 0.0191382976 0.0460469199 0.0004127846 -0.0018583054
-0.0047151517 0.0000000000 -0.1575073646 0.0460469199 0.0004127846 -0.0018583054
-0.0447656857 0.0148844296 -0.0849417758 0.0463855102 -0.0000158881 -0.0017073245
-0.0578836009 0.2688687824 -0.1003564413 0.0459284734 0.0000476448 -0.0015175302
0.4783003403 0.0000000000 -0.0038124061 0.0460469199 0.0004127846 -0.0018583054
0.1558278257 0.0070930956 -0.0827640813 0.0460772971 -0.0000281907 -0.0015328367
0.2797288912 0.0000000000 0.0701753609 0.0460469199 0.0004127846 -0.0018583054
0.2384792944 0.0000000000 0.0523526238 0.0460469199 0.0004127846 -0.0018583054
-0.3733000792 0.0000000000 0.0303853369 0.0460469199 0.0004127846 -0.0018583054
0.0790045866 0.0000000000 -0.0287602214 0.0460469199 0.0004127846 -0.0018583054
-0.0585969165 0.2002005170 0.0490540982 0.0461301682 0.0002306942 -0.0018462739
0.1593186065 0.0514651993 -0.0827640813 0.0461162037 -0.0000153106 -0.0015186043
-0.0291193264 0.0000000000 -0.1473656728 0.0460469199 0.0004127846 -0.0018583054
0.1087601810 0.1602127299 -0.0575725951 0.0460502742 -0.0004094109 -0.0019106357
0.2281003976 0.0000000000 0.0174443680 0.0460469199 0.0004127846 -0.0018583054
0.0794148012 0.2769799084 -0.1252361343 0.0461796912 -0.0000540603 -0.0021226299
0.0252045807 0.1603273011 -0.0297829554 0.0460453839 0.0004112321 -0.0018231596
0.2872572212 0.0000000000 0.0361069723 0.0460469199 0.0004127846 -0.0018583054
-0.0288355750 0.1481184870 -0.0955604030 0.0460260986 -0.0000672092 -0.0022532969
-0.0378996212 0.1567254759 -0.0263380048 0.0460413358 -0.0004113299 -0.0018922379
0.1745777285 0.0000000000 -0.0636497925 0.0460469199 0.0004127846 -0.0018583054
-0.0062497786 0.1599586824 -0.0555575431 0.0460437303 -0.0004094101 -0.0019106526
0.0947554993 0.4235286096 -0.1474171702 0.0457577924 0.0000081859 -0.0018321315
0.1100929629 0.4754200949 -0.1510688169 0.0459836953 -0.0000022455 -0.0014653452
0.1062889532 0.1613343200 -0.0955604030 0.0460634713 0.0001143248 -0.0022249245
0.1574987541 0.1160586879 -0.0338340244 0.0463550813 -0.0000006501 -0.0016819506
0.0667311911 0.1587188043 0.0351580862 0.0460480988 0.0004123528 -0.0018759581
0.0127866376 0.1673421696 -0.0856535671 0.0460294042 0.0001758718 -0.0014962128
-0.4954484355 0.0824061261 -0.0018583054 0.0460469199 0.0000000000 -0.0014455208
0.1157232623 0.4696165209 -0.1595437877 0.0461103162 -0.0001569011 -0.0022269521
0.3508512394 0.0000000000 -0.0383021582 0.0460469199 0.0004127846 -0.0018583054
0.1530545049 0.0738298864 -0.0117651351 0.0457755070 0.0000007831 -0.0015539927
0.3512300621 0.0000000000 0.0398436060 0.0460469199 0.0004127846 -0.0018583054
0.2567676863 0.0000000000 0.0419396517 0.0460469199 0.0004127846 -0.0018583054
0.0394423668 0.2686263115 -0.1208659564 0.0456894187 0.0000051210 -0.0018085817
-0.3894216547 0.0937828643 -0.0018583054 0.0460469199 0.0000000000 -0.0014455208
-0.4092121858 0.1099064492 -0.0018583054 0.0460469199 0.0000000000 -0.0014455208
0.1487039285 0.0491735102 -0.0827640813 0.0458429408 -0.0000136797 -0.0015230578
0.2734874647 0.0000000000 0.1619250461 0.0460469199 0.0004127846 -0.0018583054
-0.3604396632 0.0000000000 -0.1604513772 0.0460469199 0.0004127846 -0.0018583054
0.1484174935 0.5047261866 -0.1532706412 0.0458377021 -0.0000273094 -0.0020804078
0.0966785004 0.1599058749 0.0865900795 0.0460496707 -0.0004094216 -0.0018060555
0.1646478081 0.0471788873 0.1033860517 0.0464464929 0.0000167442 -0.0018609905
0.0924914387 0.1386956159 -0.0953922432 0.0460428131 -0.0001337121 -0.0022350452
0.1226425186 0.1577171392 0.0694081294 0.0460516422 -0.0004101811 -0.0018125292
0.4775039463 0.0000000000 0.0630021520 0.0460469199 0.0004127846 -0.0018583054
0.0447646232 0.1419030610 0.1269304808 0.0460577881 -0.0001110469 -0.0014666950
0.1377450005 0.1608198386 0.0668171780 0.0460525569 0.0004112160 -0.0018936554
0.1547318707 0.0809068529 0.0088740943 0.0458493868 -0.0000000681 -0.0015446473
-0.0525674124 0.2905295921 -0.1041189937 0.0460374432 0.0000582101 -0.0015025263
-0.4131583803 0.0657097724 -0.0018583054 0.0460469199 0.0000000000 -0.0014455208
0.1608501471 0.1676417054 -0.0827729685 0.0461578636 0.0000373702 -0.0015168912
0.3655860664 0.0000000000 0.1321922874 0.0460469199 0.0004127846 -0.0018583054
-0.0252310352 0.1635629889 -0.0955603968 0.0460407880 0.0000438348 -0.0022617470
0.0391235031 0.4670154542 -0.1547414508 0.0460510804 -0.0000703195 -0.0014948329
0.4651864184 0.0000000000 -0.0576419743 0.0460469199 0.0004127846 -0.0018583054
0.0199071900 0.0876181926 0.1269304808 0.0460422918 -0.0000137040 -0.0014763253
0.1413805481 0.0000000000 0.0342288958 0.0460469199 0.0004127846 -0.0018583054
-0.0588003611 0.1499033316 -0.0937234563 0.0460175664 -0.0000243650 -0.0021158384
0.3603484844 0.0000000000 -0.1308634984 0.0460469199 0.0004127846 -0.0018583054
-0.4262641893 0.2744744795 -0.0018583054 0.0460469199 0.0000000000 -0.0014455208
0.2932668597 0.0000000000 -0.1469174651 0.0460469199 0.0004127846 -0.0018583054
-0.4008984969 0.0540993560 -0.0018583054 0.0460469199 0.0000000000 -0.0014455208
-0.0447656857 0.3732679561 -0.1325492792 0.0463005632 -0.0000437056 -0.0021017059
0.1136329233 0.0000000000 0.1077499813 0.0460469199 0.0004127846 -0.0018583054
0.0737210374 0.1582634790 0.0066846201 0.0460481661 0.0004124820 -0.0018440338
0.3930973622 0.0000000000 -0.1141016205 0.0460469199 0.0004127846 -0.0018583054
0.0710074209 0.0000000000 -0.0198519926 0.0460469199 0.0004127846 -0.0018583054
-0.4585982920 0.0000091894 -0.0018583054 0.0460469199 0.0000000000 -0.0014455208
0.1550220467 0.0811927776 0.0497028185 0.0457616494 -0.0000016804 -0.0016938776
-0.0282465429 0.0000000000 -0.0006757936 0.0460469199 0.0004127846 -0.0018583054
-0.0447656857 0.3474676358 -0.1290457627 0.0463029784 -0.0000509442 -0.0021265419
0.0927599129 0.2388217741 -0.1202084591 0.0460879854 0.0000693730 -0.0022158668
0.0299483216 0.2527317878 -0.1180736141 0.0456941072 -0.0000011030 -0.0018330479
0.1435108393 0.0000000000 -0.1172966449 0.0460469199 0.0004127846 -0.0018583054
-0.0057289514 0.1396273792 0.1170236511 0.0460225347 -0.0001269143 -0.0022481465
-0.0497754102 0.4732225408 -0.1519912587 0.0460969506 -0.0000530961 -0.0022220305
0.1652847342 0.1748291558 0.1138723142 0.0464374818 -0.0001125478 -0.0018431025
0.1250579408 0.0000000000 -0.0598071846 0.0460469199 0.0004127846 -0.0018583054
-0.0575985265 0.2002005170 0.1141541886 0.0463505440 0.0002346540 -0.0018208997
0.1924931556 0.0000000000 0.1004597129 0.0460469199 0.0004127846 -0.0018583054
0.1304478984 0.0000000000 -0.1531806091 0.0460469199 0.0004127846 -0.0018583054
-0.0355141177 0.1671369616 0.1144156431 0.0460423153 0.0003922341 -0.0017807060
0.1488752691 0.0165233107 0.1318838957 0.0457044586 -0.0000151459 -0.0016575633
0.1484174873 0.0871812716 0.1189618034 0.0457182992 0.0000008396 -0.0019549907
-0.3907860811 0.2250319126 -0.0018583054 0.0460469199 0.0000000000 -0.0014455208
0.1678183556 0.2039133107 0.1133918701 0.0462469714 0.0000188878 -0.0021886511
0.4383380872 0.0000000000 0.0644930416 0.0460469199 0.0004127846 -0.0018583054
0.1464897339 0.4913078663 -0.1568841565 0.0461390699 0.0000081356 -0.0022466803
0.4851013590 0.0000000000 -0.0885076925 0.0460469199 0.0004127846 -0.0018583054
-0.0139597726 0.1518413709 -0.0955604030 0.0460325195 -0.0000410721 -0.0022556728
-0.0119361106 0.0000000000 0.0576976726 0.0460469199 0.0004127846 -0.0018583054
0.1599754615 0.1633298779 0.0381537914 0.0463206654 0.0000090491 -0.0017229525
0.0522825151 0.0994810816 0.1178586557 0.0460569526 0.0001945644 -0.0021550075
0.2913597718 0.0000000000 0.0804308619 0.0460469199 0.0004127846 -0.0018583054
0.1647081233 0.3201013842 -0.1092557101 0.0462398476 0.0000472630 -0.0015308004
-0.0905724403 0.0000000000 -0.1332606672 0.0460469199 0.0004127846 -0.0018583054
-0.0503927097 0.0000000000 0.1052654256 0.0460469199 0.0004127846 -0.0018583054
-0.3150369128 0.0000000000 0.1264810133 0.0460469199 0.0004127846 -0.0018583054
0.1422475683 0.0000000000 0.0770915371 0.0460469199 0.0004127846 -0.0018583054
-0.0572681465 0.2002005170 0.1032772244 0.0463508429 0.0002274678 -0.0018228241
0.1455885310 0.0896201119 0.1269304808 0.0460669437 -0.0000155892 -0.0014641299
-0.3839540733 0.0000000000 -0.0554970516 0.0460469199 0.0004127846 -0.0018583054
0.0714561751 0.1591453577 0.0451923207 0.0460483803 0.0004122079 -0.0018788794
0.1958844186 0.0000000000 0.0553477874 0.0460469199 0.0004127846 -0.0018583054
-0.4182551007 0.3070199882 -0.0018583054 0.0460469199 0.0000000000 -0.0014455208
-0.0036862011 0.0000000000 0.0518019944 0.0460469199 0.0004127846 -0.0018583054
0.3278403389 0.0000000000 0.1389248277 0.0460469199 0.0004127846 -0.0018583054
0.2386276512 0.0000000000 -0.0245515743 0.0460469199 0.0004127846 -0.0018583054
0.2918470814 0.0000000000 0.0280406545 0.0460469199 0.0004127846 -0.0018583054
0.0724895334 0.1566031951 -0.0955604030 0.0460535905 0.0000289123 -0.0022437318
-0.0543271889 0.2002005170 -0.0914119985 0.0461332138 0.0001486706 -0.0018711438
0.0884806648 0.4296517994 -0.1477780293 0.0461706294 0.0000559550 -0.0015816150
0.1573359733 0.4770876599 -0.1526683571 0.0460821535 -0.0000460020 -0.0022083483
0.1095846665 0.0000000000 0.0350576392 0.0460469199 0.0004127846 -0.0018583054
0.0513575618 0.4714441208 -0.1590588591 0.0462586813 0.0000459933 -0.0016438048
-0.0348977688 0.2447812506 -0.1068644371 0.0460592849 0.0002025179 -0.0017786285
-0.0674755135 0.0463553400 0.1147226743 0.0456486596 0.0000054855 -0.0018569638
0.3264185954 0.0000000000 -0.1350393142 0.0460469199 0.0004127846 -0.0018583054
-0.0588635296 0.1303172531 0.0297488487 0.0461172473 0.0000069488 -0.0015322832
0.0159136462 0.2679175183 -0.1195651962 0.0463175947 -0.0000044395 -0.0018602999
0.4897557672 0.0000000000 0.0296162412 0.0460469199 0.0004127846 -0.0018583054
-0.0561100872 0.0758583481 0.0166308827 0.0463333358 -0.0000077641 -0.0018517838
0.1490552762 0.4093390644 -0.1247565847 0.0457744032 0.0000571120 -0.0015948378
0.4879514974 0.0000000000 0.0396617091 0.0460469199 0.0004127846 -0.0018583054
-0.1672011068 0.0000000000 0.0153944534 0.0460469199 0.0004127846 -0.0018583054
0.0344889519 0.2971890943 -0.1300007803 0.0463557311 -0.0000510466 -0.0021263095
0.1617473059 0.3409056358 -0.1288116689 0.0461765735 -0.0000535472 -0.0021934311
0.0761801936 0.4204739939 -0.1516363453 0.0457216696 -0.0000343007 -0.0020443168
-0.1099834812 0.0000000000 -0.0009925512 0.0460469199 0.0004127846 -0.0018583054
-0.0537120933 0.0509225725 0.0033873643 0.0463944639 0.0001592374 -0.0018444238
-0.0645793451 0.3816217796 -0.1291247218 0.0457904862 -0.0000024036 -0.0019088814
-0.3020911127 0.0000000000 -0.0420615895 0.0460469199 0.0004127846 -0.0018583054
0.1655752380 0.0332690974 0.1236616625 0.0464363169 -0.0001055304 -0.0018381933
0.1614379696 0.1835643588 0.0069327222 0.0464432133 -0.0000478170 -0.0018712288
0.4595622538 0.0000000000 -0.1349460575 0.0460469199 0.0004127846 -0.0018583054
0.1840401795 0.0000000000 0.0608272166 0.0460469199 0.0004127846 -0.0018583054
0.2232865597 0.0000000000 -0.1596643555 0.0460469199 0.0004127846 -0.0018583054
0.1187044684 0.0000000000 -0.0964092515 0.0460469199 0.0004127846 -0.0018583054
-0.2152031856 0.0000000000 -0.1443344372 0.0460469199 0.0004127846 -0.0018583054
-0.4990008417 0.1876278457 -0.0018583054 0.0460469199 0.0000000000 -0.0014455208
0.4792347995 0.0000000000 0.1035296029 0.0460469199 0.0004127846 -0.0018583054
0.0384081127 0.0000000000 -0.1375568365 0.0460469199 0.0004127846 -0.0018583054
0.1203659424 0.2410821626 -0.1060415762 0.0459833977 0.0001193761 -0.0015033259
0.1554348312 0.1088474541 0.0596539524 0.0457551679 0.0000038756 -0.0017453531
-0.0286575575 0.1587644942 0.0362087229 0.0460418971 0.0004123578 -0.0018758541
0.0922634800 0.2435840643 -0.1098776080 0.0460099010 0.0001778255 -0.0015019369
0.0456036764 0.4804030374 -0.1664477760 0.0460468906 -0.0000661496 -0.0022464376
0.2119970503 0.0000000000 0.0623661138 0.0460469199 0.0004127846 -0.0018583054
0.1361381853 0.1555737533 0.0387740452 0.0460524525 -0.0004123862 -0.0018414914
-0.3330621748 0.0000000000 -0.0307683547 0.0460469199 0.0004127846 -0.0018583054
0.2364127260 0.0000000000 -0.1605581509 0.0460469199 0.0004127846 -0.0018583054
0.0425252005 0.0000000000 -0.1596927745 0.0460469199 0.0004127846 -0.0018583054
-0.0586157618 0.1903922602 -0.1025777407 0.0457721676 0.0001097375 -0.0018928612
-0.1512699125 0.0000000000 0.0727417668 0.0460469199 0.0004127846 -0.0018583054
0.0768495890 0.1602460618 -0.0288486254 0.0460487263 0.0004112300 -0.0018231336
0.1220775598 0.1501831405 0.1170236511 0.0460600820 -0.0000088295 -0.0022369671
0.2747054611 0.0000000000 -0.0337916162 0.0460469199 0.0004127846 -0.0018583054
0.1485932683 0.1827865204 -0.0732225511 0.0456503623 -0.0000531993 -0.0018631073
0.2369234536 0.0000000000 -0.0881501150 0.0460469199 0.0004127846 -0.0018583054
-0.0687071908 0.1336272645 0.1311887074 0.0457341918 0.0000112777 -0.0016325118
0.0112097943 0.0000000000 -0.1019735293 0.0460469199 0.0004127846 -0.0018583054
0.1650134035 0.0841899630 -0.0827640813 0.0462260837 -0.0000033365 -0.0015345514
-0.2480667985 0.0000000000 0.0989580150 0.0460469199 0.0004127846 -0.0018583054
0.3363535922 0.0000000000 -0.1467408652 0.0460469199 0.0004127846 -0.0018583054
0.1594647463 0.0308046975 -0.0827640813 0.0461441798 -0.0000199028 -0.0015402441
0.1590764382 0.1774954758 -0.0587178556 0.0464379854 -0.0000878240 -0.0018778936
-0.0588614070 0.1033087112 0.0351288450 0.0461663645 -0.0000036342 -0.0021778539
0.4852947511 0.0000000000 -0.0350273747 0.0460469199 0.0004127846 -0.0018583054
-0.3980966308 0.0688277394 -0.0018583054 0.0460469199 0.0000000000 -0.0014455208
0.1678183684 0.4724752757 -0.1439414304 0.0463069527 0.0000133577 -0.0018664224
0.1484174935 0.0560240169 -0.0888979407 0.0457506702 -0.0000042174 -0.0017661541
0.1007134390 0.2421120077 -0.1088758673 0.0460038235 0.0001443619 -0.0015022626
0.2076729028 0.0000000000 -0.0948438185 0.0460469199 0.0004127846 -0.0018583054
-0.0560889176 0.0228850140 -0.0827640875 0.0460829189 -0.0000240179 -0.0015231536
0.0551594245 0.0840391241 0.1269304808 0.0460533288 -0.0000719785 -0.0014691593
-0.4900990661 0.0344215762 -0.0018583054 0.0460469199 0.0000000000 -0.0014455208
0.1320894060 0.0000000000 0.0372094968 0.0460469199 0.0004127846 -0.0018583054
0.2052738567 0.0000000000 -0.0265676154 0.0460469199 0.0004127846 -0.0018583054
0.0340512352 0.0883883338 0.1269304808 0.0460443388 -0.0000123934 -0.0014724538
-0.1697791962 0.0000000000 0.0308803750 0.0460469199 0.0004127846 -0.0018583054
-0.4916980016 0.3037407392 -0.0018583054 0.0460469199 0.0000000000 -0.0014455208
-0.3250923639 0.0000000000 -0.0109051314 0.0460469199 0.0004127846 -0.0018583054
0.1583938093 0.0219353370 -0.0791621619 0.0464314708 -0.0001488563 -0.0018729398
-0.2407924780 0.0000000000 -0.1177080690 0.0460469199 0.0004127846 -0.0018583054
-0.4823083113 0.2082459991 -0.0018583054 0.0460469199 0.0000000000 -0.0014455208
-0.2634570316 0.0000000000 0.1329136020 0.0460469199 0.0004127846 -0.0018583054
-0.1943363761 0.0000000000 0.0423720060 0.0460469199 0.0004127846 -0.0018583054
-0.0174633018 0.0000000000 0.1340944875 0.0460469199 0.0004127846 -0.0018583054
-0.2634333993 0.0000000000 -0.0585234811 0.0460469199 0.0004127846 -0.0018583054
0.1678183684 0.0602067989 -0.0972243463 0.0462865484 -0.0000071325 -0.0021334915
-0.0568467958 0.1863293026 0.1063763210 0.0464148550 0.0000421515 -0.0018293551
0.0488669559 0.4965474895 -0.1690308791 0.0460469216 0.0000612523 -0.0022664395
-0.0667258930 0.0345529961 0.0942534573 0.0456573574 -0.0000902776 -0.0018465253
0.0232012063 0.0994810816 -0.0886589781 0.0460401412 0.0003083488 -0.0017474723
0.0483922574 0.0000000000 0.1108692333 0.0460469199 0.0004127846 -0.0018583054
-0.0241184768 0.1461283457 0.1269304808 0.0460386997 -0.0000668302 -0.0014697764
0.3653161845 0.0000000000 -0.1047375472 0.0460469199 0.0004127846 -0.0018583054
0.0049093119 0.1568760250 0.0598523771 0.0460441093 -0.0004112412 -0.0018232736
0.0813125357 0.1583660077 -0.0430015693 0.0460486701 -0.0004097551 -0.0019076744
0.0399788654 0.4096924154 -0.1464443146 0.0458614191 0.0000659828 -0.0015363218
-0.0585424463 0.1365545729 -0.0381000048 0.0458718155 0.0000074309 -0.0021185945
-0.0324029719 0.1643398194 0.0983320103 0.0460422472 0.0004077742 -0.0019221223
0.0837924240 0.1627986419 -0.0750646943 0.0460489384 -0.0004070786 -0.0019264090
-0.0528554596 0.2002005170 -0.0258784955 0.0463911220 0.0001339329 -0.0018433886
-0.0493063160 0.2012597135 0.1300501865 0.0462540457 0.0000188742 -0.0015445408
-0.3412105633 0.0000000000 0.0614290721 0.0460469199 0.0004127846 -0.0018583054
0.0987961158 0.1651640032 0.1269304808 0.0460484852 0.0000779742 -0.0014634154
0.0667304939 0.0000000000 0.1537756876 0.0460469199 0.0004127846 -0.0018583054
0.4453830382 0.0000000000 0.0851388016 0.0460469199 0.0004127846 -0.0018583054
-0.0161197995 0.4886367592 -0.1623422904 0.0459833973 -0.0000062079 -0.0022504577
0.0922611622 0.0000000000 0.1075963458 0.0460469199 0.0004127846 -0.0018583054
0.1595626769 0.1353418420 0.0246317552 0.0463590110 0.0000088274 -0.0020970113
0.0318530285 0.0000000000 0.1289602276 0.0460469199 0.0004127846 -0.0018583054
0.1140836254 0.1552069987 0.0227321801 0.0460505305 -0.0004127260 -0.0018566645
0.0444251678 0.1617232329 0.0775747840 0.0460465558 0.0004105254 -0.0019008375
0.1659179193 0.0000000000 0.0736841243 0.0460469199 0.0004127846 -0.0018583054
0.0165558664 0.0000000000 -0.0184098637 0.0460469199 0.0004127846 -0.0018583054
0.0025821708 0.3006586361 -0.1215009301 0.0457981747 0.0000460296 -0.0016096860
0.1785390268 0.0000000000 -0.0178854903 0.0460469199 0.0004127846 -0.0018583054
-0.0278488056 0.1569000602 0.1269304808 0.0460293221 0.0000727537 -0.0014899975
0.2491344092 0.0000000000 -0.1115231658 0.0460469199 0.0004127846 -0.0018583054
-0.0407763210 0.0994810816 -0.0875358573 0.0460289890 0.0003018495 -0.0017144396
0.2559184849 0.0000000000 0.0615035467 0.0460469199 0.0004127846 -0.0018583054
0.0841171196 0.0000000000 -0.0591497818 0.0460469199 0.0004127846 -0.0018583054
0.0492847117 0.0000000000 -0.1052714725 0.0460469199 0.0004127846 -0.0018583054
-0.2170279130 0.0000000000 -0.1081413758 0.0460469199 0.0004127846 -0.0018583054
0.1497390390 0.0585118225 -0.0984498950 0.0457991154 -0.0000080113 -0.0021441319
0.1533709084 0.1446528502 -0.0042960356 0.0457658636 0.0000068460 -0.0018925892
-0.3951538781 0.1495027663 -0.0018583054 0.0460469199 0.0000000000 -0.0014455208
-0.0601234182 0.2002005298 -0.0590896932 0.0457739971 0.0002217726 -0.0018878087
0.1637956085 0.0276898260 0.0913407362 0.0463816486 -0.0001446616 -0.0018387980
0.1368652571 0.2322189344 -0.1132135694 0.0461233218 -0.0000749076 -0.0022109452
0.0778504294 0.0000000000 -0.0755604188 0.0460469199 0.0004127846 -0.0018583054
0.1340200445 0.1512379029 -0.0955604030 0.0460609005 0.0000070438 -0.0022341201
0.1465945799 0.0000000000 -0.0885668739 0.0460469199 0.0004127846 -0.0018583054
0.4135505805 0.0000000000 0.1002732491 0.0460469199 0.0004127846 -0.0018583054
0.0641193995 0.1552069987 0.0129446282 0.0460478260 -0.0004127412 -0.0018583054
0.1618935088 0.0503335723 -0.0984498950 0.0461057855 -0.0000195156 -0.0022390607
-0.0558094112 0.1988558683 0.0759646621 0.0464012501 0.0001815534 -0.0018256392
0.0254076897 0.4032426565 -0.1492300816 0.0463498576 -0.0000433316 -0.0021272717
0.4751116901 0.0000000000 0.1393667119 0.0460469199 0.0004127846 -0.0018583054
0.4279616849 0.0000000000 -0.1598542579 0.0460469199 0.0004127846 -0.0018583054
0.1375331978 0.1674305389 0.1161036662 0.0460493095 0.0004120956 -0.0018730876
0.3368831527 0.0000000000 -0.0112229710 0.0460469199 0.0004127846 -0.0018583054
-0.0537543509 0.0268077838 0.0147511922 0.0464331752 -0.0001325984 -0.0018523869
0.0047682486 0.1602738133 -0.0291678445 0.0460440837 0.0004112420 -0.0018232732
0.4050174236 0.0000000000 -0.0293269783 0.0460469199 0.0004127846 -0.0018583054
-0.0601876137 0.0985319215 -0.0151956745 0.0457204275 -0.0000006869 -0.0019661552
0.1504382457 0.2418948070 -0.0956709686 0.0459143579 0.0000576470 -0.0015049581
0.1521325547 0.0453568430 -0.0351298212 0.0457557693 -0.0000147529 -0.0018514891
0.1630468441 0.0303036097 0.0526472719 0.0464353308 -0.0001122601 -0.0018516472
-0.4597923040 0.1142864778 -0.0018583054 0.0460469199 0.0000000000 -0.0014455208
0.1505954902 0.0357319604 -0.0085209455 0.0456540600 -0.0000496167 -0.0018497062
-0.0178937792 0.1392468311 0.1170236511 0.0460194421 -0.0001295590 -0.0022478242
0.1241070168 0.0000000000 0.0028574826 0.0460469199 0.0004127846 -0.0018583054
0.1144844111 0.0000000000 0.1171591464 0.0460469199 0.0004127846 -0.0018583054
0.1492586705 0.0000000000 -0.1502316332 0.0460469199 0.0004127846 -0.0018583054
0.1678183684 0.2535122589 -0.0990783244 0.0463059860 0.0000274560 -0.0015954797
0.1346886902 0.4846829563 -0.1583754365 0.0461235979 -0.0000436251 -0.0022423069
0.0448970928 0.0000000000 0.1420309032 0.0460469199 0.0004127846 -0.0018583054
0.0882186560 0.0000000000 0.0487100278 0.0460469199 0.0004127846 -0.0018583054
0.2506241401 0.0000000000 -0.0867713720 0.0460469199 0.0004127846 -0.0018583054
0.0587531687 0.4205054617 -0.1485086283 0.0459469509 0.0000706691 -0.0015117533
0.4225229762 0.0000000000 -0.0723212289 0.0460469199 0.0004127846 -0.0018583054
-0.4701364575 0.1779896888 -0.0018583054 0.0460469199 0.0000000000 -0.0014455208
0.0661401455 0.1640437983 -0.0822872338 0.0460461026 -0.0003961547 -0.0019672743
0.1497245020 0.2002005170 -0.0563719951 0.0456960625 0.0001124875 -0.0018484212
0.1572544442 0.1713055970 0.0999737450 0.0458688975 -0.0001365941 -0.0018417333
0.0366498069 0.1386956159 -0.0897088341 0.0460466491 -0.0001338309 -0.0017875623
-0.2577715190 0.0000000000 -0.1499286460 0.0460469199 0.0004127846 -0.0018583054
-0.0516494051 0.3225244276 -0.1255916017 0.0460963092 -0.0000593258 -0.0021836097
0.4727812108 0.0000000000 0.0299613221 0.0460469199 0.0004127846 -0.0018583054
-0.0105708088 0.1477973217 0.1170236511 0.0460292123 -0.0000694886 -0.0022531594
0.1736016606 0.0000000000 0.1249631153 0.0460469199 0.0004127846 -0.0018583054
-0.1869581289 0.0000000000 -0.0679429448 0.0460469199 0.0004127846 -0.0018583054
0.0254076914 0.3936226898 -0.1443576667 0.0463901920 -0.0000004623 -0.0018720969
-0.1317472353 0.0000000000 0.0679803142 0.0460469199 0.0004127846 -0.0018583054
0.1605372077 0.0274894896 -0.0177906617 0.0464344429 -0.0001178640 -0.0018651555
0.3047484885 0.0000000000 -0.1389977407 0.0460469199 0.0004127846 -0.0018583054
-0.1927331576 0.0000000000 0.1008950653 0.0460469199 0.0004127846 -0.0018583054
0.0301655318 0.1552855549 -0.0955604030 0.0460446694 -0.0000169568 -0.0022580608
-0.3791701156 0.0000000000 0.1143235327 0.0460469199 0.0004127846 -0.0018583054
0.1525453392 0.1390701931 -0.0228696105 0.0457655057 0.0000140087 -0.0016423695
0.3204297674 0.0000000000 0.1024326651 0.0460469199 0.0004127846 -0.0018583054
-0.0363779255 0.0000000000 0.1425534848 0.0460469199 0.0004127846 -0.0018583054
-0.0591790955 0.1571718070 0.0351044065 0.0460682906 0.0000074499 -0.0021184860
-0.0575163175 0.0282896502 0.1094308991 0.0463879827 -0.0001478380 -0.0018347519
0.2901094003 0.0000000000 0.1559718051 0.0460469199 0.0004127846 -0.0018583054
0.0627168826 0.1566264497 0.0568663212 0.0460478317 -0.0004113869 -0.0018251390
0.1579115387 0.1513435176 -0.0260505102 0.0463890424 0.0000098816 -0.0019235691
0.1484174935 0.0442442441 0.1132701936 0.0458092968 -0.0000191454 -0.0021512573
0.0619869953 0.0000000000 -0.0693173795 0.0460469199 0.0004127846 -0.0018583054
-0.0645793451 0.3617914165 -0.1190135910 0.0457911091 0.0000327367 -0.0016409256
-0.2942475256 0.0000000000 -0.1430104604 0.0460469199 0.0004127846 -0.0018583054
0.1534908714 0.4962877856 -0.1398598669 0.0458636324 0.0000582728 -0.0016136901
-0.0655543167 0.0509492091 0.0607147617 0.0456613568 0.0000991467 -0.0018760060
-0.1605943490 0.0000000000 -0.0934984326 0.0460469199 0.0004127846 -0.0018583054
0.0374637207 0.0000000000 0.1068826900 0.0460469199 0.0004127846 -0.0018583054
0.4893348194 0.0000000000 -0.0226995424 0.0460469199 0.0004127846 -0.0018583054
0.4805256078 0.0000000000 0.0507397622 0.0460469199 0.0004127846 -0.0018583054
0.0641609232 0.0000000000 -0.0584174318 0.0460469199 0.0004127846 -0.0018583054
0.0181639570 0.0000000000 0.0642098127 0.0460469199 0.0004127846 -0.0018583054
-0.0251207277 0.0000000000 0.0777102731 0.0460469199 0.0004127846 -0.0018583054
0.1363444327 0.1386956031 0.1175065640 0.0460548990 -0.0001338371 -0.0022106063
0.0806879452 0.0000000000 0.0652299326 0.0460469199 0.0004127846 -0.0018583054
0.1537223193 0.1813789741 0.0771397528 0.0456609106 -0.0000427777 -0.0018374028
-0.0541286697 0.2002005170 0.0264253772 0.0464133496 0.0001631997 -0.0018326624
-0.0447656857 0.2340116145 -0.0960799927 0.0462581343 0.0000443636 -0.0015779751
0.0349191482 0.4978731669 -0.1612761525 0.0460597711 0.0001618516 -0.0016598662
-0.0571613286 0.2108788489 -0.1060332495 0.0459919750 -0.0000608944 -0.0021582445
0.1484174935 0.1533358000 0.1307267561 0.0458031170 0.0000099836 -0.0015694354
0.0923669218 0.4849036086 -0.1549457771 0.0460104603 0.0000774376 -0.0014746394
0.0699227432 0.0000000000 -0.0861331984 0.0460469199 0.0004127846 -0.0018583054
0.1572187314 0.0614779054 0.1318838957 0.0459844136 -0.0000150708 -0.0015371264
0.0824382232 0.0000000000 0.0201977728 0.0460469199 0.0004127846 -0.0018583054
0.0435335514 0.3670001006 -0.1382939608 0.0462821274 0.0000510156 -0.0015854597
-0.2832862864 0.0000000000 -0.0565343982 0.0460469199 0.0004127846 -0.0018583054
0.0019366063 0.0976665958 -0.0856535733 0.0460343973 0.0002046276 -0.0015531994
0.1488458925 0.1622554389 0.1318838957 0.0458340279 0.0000101244 -0.0015252237
-0.0768173848 0.0000000000 -0.1466281960 0.0460469199 0.0004127846 -0.0018583054
0.3953963737 0.0000000000 -0.0377442852 0.0460469199 0.0004127846 -0.0018583054
0.0010642228 0.0000000000 0.0711040131 0.0460469199 0.0004127846 -0.0018583054
-0.2671883684 0.0000000000 -0.1592438110 0.0460469199 0.0004127846 -0.0018583054
-0.0500049811 0.0000000000 0.0738054607 0.0460469199 0.0004127846 -0.0018583054
0.3576306667 0.0000000000 0.1404446155 0.0460469199 0.0004127846 -0.0018583054
-0.1227397690 0.0000000000 0.0234967112 0.0460469199 0.0004127846 -0.0018583054
-0.1861461899 0.0000000000 0.0922683239 0.0460469199 0.0004127846 -0.0018583054
-0.4670309991 0.0790102964 -0.0018583054 0.0460469199 0.0000000000 -0.0014455208
-0.2366237167 0.0000000000 -0.0276179024 0.0460469199 0.0004127846 -0.0018583054
0.4746083571 0.0000000000 -0.1206383759 0.0460469199 0.0004127846 -0.0018583054
0.2963245998 0.0000000000 0.1487699816 0.0460469199 0.0004127846 -0.0018583054
0.1484174935 0.0669359320 -0.0859037410 0.0457754703 -0.0000021977 -0.0016627392
-0.0588003611 0.1652036966 -0.0926377995 0.0460290732 0.0001010530 -0.0020434463
0.1678183684 0.0531341596 0.1249218471 0.0463458048 -0.0000108591 -0.0017326723
-0.4875890515 0.2893979618 -0.0018583054 0.0460469199 0.0000000000 -0.0014455208
-0.0508328809 0.0352124462 -0.0719541091 0.0464423341 -0.0000348506 -0.0018615292
0.1484174935 0.0637046470 0.1293956492 0.0457106908 -0.0000043817 -0.0016878266
0.1630688893 0.1901326951 0.0522721593 0.0464471756 -0.0000002576 -0.0018686729
0.1180727635 0.1417354300 0.1170236511 0.0460523286 -0.0001124050 -0.0022503376
0.0769138348 0.1555913639 -0.0078092670 0.0460487481 -0.0004123701 -0.0018755106
-0.3503509301 0.0000000000 0.0006288389 0.0460469199 0.0004127846 -0.0018583054
-0.0559363846 0.1219296692 -0.0325333369 0.0461748101 0.0000075333 -0.0015382512
0.2210241931 0.0000000000 -0.0683925068 0.0460469199 0.0004127846 -0.0018583054
0.0119834063 0.1592647284 -0.0500060046 0.0460447738 -0.0004094625 -0.0019102403
-0.0311505848 0.0000000000 0.1336814635 0.0460469199 0.0004127846 -0.0018583054
-0.0500707637 0.1583810611 -0.0431168906 0.0460410059 -0.0004097267 -0.0019080199
-0.0382086618 0.0000000000 0.0618538745 0.0460469199 0.0004127846 -0.0018583054
