-0.0378967838 0.0274188233 0.2092434614 0.0129942152 -0.0003374878 0.0161650611
0.4099210710 0.0225461170 0.1306973516 0.0129934744 -0.0004601115 0.0158636264
-0.2830689449 0.0397697762 0.2114267796 0.0129939488 -0.0000955592 0.0163104753
0.2635981436 0.2358714378 -0.2275456538 0.0129930751 0.0000002770 0.0154002600
-0.3877316184 0.0225461170 0.1245586210 0.0129937478 -0.0004601143 0.0158629703
-0.0099455532 0.2976538126 -0.1302277906 0.0131461747 0.0000087327 0.0162917937
0.4308013700 0.0265145197 -0.2264106473 0.0129911881 -0.0003666376 0.0155897205
0.4628896570 0.0675225402 -0.0335095271 0.0134298821 -0.0001440412 0.0158603844
-0.3776098268 0.2820723918 -0.2272073001 0.0129928928 0.0000048239 0.0154002862
0.1427739224 0.3505745999 -0.2288758425 0.0129905715 -0.0000030985 0.0154003033
-0.1305058555 0.1749943721 -0.2275456538 0.0129929099 0.0000000000 0.0154002595
-0.3576500867 0.2082080186 0.0517672737 0.0129631899 0.0004590928 0.0158632008
-0.1397277157 0.0225461170 -0.0535726333 0.0129930037 -0.0004601235 0.0158608822
0.1937615481 0.0229399571 0.0493165347 0.0129919836 -0.0004601225 0.0158606881
-0.3577434088 0.0232178003 -0.1830990100 0.0129926816 -0.0004598120 0.0158451547
0.0541728293 0.0265699873 0.2084930623 0.0129929172 -0.0003584221 0.0161438811
0.0863253479 0.1465207636 0.2290912596 0.0129876833 0.0000442001 0.0163170850
0.3656344770 0.1501978167 0.2220172755 0.0130286606 0.0000726556 0.0163125145
0.4530381721 0.0423465098 0.0723574952 0.0134261492 -0.0001549208 0.0158604792
0.2781812702 0.0246156029 0.1981627204 0.0129928096 -0.0004262302 0.0159775349
0.2238725536 0.0341961686 -0.2275456538 0.0129929761 -0.0001571156 0.0154819529
-0.3321477855 0.0225461170 0.0279922074 0.0129930879 -0.0004601248 0.0158605914
0.0865931268 0.0230805552 0.1706755695 0.0129929099 -0.0004596334 0.0158772958
-0.0889628580 0.2116030543 0.1002480560 0.0130013858 0.0004591871 0.0158835227
-0.3867218657 0.3904835211 -0.1554782646 0.0130100426 0.0003167867 0.0161893805
-0.4853865429 0.3192567072 -0.1930000208 0.0125341383 0.0000332486 0.0158557841
-0.2858366588 0.2486436654 -0.1368228339 0.0130125232 0.0000115841 0.0163198885
-0.0767395212 0.3018549231 -0.2277677123 0.0129943984 -0.0000038908 0.0154002867
-0.3863172623 0.0225461170 -0.1252856049 0.0129935692 -0.0004601147 0.0158575675
0.4833399932 0.1754969738 -0.1185689170 0.0134515968 -0.0000362279 0.0158603844
-0.0233945775 0.2448353345 -0.2275456538 0.0129922910 0.0000000317 0.0154002683
-0.4864837207 0.2447134231 -0.0683049337 0.0128054039 0.0003892900 0.0158599431
0.3528362722 0.2062409596 0.1310405781 0.0130164600 0.0004587560 0.0158849311
0.4576768562 0.3503335005 -0.2275456538 0.0129917112 0.0000005922 0.0154002618
-0.1912323919 0.0227128593 0.1161698311 0.0129932471 -0.0004601221 0.0158613483
0.0412034116 0.2061995645 -0.0871492557 0.0129764641 0.0004581670 0.0158292905
0.4997894280 0.2654646487 0.0947306227 0.0134372092 0.0000316690 0.0158652727
0.4924647817 0.2571458084 -0.1160358713 0.0133810473 -0.0002124139 0.0157724034
-0.2570517276 0.0563145066 -0.2275456538 0.0129929099 0.0000000000 0.0154002595
0.0210048373 0.2035890918 0.1861745226 0.0129440948 0.0004542362 0.0159133898
0.0888647401 0.1787104332 -0.2275456538 0.0129929099 0.0000000000 0.0154002595
-0.4641357629 0.3569981777 -0.1409362386 0.0129558832 0.0001207837 0.0163006171
0.2965904199 0.2911110758 -0.2274905253 0.0129944462 0.0000005112 0.0154002641
-0.2817473780 0.3510959195 -0.2279158261 0.0129842549 -0.0000006115 0.0154003516
0.0894817270 0.2135904738 0.0543634659 0.0129829965 0.0004597931 0.0158658553
-0.2942854991 0.0225461170 0.0543204765 0.0129940795 -0.0004601230 0.0158604511
0.1614192570 0.2112031409 0.1247911552 0.0129935563 0.0004588057 0.0158948744
-0.1941409179 0.0225632759 0.1419666753 0.0129929099 -0.0004601055 0.0158626404
0.4522364640 0.3565393725 -0.1399357114 0.0130270088 0.0001218599 0.0163004031
-0.1293312507 0.0228202041 -0.1584758440 0.0129928804 -0.0004599716 0.0158518132
0.4847178678 0.2468046826 0.2119578156 0.0133508014 -0.0002597225 0.0159702323
-0.4550228534 0.2015014829 0.2169349377 0.0129828649 -0.0000006198 0.0163203864
0.3659145564 0.0225461170 -0.0679842447 0.0129929195 -0.0004601239 0.0158600517
-0.3148731646 0.0225461170 0.0633591255 0.0129937303 -0.0004601235 0.0158604037
-0.2641332803 0.0226949926 0.1040854529 0.0129937142 -0.0004601193 0.0158616051
0.4837596772 0.1840587526 -0.1004835313 0.0134517675 -0.0000335799 0.0158603844
-0.2439490384 0.1449380874 0.2266535863 0.0129827195 0.0000456605 0.0163180798
0.2064385855 0.0250183208 -0.2158632038 0.0129929826 -0.0004187205 0.0157208465
0.4113098147 0.0225461170 -0.1354407040 0.0129919385 -0.0004601124 0.0158572868
-0.2118189062 0.0225478194 0.1407607433 0.0129929444 -0.0004601212 0.0158622382
0.2399842246 0.2068632969 -0.0818935921 0.0130005447 0.0004587279 0.0158265192
0.3819210819 0.2252480135 0.1562671803 0.0125628869 0.0001451165 0.0158520087
-0.1252845167 0.1316189426 0.2288996438 0.0129892487 -0.0000126649 0.0163185127
-0.1685768886 0.2966913810 -0.1419004113 0.0129786230 0.0000416864 0.0163179196
-0.4320104331 0.0580008185 -0.2275456538 0.0129929099 0.0000000000 0.0154002595
-0.3600278568 0.3962362047 -0.1657979343 0.0130221646 0.0003785788 0.0160999999
0.2968946798 0.0225461170 0.0896504755 0.0129918405 -0.0004601207 0.0158610792
-0.1384760353 0.0228922109 -0.0078957615 0.0129934901 -0.0004601202 0.0158622295
0.1957286209 0.0255515530 0.2031098911 0.0129929145 -0.0003992862 0.0160502346
0.1202854265 0.1587346573 0.2265714692 0.0129981760 0.0000906736 0.0163096038
-0.3563803621 0.3649514231 -0.2261987833 0.0129917481 0.0000050917 0.0154006898
0.4385167736 0.0243866163 0.1869267890 0.0130895973 0.0004244730 0.0159444612
-0.1706928619 0.2097983057 -0.0585618520 0.0129918060 0.0004589317 0.0158278108
-0.2009331652 0.0227310397 0.0225260592 0.0129939916 -0.0004601212 0.0158615513
0.4065364686 0.3557155908 -0.2270855290 0.0129908499 0.0000008195 0.0154002715
0.1379546315 0.2123773524 0.1005813755 0.0129912456 0.0004592432 0.0158840840
0.3768844225 0.3861350547 -0.1521279525 0.0129791719 0.0002941394 0.0162106158
0.0913137172 0.0615143290 -0.2275456538 0.0129929099 0.0000000000 0.0154002595
-0.1238289619 0.1582934891 0.2265750361 0.0129875227 0.0000892845 0.0163098555
-0.3759263156 0.0225461170 -0.0083951842 0.0129929099 -0.0004601248 0.0158603844
0.0605534494 0.0226552153 0.1470692895 0.0129929099 -0.0004600222 0.0158652415
0.3287406039 0.2079163266 0.1161808962 0.0130140098 0.0004589699 0.0158828739
-0.2045667729 0.0241727935 -0.2099445307 0.0129928114 -0.0004410149 0.0157854333
0.3238170095 0.1090724745 -0.2275456538 0.0129929099 0.0000000000 0.0154002595
0.0709633910 0.2121295834 0.0771793347 0.0129811569 0.0004594397 0.0158745107
-0.3427408232 0.0225461170 -0.0355563542 0.0129929775 -0.0004601248 0.0158604631
-0.3102561892 0.0231747340 -0.1815487569 0.0129926950 -0.0004598225 0.0158456958
-0.2623583285 0.0235186709 0.1923646533 0.0129929145 -0.0004577727 0.0158923686
0.0587416867 0.2205521929 -0.1357412286 0.0130024883 -0.0000145008 0.0163197900
0.3358448761 0.2089706060 0.0625604293 0.0130184118 0.0004591130 0.0158680758
0.4806744482 0.2821263405 -0.0448719307 0.0131221635 0.0004341080 0.0158646645
-0.2742957092 0.2844357549 -0.2275456538 0.0129918263 -0.0000008485 0.0154002674
-0.0389936492 0.3114768792 -0.2275456538 0.0129938476 -0.0000010146 0.0154002641
0.3100786997 0.3030371945 -0.2273872613 0.0129961211 0.0000003764 0.0154002839
0.4846106440 0.2014184110 0.0209657234 0.0134521135 -0.0000282112 0.0158603844
0.4780372956 0.3743982769 -0.2030135916 0.0134483327 0.0000636541 0.0158464348
0.4017220642 0.0243866163 -0.1639845639 0.0129225490 0.0004413996 0.0158772447
-0.2650519572 0.3899369820 -0.2261144475 0.0129867014 0.0001529855 0.0154506901
0.4727279427 0.1011498261 -0.0402664943 0.0134401300 -0.0001042542 0.0158603844
0.4264458549 0.0444031491 -0.2275456538 0.0129929099 0.0000000000 0.0154002595
0.3762123209 0.2055291060 -0.0117597610 0.0130384194 0.0004576222 0.0158525425
0.0528959824 0.0226497601 0.1255714068 0.0129929099 -0.0004601216 0.0158614077
0.2969716573 0.3587294871 -0.1469023451 0.0129482943 0.0001465889 0.0162926022
0.1523254308 0.0230062418 0.0614741132 0.0129924875 -0.0004601225 0.0158597411
0.4523912058 0.2643773286 -0.1358985259 0.0129994620 0.0000149605 0.0154006773
0.3771075481 0.0226537411 -0.1376888818 0.0129929366 -0.0004600678 0.0158554767
0.3110056898 0.1502404059 0.2241177886 0.0130057800 0.0000615822 0.0163156572
0.0508709620 0.0225461170 -0.0516251273 0.0129929099 -0.0004601189 0.0158619539
-0.3901311253 0.0264312477 -0.2256074230 0.0129936999 -0.0003883624 0.0156229425
0.4666506944 0.1351515041 0.2161023234 0.0130628525 -0.0000110204 0.0163146017
-0.2051889127 0.2102569421 -0.0532533904 0.0129881600 0.0004589373 0.0158278821
0.4325560450 0.1356152377 -0.2275456538 0.0129929099 0.0000000000 0.0154002595
0.3897148954 0.2363026084 0.1181342080 0.0125974123 0.0002264951 0.0158416831
0.3291882313 0.4028964726 -0.1859082175 0.0129758126 0.0004375585 0.0159689554
0.0867675412 0.2182411216 -0.1360564974 0.0129997993 -0.0000001505 0.0163199276
0.1369867239 0.0732033224 -0.2275456538 0.0129929099 0.0000000000 0.0154002595
-0.0408662694 0.1442353751 0.2280227835 0.0130332854 0.0000289524 0.0163142253
-0.2015247928 0.2095765421 0.1389903969 0.0129886036 0.0004579466 0.0159028907
-0.3026809516 0.0538999288 -0.2275456538 0.0129929099 0.0000000000 0.0154002595
-0.3003124208 0.3520122093 -0.1449655743 0.0130380375 0.0001275848 0.0162976323
0.3555706220 0.3596133681 -0.2262152686 0.0129951659 0.0000007914 0.0154003161
-0.4791506495 0.2603792358 -0.2275456538 0.0129929099 0.0000000000 0.0154002595
-0.4781663689 0.1271468375 -0.0998994166 0.0125393869 -0.0000757536 0.0158603844
-0.2922662744 0.3870452221 -0.1624977238 0.0130293241 0.0003029471 0.0162032404
-0.0467090739 0.2148751111 -0.1360960391 0.0129883445 -0.0000091942 0.0163202051
-0.4837612780 0.1791685220 -0.0530280603 0.0125342975 -0.0000368785 0.0158603844
0.2671546468 0.2113086236 -0.0115174892 0.0130054533 0.0004594954 0.0158446389
0.1593007001 0.3041276600 -0.2278276151 0.0129921539 -0.0000062384 0.0154003069
-0.4802792248 0.1416549803 -0.1930442950 0.0125383475 -0.0000640885 0.0158767437
-0.4910757573 0.2772652049 0.1292275583 0.0127354438 0.0003755930 0.0158707795
-0.3173865234 0.4051108234 -0.1989745104 0.0130000413 0.0004557375 0.0158777592
0.1774823715 0.3355330058 -0.1473124245 0.0130041967 0.0000874513 0.0163105632
0.1951093316 0.3523619088 -0.2291859436 0.0129947932 -0.0000033543 0.0154003079
0.4984982473 0.2628103091 -0.0437630350 0.0134160927 -0.0000646075 0.0158541837
0.3596449626 0.2032909544 -0.1047613243 0.0130077125 0.0004593330 0.0158401771
0.0127557105 0.1266760405 0.2215965240 0.0127972018 -0.0000093819 0.0162695665
-0.4732450775 0.1032764573 0.0869313116 0.0125447681 -0.0001008184 0.0158605928
-0.2068996651 0.0229038465 0.0542518083 0.0129938982 -0.0004601225 0.0158605238
0.3128584054 0.0225461170 0.0496266813 0.0129922362 -0.0004601239 0.0158605169
-0.0371010439 0.3656909532 -0.1416493704 0.0129521147 0.0001742888 0.0162828982
0.2494808432 0.2048975014 -0.1356009218 0.0129938145 0.0002383069 0.0162476857
0.0330032043 0.0946761333 -0.2275456538 0.0129929099 0.0000000000 0.0154002595
0.2312453915 0.2038247990 -0.1338918548 0.0129946307 0.0003589503 0.0160480256
-0.1102698832 0.0225461170 -0.1217279362 0.0129928993 -0.0004601166 0.0158580092
0.0675748394 0.0227178351 0.1154285245 0.0129929099 -0.0004601216 0.0158609154
0.2273693928 0.3526890847 -0.2288546675 0.0129965412 -0.0000011729 0.0154002853
0.0946573943 0.3664364659 -0.1486999466 0.0130332104 0.0001788712 0.0162801903
-0.1046099598 0.1518254126 -0.2275456538 0.0129929099 0.0000000000 0.0154002595
0.1088179790 0.0230062418 0.0089700849 0.0129924005 -0.0004601212 0.0158619373
0.3919014436 0.3440569978 -0.2270855290 0.0129910984 -0.0000000419 0.0154002687
0.4825410370 0.1669028840 0.0469750344 0.0134508316 -0.0000423499 0.0158604134
0.4460404496 0.2536628567 -0.2275456538 0.0129929099 0.0000000000 0.0154002595
-0.1765822997 0.0956962770 -0.2275456538 0.0129929099 0.0000000000 0.0154002595
0.4218260990 0.2724117078 -0.1143555479 0.0127584956 0.0003917342 0.0158630752
0.4835431793 0.1796415234 -0.0666330283 0.0134516792 -0.0000349460 0.0158603844
0.3832220352 0.0229863865 -0.1643005629 0.0129924125 -0.0004599233 0.0158495342
-0.0567162273 0.0225461170 -0.0517369362 0.0129929099 -0.0004601189 0.0158619194
0.0523835759 0.2111867403 -0.0111396287 0.0129793748 0.0004594577 0.0158444056
-0.0922198687 0.2043431416 -0.1175224868 0.0129951281 0.0004591682 0.0158353113
0.3602965067 0.3261616129 -0.2266735396 0.0129932407 0.0000055703 0.0154003180
-0.4301025328 0.1973040092 0.2169349096 0.0129966682 -0.0000001219 0.0163204549
-0.1705596042 0.0225461170 -0.0943791821 0.0129929053 -0.0004601212 0.0158593233
-0.2220684929 0.0226334293 -0.1429853443 0.0129928183 -0.0004600696 0.0158555250
0.0226728818 0.2099272102 -0.0021147798 0.0129225241 0.0004538147 0.0158502221
-0.0336870833 0.0229944327 0.0030818715 0.0129929186 -0.0004601212 0.0158622401
0.4350219704 0.2800592053 -0.1195995639 0.0128161202 0.0004222598 0.0158478556
-0.4856319956 0.2173318666 -0.0558129052 0.0125333998 -0.0000234227 0.0158603844
0.4790316304 0.1339685447 -0.1654570811 0.0134472058 -0.0000695713 0.0158633996
0.4510696665 0.2815264707 0.0460616548 0.0128998349 0.0004462746 0.0158596974
0.0487545676 0.3861516243 -0.1556274876 0.0130310400 0.0003091984 0.0161965254
-0.3473297986 0.0225461151 0.0806782238 0.0129929743 -0.0004601235 0.0158607437
-0.4821993700 0.1622917080 0.1153791462 0.0125355982 -0.0000474329 0.0158612167
0.0465696869 0.0226522369 0.1469040163 0.0129925643 -0.0004600236 0.0158651375
0.0501185373 0.0228282154 -0.1590526151 0.0129929103 -0.0004599633 0.0158515670
-0.4157316636 0.0225461170 0.0949719259 0.0129926619 -0.0004601189 0.0158618595
0.4031908467 0.2533083268 0.1027472884 0.0126559292 0.0003088422 0.0158455311
-0.4326716380 0.1977337755 -0.2275456538 0.0129929099 0.0000000000 0.0154002595
0.2562290690 0.2678768214 -0.1392150252 0.0129784905 0.0000229625 0.0163193847
0.3901754979 0.0225461170 -0.1154827893 0.0129919790 -0.0004601161 0.0158580529
0.4946480156 0.2558205904 0.0194789142 0.0133541456 -0.0002815182 0.0158588034
0.4231491548 0.2950337633 -0.2275456538 0.0129899444 0.0000012078 0.0154002766
-0.2240263126 0.1292354288 -0.2275456538 0.0129929099 0.0000000000 0.0154002595
-0.1419697853 0.2471453669 -0.1371772092 0.0129780221 0.0000157804 0.0163198466
-0.3715591456 0.0991713652 0.2237934770 0.0129941343 -0.0000370497 0.0163168844
0.2887247961 0.2121226043 0.0545369569 0.0130119710 0.0004595612 0.0158652511
0.3009317530 0.3372137645 -0.1415249591 0.0129473488 0.0000856458 0.0163086454
-0.0245346320 0.0982260576 0.2210557145 0.0130431803 -0.0000605308 0.0163132411
-0.0636689455 0.1956331501 0.2131912700 0.0129978820 0.0003363945 0.0161408691
-0.0703127772 0.0882236012 0.2213814865 0.0130018036 -0.0000788346 0.0163134514
0.2785072668 0.0225461170 -0.0724499747 0.0129929168 -0.0004601239 0.0158601552
0.0193470268 0.1834950546 0.2156833272 0.0129005950 0.0001391174 0.0162888048
0.4924146806 0.2757971527 -0.0993711956 0.0133080291 0.0003185941 0.0158444245
-0.0900958634 0.3389084526 -0.2280862107 0.0129969475 -0.0000046652 0.0154003175
-0.4693469353 0.0868495106 -0.1987570858 0.0125509066 -0.0001225832 0.0158787710
-0.4689605022 0.0874076126 -0.0167376869 0.0125496583 -0.0001202978 0.0158603844
0.3733890014 0.0231613628 0.1751604946 0.0129929099 -0.0004595534 0.0158802227
-0.4864847877 0.2305741890 -0.2025239644 0.0125333620 -0.0000151077 0.0158736305
-0.2254463411 0.3367740283 -0.1476674881 0.0130046016 0.0000905020 0.0163095734
0.4257030386 0.0225461170 0.0482962157 0.0129929099 -0.0004601248 0.0158603844
0.0819616813 0.2984362834 -0.1356616532 0.0130321801 0.0000298883 0.0163174508
0.4817214397 0.1592116747 -0.1150416492 0.0134499887 -0.0000487171 0.0158603844
0.4753990483 0.3965325168 -0.1765223339 0.0134442656 0.0000871614 0.0158681669
-0.0168708954 0.0674496840 0.2155262968 0.0130365136 -0.0000735289 0.0163122863
0.0797383857 0.0225461170 -0.1302362159 0.0129929168 -0.0004601152 0.0158575831
-0.4249379798 0.0626611097 0.2169349377 0.0129924024 -0.0000001371 0.0163205005
0.3881843008 0.0225461188 0.0273145692 0.0129929099 -0.0004601248 0.0158603844
-0.2011336697 0.2821925060 -0.2275456538 0.0129924718 -0.0000040937 0.0154002844
0.3504311201 0.0729105629 0.2188675940 0.0129929048 -0.0000903791 0.0163114599
-0.3841622244 0.2185734795 -0.0101410446 0.0134375372 0.0000456573 0.0158742332
0.2118414717 0.0273687466 0.2092264143 0.0129929039 -0.0003501338 0.0161486185
-0.1899058962 0.1493004270 0.2268260489 0.0129849704 0.0000605368 0.0163151350
-0.1546658916 0.0225461170 -0.1145836023 0.0129928942 -0.0004601175 0.0158583350
0.2138748365 0.2203941796 -0.1371346900 0.0129926807 0.0000221518 0.0163199097
-0.1197657711 0.3791177014 -0.1595046376 0.0129621850 0.0002594055 0.0162302033
-0.2141466736 0.0225461170 -0.0832531984 0.0129928942 -0.0004601230 0.0158598460
0.3598119488 0.2008775034 0.1932765342 0.0130088583 0.0004455269 0.0159467369
0.0936923860 0.2627639989 -0.1352895990 0.0130192456 0.0000092011 0.0163194132
0.3446219318 0.0230587025 0.1694628272 0.0129928781 -0.0004596477 0.0158774467
0.3937122299 0.2379928876 0.0507188884 0.0126010933 0.0002347677 0.0158566799
-0.2642276418 0.3300655688 -0.2279377036 0.0129875881 -0.0000056605 0.0154003451
-0.2356048664 0.0225461188 0.0034708426 0.0129939235 -0.0004601212 0.0158617910
-0.0906327693 0.2879216837 -0.1358060040 0.0129569083 0.0000238276 0.0163183429
0.3824141770 0.0243286249 -0.2093506149 0.0129925721 -0.0004381603 0.0157763104
-0.0890299783 0.1875254721 -0.2275456538 0.0129929099 0.0000000000 0.0154002595
0.0780373926 0.3893273953 -0.1628921042 0.0130238450 0.0003311845 0.0161705877
-0.3141805061 0.1624425742 -0.2275456538 0.0129929099 0.0000000000 0.0154002595
-0.4206893514 0.1130806422 -0.2275456538 0.0129929099 0.0000000000 0.0154002595
-0.1153432058 0.0662108306 0.2174618459 0.0129939783 -0.0000940891 0.0163107757
0.4811154479 0.1943242348 0.2116730743 0.0133115721 -0.0000211432 0.0161836870
0.4238814113 0.1120975340 -0.2275456538 0.0129929099 0.0000000000 0.0154002595
0.3399975704 0.4050674617 -0.1961029145 0.0129839991 0.0004538142 0.0158870311
-0.2528288804 0.2499671137 -0.2275456538 0.0129926895 0.0000003690 0.0154002600
-0.0417423429 0.2647894298 -0.2275456538 0.0129932172 -0.0000005489 0.0154002609
0.3263177871 0.0619067230 0.2165678261 0.0129929416 -0.0000960685 0.0163103671
-0.1327771320 0.2666303506 -0.1383814281 0.0129740613 0.0000206334 0.0163193911
0.0238775738 0.0230062418 0.0095109690 0.0129884982 -0.0004600664 0.0158619079
-0.2456153340 0.2228394496 -0.1368881565 0.0129955929 0.0000128048 0.0163202557
-0.1727079303 0.0558229594 -0.2275456538 0.0129929099 0.0000000000 0.0154002595
-0.4355665152 0.0225461170 0.0825577178 0.0129929297 -0.0004601212 0.0158613939
-0.2484611205 0.2083669871 -0.1362934262 0.0129938973 0.0000664913 0.0163071642
-0.0800077585 0.0228918216 0.0895046435 0.0129929099 -0.0004601221 0.0158596629
-0.4169891153 0.1922357696 0.2169349377 0.0130034233 -0.0000002278 0.0163203753
0.0683228970 0.2771515780 -0.2275456538 0.0129922510 -0.0000011844 0.0154002628
-0.4855295455 0.2655129807 -0.1390316660 0.0125891282 0.0000003299 0.0160557971
0.3104524108 0.2104867657 0.0638009815 0.0130145652 0.0004593104 0.0158685125
0.0239891991 0.2888799870 -0.2275456538 0.0129928583 -0.0000000920 0.0154002600
0.0190610951 0.0230062418 0.0236350553 0.0129831410 -0.0004599988 0.0158612365
-0.2679183854 0.3989713975 -0.1812687894 0.0130109408 0.0004056300 0.0160666169
-0.3995755639 0.1126978391 -0.2275456538 0.0129929099 0.0000000000 0.0154002595
-0.4842155615 0.1884359768 -0.1566564216 0.0125340674 -0.0000333259 0.0158621531
-0.4579810314 0.0542893384 -0.1840871101 0.0125585916 -0.0001514745 0.0158650238
0.3905354761 0.0668725058 -0.2275456538 0.0129929099 0.0000000000 0.0154002595
-0.3268673027 0.3090372122 -0.2272349347 0.0129888106 0.0000012166 0.0154002973
0.3404121153 0.1613032007 -0.2275456538 0.0129929099 0.0000000000 0.0154002595
-0.4858468366 0.2217517499 0.0555698507 0.0125333151 -0.0000220506 0.0158606370
0.0444270098 0.0230062418 0.0379172869 0.0129929057 -0.0004601216 0.0158605450
-0.4746452792 0.1084623679 -0.1266529910 0.0125431701 -0.0000944526 0.0158603844
-0.4551135362 0.2836658943 0.1591697665 0.0130600628 0.0004526312 0.0158825334
0.2336627319 0.1232749670 0.2268245885 0.0129996562 -0.0000204144 0.0163193934
0.3742846215 0.2055037886 0.1044150937 0.0130348047 0.0004578707 0.0158735255
-0.1869260514 0.0538217435 -0.2275456538 0.0129929099 0.0000000000 0.0154002595
-0.4339628182 0.0242122267 -0.2119267692 0.0129953518 -0.0004362485 0.0157754950
-0.4814293685 0.1555817181 0.0825673993 0.0125363271 -0.0000529061 0.0158609011
0.1207722519 0.0231470750 0.1743673802 0.0129929099 -0.0004595695 0.0158792343
-0.2500634133 0.3675727359 -0.1541404088 0.0130169505 0.0001826456 0.0162781175
-0.3230253836 0.2096806343 0.0167951938 0.0129694260 0.0004592713 0.0158531756
0.1038030706 0.0501849908 -0.2275456538 0.0129929099 0.0000000000 0.0154002595
0.4027394278 0.0225461170 -0.1091265006 0.0129923959 -0.0004601175 0.0158585038
0.4427652617 0.0225461170 0.0988732209 0.0129939815 -0.0004600834 0.0158620629
0.3286157430 0.2606232276 -0.2274656993 0.0129934758 0.0000022647 0.0154002678
0.0797522452 0.0226082596 0.1444633104 0.0129929099 -0.0004600650 0.0158639099
0.3211294190 0.2043259122 -0.1012845373 0.0130033929 0.0004591176 0.0158323573
-0.0731577006 0.3922415941 -0.1667831697 0.0129660363 0.0003560175 0.0161346317
-0.0091968519 0.2011418001 0.0963533183 0.0133404578 0.0002980311 0.0158684784
0.4810720581 0.1531170143 -0.1666001476 0.0134493229 -0.0000535052 0.0158634290
0.3064257006 0.1874869551 0.2157977548 0.0130007683 0.0001349500 0.0163001100
0.2980370441 0.2029353289 -0.1294460923 0.0129973887 0.0004600089 0.0158573715
0.0216078166 0.3095870090 -0.2275456538 0.0129945493 0.0000000198 0.0154002849
0.1463232928 0.0225461170 -0.1362992818 0.0129929481 -0.0004601138 0.0158572689
-0.4066014548 0.3077725711 -0.2272894733 0.0129982363 0.0000023075 0.0154002964
0.1869891837 0.1320572741 0.2276792906 0.0129994846 -0.0000012166 0.0163186991
0.1551129577 0.1427869817 0.2285148819 0.0129996061 0.0000342227 0.0163180660
-0.1227147094 0.1080650809 -0.2275456538 0.0129929099 0.0000000000 0.0154002595
-0.4885779292 0.2786008419 0.1156204490 0.0127690076 0.0003909165 0.0158626717
-0.1313774217 0.0254617992 -0.2189675722 0.0129928910 -0.0004068405 0.0156866109
0.4859072726 0.2280890263 -0.1461842145 0.0134525810 -0.0000202602 0.0158603844
0.4512258407 0.0370291632 -0.0498828582 0.0134282459 -0.0001479812 0.0158603844
-0.3541518289 0.0225461170 -0.1262874099 0.0129927705 -0.0004601156 0.0158575675
0.2065341829 0.2905666993 -0.1430142567 0.0129919464 0.0000395385 0.0163187423
0.2449891354 0.0225651035 0.1381854315 0.0129926743 -0.0004601184 0.0158626473
-0.4608903437 0.3241957194 -0.2275456538 0.0129931685 0.0000001247 0.0154002600
-0.0042476277 0.0566532072 0.2123921459 0.0130256744 -0.0000510628 0.0163163202
-0.1784836565 0.2149022115 0.0476345400 0.0129907703 0.0004599909 0.0158631157
-0.4724159316 0.1002054806 0.0023040802 0.0125457145 -0.0001045882 0.0158603844
0.1283026678 0.0227708893 -0.0210521188 0.0129925643 -0.0004601166 0.0158629721
0.1173568768 0.2039344100 0.1880063720 0.0129929237 0.0004552581 0.0159270128
-0.4820428309 0.3472441151 -0.2081136079 0.0125367021 0.0000572759 0.0158485665
0.0891734162 0.0919931201 -0.2275456538 0.0129929099 0.0000000000 0.0154002595
-0.0335372565 0.0232404923 -0.1887366629 0.0129928312 -0.0004597448 0.0158434145
0.2401678645 0.0225461170 -0.0478962742 0.0129925915 -0.0004601239 0.0158609388
0.4454940514 0.3097268662 -0.2275456538 0.0129920793 0.0000003511 0.0154002609
-0.4924254084 0.2763668604 -0.0901567209 0.0126899830 0.0003383321 0.0158481285
-0.2260279283 0.0225461170 -0.1026076065 0.0129928666 -0.0004601198 0.0158588835
-0.4864979312 0.2354254954 0.0249356078 0.0125331918 -0.0000192691 0.0158603844
-0.0903823390 0.3218137645 -0.2280856489 0.0129959057 -0.0000050858 0.0154003111
0.2108125235 0.2147482846 0.0317160612 0.0129990231 0.0004599937 0.0158574948
0.1919678361 0.2034196904 -0.1275387115 0.0129943809 0.0004597347 0.0158466119
0.2222119028 0.0228815567 0.0910338270 0.0129921612 -0.0004601221 0.0158607428
-0.0748569315 0.0225461151 -0.0572261096 0.0129929099 -0.0004601248 0.0158603844
-0.2147607535 0.3922207560 -0.1756998861 0.0129993102 0.0003494170 0.0161456402
0.1733016354 0.3087813690 -0.1433880801 0.0130060690 0.0000544383 0.0163164247
-0.0373154460 0.2355181439 -0.2275456538 0.0129929099 0.0000000000 0.0154002595
0.1504912784 0.2955609523 -0.1408396161 0.0130142794 0.0000387075 0.0163179371
0.4518939820 0.0393676446 0.0314119873 0.0134259232 -0.0001555148 0.0158603844
-0.2874490053 0.2015803846 0.1945271614 0.0129876552 0.0004426056 0.0159622404
-0.3982083890 0.0547762692 -0.2275456538 0.0129929099 0.0000000000 0.0154002595
0.1116679785 0.2108244311 0.1280502088 0.0129887849 0.0004587532 0.0158950796
0.4600636130 0.0565573927 -0.2210650941 0.0134262416 -0.0001537733 0.0158683312
0.4852719051 0.3133308027 -0.1474643158 0.0134449310 0.0000242615 0.0158938143
-0.4850507732 0.2054738791 -0.1168278626 0.0125336786 -0.0000276033 0.0158603844
-0.4585422581 0.0695931300 -0.2275456538 0.0129929099 0.0000000000 0.0154002595
-0.0592304147 0.2323745001 -0.2275456538 0.0129929099 0.0000000000 0.0154002595
-0.2675117883 0.1708663915 -0.2275456538 0.0129929099 0.0000000000 0.0154002595
-0.1276520647 0.0230171242 -0.1726540865 0.0129928859 -0.0004598667 0.0158479058
0.2328330242 0.0225461170 -0.1140220949 0.0129929692 -0.0004601179 0.0158583170
-0.0516337772 0.3151727625 -0.2275644135 0.0129959034 -0.0000010265 0.0154002752
-0.1382446247 0.2109982556 -0.0456393624 0.0129947844 0.0004591144 0.0158302803
0.1424211903 0.0230062418 0.0506845912 0.0129924925 -0.0004601221 0.0158601345
-0.4076357524 0.2498723312 -0.2275456538 0.0129939691 0.0000005011 0.0154002623
0.2831755512 0.0233445569 -0.1948449434 0.0129931422 -0.0004597314 0.0158422858
0.2178218168 0.0225461170 -0.0627144547 0.0129929099 -0.0004601248 0.0158603844
-0.1034098976 0.0230062418 0.0379238690 0.0129932531 -0.0004601216 0.0158605220
0.2291933792 0.2040293751 -0.2275456538 0.0129929099 0.0000000000 0.0154002595
0.2001713084 0.0357017477 0.2106152422 0.0129932876 -0.0001441157 0.0162791532
-0.4337588177 0.3635642240 -0.1405566301 0.0129731728 0.0001525912 0.0162916847
-0.2212117267 0.2077553501 0.1515269315 0.0129867939 0.0004573015 0.0159078688
-0.4804912573 0.1474065969 -0.1585515580 0.0125372055 -0.0000592912 0.0158624853
0.0945602246 0.2700430648 -0.2275456538 0.0129925109 -0.0000010091 0.0154002632
-0.4102633284 0.3783193918 -0.2270855290 0.0129988874 0.0000260675 0.0154028984
-0.1294381657 0.3295436317 -0.1430347014 0.0129601154 0.0000715632 0.0163134417
0.2077101635 0.0226194351 0.0109258543 0.0129917347 -0.0004601202 0.0158619244
-0.3365221449 0.0225461170 -0.0106350190 0.0129930714 -0.0004601248 0.0158605721
0.4609863906 0.1586206512 0.2165715196 0.0130295202 -0.0000046247 0.0163179454
-0.1443448176 0.2113308661 0.1221943312 0.0129939737 0.0004588839 0.0158933183
-0.0250262772 0.0496268709 -0.2275456538 0.0129929099 0.0000000000 0.0154002595
0.4620812650 0.2341637186 0.2079550052 0.0130091882 0.0000106519 0.0162954177
0.0080984382 0.1985624723 0.1239831212 0.0126336830 0.0002837640 0.0158723766
0.1083761225 0.0230062418 0.0236456354 0.0129924244 -0.0004601212 0.0158612177
0.0675915948 0.1083673185 0.2239249650 0.0129723934 -0.0001764123 0.0162778658
0.4675145240 0.3252186717 -0.1361274371 0.0130366576 0.0000355170 0.0163165204
0.2723782038 0.0449718280 -0.2275456538 0.0129929099 0.0000000000 0.0154002595
0.4113117523 0.0483927673 0.2169349377 0.0129814923 0.0000016325 0.0163203081
-0.4668483203 0.1352761823 -0.2275456538 0.0129929099 0.0000000000 0.0154002595
-0.1481670779 0.3734652211 -0.2288930861 0.0129950775 0.0000364244 0.0154036769
0.4906437728 0.2517623984 -0.0373835983 0.0133220758 -0.0003173274 0.0158585517
0.0170943481 0.0228290261 -0.0216483660 0.0129807580 -0.0004599500 0.0158631341
-0.3468675678 0.2052806625 -0.0752032187 0.0129747911 0.0004592064 0.0158387857
0.0388406365 0.0230062436 0.0672539014 0.0129929260 -0.0004601221 0.0158590960
-0.0842787343 0.1795066930 0.2200146622 0.0129965927 0.0001514170 0.0162942388
0.0672825856 0.0229233577 -0.0045941482 0.0129928114 -0.0004601198 0.0158624779
-0.0461926202 0.2060682444 0.1646547697 0.0130030791 0.0004569780 0.0159095119
-0.4666939714 0.2839212037 -0.0591342910 0.0129769592 0.0004530325 0.0158668326
-0.0197441127 0.0226907098 0.1324094380 0.0129989131 -0.0004600604 0.0158616051
-0.0387383535 0.0230691073 -0.1763967852 0.0129929034 -0.0004598354 0.0158468015
0.3405332965 0.0225461170 0.0379824273 0.0129927935 -0.0004601248 0.0158605197
0.0490978603 0.2051808527 -0.1035940921 0.0129871316 0.0004587965 0.0158259661
-0.3751581400 0.0225461170 -0.0951616037 0.0129928662 -0.0004601198 0.0158588683
-0.2469601261 0.0234269684 -0.2015141837 0.0129927235 -0.0004596794 0.0158404679
0.0316088949 0.0233266447 0.1843336160 0.0129924663 -0.0004594061 0.0158842708
0.3988959085 0.0225461170 -0.0391080169 0.0129929099 -0.0004601248 0.0158603844
-0.4717307436 0.0976676607 0.0167786132 0.0125464963 -0.0001077033 0.0158603844
0.0673307491 0.1154936298 -0.2275456538 0.0129929099 0.0000000000 0.0154002595
-0.0417380992 0.2514060994 -0.2275456538 0.0129929099 0.0000000000 0.0154002595
0.0443109778 0.0230658744 0.1698609571 0.0129924599 -0.0004596463 0.0158768417
-0.1717246744 0.3773326398 -0.1617095521 0.0129829072 0.0002470097 0.0162389263
0.4849195097 0.2077190660 0.0963895324 0.0134522295 -0.0000263808 0.0158604893
-0.2229482880 0.3621202395 -0.2290558880 0.0129886413 0.0000002250 0.0154002913
-0.2918855703 0.4029211578 -0.1912422285 0.0130065563 0.0004391086 0.0159590526
-0.0825192427 0.0229285934 0.1622417260 0.0129929099 -0.0004597719 0.0158729932
-0.1783319340 0.0227330776 0.0040288885 0.0129939162 -0.0004601202 0.0158621388
-0.1092045382 0.0225461188 -0.0558909994 0.0129929099 -0.0004601239 0.0158606697
0.4776067715 0.1205968969 -0.1477030282 0.0134457422 -0.0000808320 0.0158605574
-0.0273680444 0.2034326369 0.1888923452 0.0130310358 0.0004537880 0.0159189063
0.3939762740 0.0109734316 0.1796655138 0.0125327850 0.0000000000 0.0158603844
-0.4585972463 0.0559364317 -0.0787122462 0.0125579686 -0.0001497619 0.0158603844
-0.3876974123 0.2043951946 0.0529675047 0.0129074886 0.0004511335 0.0158626859
0.2977089691 0.2097640435 0.1018901711 0.0130098954 0.0004590854 0.0158819182
-0.4722449013 0.0995719945 -0.0259222696 0.0125459096 -0.0001053658 0.0158603844
-0.3882165693 0.2036040886 0.0831743252 0.0128994364 0.0004491610 0.0158681274
0.3251847182 0.2087858990 0.0854783055 0.0130152186 0.0004590293 0.0158757180
0.4242115927 0.3736394809 -0.2270855290 0.0129886132 -0.0000004560 0.0154002816
0.0407119472 0.1747281516 -0.2275456538 0.0129929099 0.0000000000 0.0154002595
-0.2035414196 0.0229186764 0.0855028508 0.0129936636 -0.0004601235 0.0158603563
-0.4787762929 0.1324622286 0.0379687082 0.0125388182 -0.0000715232 0.0158603844
-0.1749578773 0.1239664601 -0.2275456538 0.0129929099 0.0000000000 0.0154002595
0.4981523673 0.2682266332 -0.0732384695 0.0134220743 0.0001124021 0.0158395872
0.4256654906 0.0225461188 0.0344065570 0.0129929099 -0.0004601248 0.0158603844
-0.4815320988 0.1362668379 -0.2212475828 0.0125397725 -0.0000671525 0.0158645076
0.2141918883 0.2066949625 -0.1359214144 0.0129930451 0.0001604050 0.0162760952
-0.0650548668 0.2170100967 -0.1359625993 0.0129860614 -0.0000065600 0.0163199313
-0.0377041327 0.0230062418 0.0236547836 0.0129929168 -0.0004601216 0.0158612480
-0.2384511305 0.0227418260 0.0333223225 0.0129937597 -0.0004601230 0.0158608003
-0.4202823052 0.0665784616 -0.2275456538 0.0129929099 0.0000000000 0.0154002595
0.3796410152 0.0814977720 -0.2275456538 0.0129929099 0.0000000000 0.0154002595
0.0729662882 0.0228417499 0.0969651798 0.0129929099 -0.0004601221 0.0158600227
0.4815172427 0.1584500563 0.1858226467 0.0134496942 -0.0000510996 0.0158656680
0.2584168246 0.0225645611 -0.1365096573 0.0129930014 -0.0004601046 0.0158569012
0.2681254756 0.0226683445 0.1138486426 0.0129922224 -0.0004601184 0.0158620671
-0.4759370774 0.2815141140 -0.2275456538 0.0129929099 0.0000000000 0.0154002595
0.2639242805 0.0225461170 -0.0696920762 0.0129929117 -0.0004601248 0.0158603273
-0.0918773449 0.0228758700 -0.0097227769 0.0129932476 -0.0004601184 0.0158626413
-0.3226891083 0.4019901803 -0.1821066132 0.0130132133 0.0004306571 0.0160032329
-0.4067899532 0.2549427473 0.0531171212 0.0133251329 0.0003144093 0.0158578808
-0.4844134957 0.2095170043 0.2052974921 0.0125348841 -0.0000259708 0.0158926442
0.3783788454 0.2184378908 -0.1082872586 0.0125446305 0.0000278725 0.0158675738
0.0916137361 0.0225461170 -0.0584793488 0.0129929099 -0.0004601248 0.0158603844
0.4774428741 0.1190583683 0.1089510053 0.0134455701 -0.0000821415 0.0158614956
-0.0208170226 0.0225461170 -0.0945664308 0.0129929030 -0.0004601212 0.0158593611
-0.3667743701 0.0231689102 0.1755793504 0.0129929099 -0.0004595469 0.0158804173
-0.1431078387 0.0230062418 0.0352890355 0.0129934758 -0.0004601216 0.0158608804
0.2187119324 0.0228365280 -0.1580540535 0.0129930083 -0.0004599661 0.0158515951
0.1726910097 0.3028079746 -0.2277975091 0.0129923568 -0.0000061675 0.0154003056
-0.2588267355 0.1014735410 0.2237834371 0.0129903576 -0.0001137461 0.0163029927
-0.1993016237 0.2251517706 -0.2275456538 0.0129929099 0.0000000000 0.0154002595
-0.0943509511 0.1025530610 -0.2275456538 0.0129929099 0.0000000000 0.0154002595
0.3825753219 0.1191752952 0.2250322246 0.0130131636 0.0000211193 0.0163186084
0.0579591703 0.2169408001 -0.2275456538 0.0129929099 0.0000000000 0.0154002595
-0.4658804965 0.0760000822 -0.1203163468 0.0125531732 -0.0001343008 0.0158603844
0.0804979750 0.3009648355 -0.2277462563 0.0129915608 -0.0000040417 0.0154002872
0.3929289171 0.1991073116 -0.1187106842 0.0127194043 0.0003451875 0.0158808668
0.2211944554 0.1580004628 -0.2275456538 0.0129929099 0.0000000000 0.0154002595
-0.3923770705 0.0162463155 -0.1666203821 0.0134530347 0.0000000000 0.0158603844
-0.1703799802 0.2732768852 -0.1404471452 0.0129849152 0.0000302587 0.0163191293
0.1643859869 0.2081522726 -0.0762883831 0.0129929614 0.0004587615 0.0158255773
0.0350687429 0.2100914163 0.1024974061 0.0129537717 0.0004569914 0.0158797280
-0.4823272635 0.1634060871 -0.1548624431 0.0125354979 -0.0000466617 0.0158618388
0.4979825169 0.2672811926 0.1587479057 0.0134254199 0.0001179401 0.0158940315
0.4919251800 0.2543845256 -0.1027431952 0.0133639771 -0.0002671807 0.0158383591
0.0641710171 0.2111776408 -0.0175543703 0.0129811551 0.0004594020 0.0158417986
0.4786284594 0.1301850822 -0.1342942814 0.0134467963 -0.0000728700 0.0158603844
0.4749249095 0.1089962411 0.0644541264 0.0134427063 -0.0000941310 0.0158607230
-0.4677682888 0.0831500260 0.1471252604 0.0125509949 -0.0001255833 0.0158629091
-0.3814419724 0.2163504645 0.1341356787 0.0134438828 0.0000038227 0.0158434665
0.4613956836 0.0642681978 0.1694464260 0.0134297754 -0.0001441668 0.0158654651
-0.4771661927 0.1132844886 -0.2120603779 0.0125431079 -0.0000895003 0.0158923203
-0.1967990627 0.2119464349 0.1096772378 0.0129886514 0.0004589800 0.0158893920
-0.4258765963 0.0225461170 0.1082066581 0.0129928689 -0.0004601179 0.0158623758
0.1669734589 0.3311834724 -0.2287318570 0.0129927994 -0.0000098665 0.0154003806
-0.1806257760 0.1657910048 -0.2275456538 0.0129929099 0.0000000000 0.0154002595
-0.1063751243 0.2896556894 -0.1375677705 0.0129579537 0.0000285834 0.0163181975
0.4741616204 0.1062703230 0.0233485807 0.0134417925 -0.0000977075 0.0158603844
-0.0785872804 0.3289511197 -0.2279284358 0.0129966811 -0.0000034169 0.0154003037
0.1051135655 0.0253470961 -0.2181646567 0.0129929099 -0.0004097835 0.0156951743
0.2722127623 0.2055127753 0.1647988114 0.0130013104 0.0004568796 0.0159114122
0.0218241452 0.0234039295 -0.2005040799 0.0129931570 -0.0004596587 0.0158401959
0.4022314201 0.2436141108 0.2043603498 0.0127681817 0.0003174231 0.0160991238
0.3515714903 0.0760421445 -0.2275456538 0.0129929099 0.0000000000 0.0154002595
0.4103996749 0.2650435604 -0.1130956110 0.0127106063 0.0003624587 0.0158676695
0.4539479185 0.0921961801 -0.2275456538 0.0129929099 0.0000000000 0.0154002595
0.0441926751 0.2168958381 -0.1359697464 0.0129996162 -0.0000130017 0.0163200887
0.1965997099 0.1465806663 -0.2275456538 0.0129929099 0.0000000000 0.0154002595
0.4835540479 0.1812078408 0.1898895585 0.0134513810 -0.0000358838 0.0158684421
-0.4666597096 0.0753437850 -0.2181216603 0.0125556624 -0.0001399120 0.0158809299
0.4698063860 0.1202169792 0.2146871814 0.0131611080 -0.0000307920 0.0162746633
-0.1818813881 0.2929115558 -0.1422510794 0.0129843423 0.0000390940 0.0163185003
0.0461599587 0.3968901640 -0.1706750919 0.0130150686 0.0003971186 0.0160756593
-0.3473214579 0.1975857602 -0.2275456538 0.0129929099 0.0000000000 0.0154002595
0.3028110077 0.3837360531 -0.2271904218 0.0129999953 0.0000668865 0.0154057902
0.1055856117 0.0646842730 -0.2275456538 0.0129929099 0.0000000000 0.0154002595
0.4241910633 0.2169838245 0.2108826562 0.0127838383 0.0003392151 0.0160731829
-0.0069228055 0.0234937238 0.0616807116 0.0130173057 -0.0004594213 0.0158588246
-0.4862083870 0.2293458600 -0.0300550699 0.0125332465 -0.0000205119 0.0158603844
0.3063705160 0.1508476336 -0.2275456538 0.0129929099 0.0000000000 0.0154002595
0.1664633166 0.0230062436 0.0677053519 0.0129923945 -0.0004601230 0.0158596201
0.2600913767 0.3732923089 -0.2282039940 0.0129999383 0.0000350436 0.0154032600
-0.4901105176 0.2513229433 0.0617948092 0.0126759455 -0.0003300121 0.0158616718
0.4092092031 0.4084092085 -0.2115013557 0.0129554046 0.0004240810 0.0157311418
-0.2721827690 0.1295191597 0.2264083168 0.0129853022 0.0000063290 0.0163195384
0.4830683668 0.3367119068 -0.2178089751 0.0134381842 0.0000463198 0.0158141230
-0.0157524092 0.1687254238 -0.2277677965 0.0129756552 -0.0000009083 0.0154006217
0.2725993357 0.0635591100 -0.2275456538 0.0129929099 0.0000000000 0.0154002595
-0.0870719271 0.2932469040 -0.2275603134 0.0129934850 -0.0000038936 0.0154002802
-0.0147818104 0.3534645906 -0.2275456538 0.0129938789 0.0000035954 0.0154003691
0.3005035033 0.1974201217 -0.2275456538 0.0129929099 0.0000000000 0.0154002595
-0.4604497654 0.0606706009 -0.0310794118 0.0125569365 -0.0001467720 0.0158603844
0.2757835321 0.2102923836 -0.0304812799 0.0130055969 0.0004593445 0.0158388910
-0.0170429788 0.2095804739 0.0409593793 0.0131412868 0.0004194434 0.0158611017
-0.4970472142 0.2591294788 -0.0444173311 0.0125936734 -0.0001861651 0.0158547386
-0.4615768803 0.0635510288 0.0735444461 0.0125563089 -0.0001449527 0.0158606508
-0.2348169196 0.3824893292 -0.2284531534 0.0129880036 0.0000676006 0.0154062807
-0.4468377765 0.0229367975 0.1553969900 0.0128586873 -0.0004321833 0.0158714918
-0.3690257912 0.2033811310 -0.0937601311 0.0129720450 0.0004590923 0.0158443550
-0.2496473237 0.3342265476 -0.2282379756 0.0129882842 -0.0000056798 0.0154003442
-0.3937632863 0.2098551753 -0.1361527827 0.0131245217 0.0000686566 0.0154268216
0.1496153870 0.1723868202 0.2225483539 0.0129977389 0.0001310164 0.0163012346
-0.1695407944 0.0231521055 -0.1823726086 0.0129928303 -0.0004598050 0.0158454501
0.2227400189 0.0228212923 0.0450833070 0.0129919680 -0.0004601225 0.0158606448
0.2688749477 0.1168657828 -0.2275456538 0.0129929099 0.0000000000 0.0154002595
-0.3621285807 0.0225461170 -0.0613239211 0.0129929089 -0.0004601248 0.0158603503
0.4661624578 0.3962315427 -0.2275456538 0.0129840308 0.0000955100 0.0154165236
0.3788645265 0.2029880422 -0.1335437423 0.0129956467 0.0003801795 0.0160188334
0.3674419215 0.2713327850 -0.1310018222 0.0129632410 -0.0000154809 0.0163186222
0.3260492219 0.1221888405 -0.2275456538 0.0129929099 0.0000000000 0.0154002595
-0.0671087187 0.2113282263 0.0960065958 0.0130044608 0.0004592750 0.0158805645
0.4822229040 0.1641404082 0.1281902487 0.0134504865 -0.0000450435 0.0158612181
0.0629902485 0.0736528317 -0.2275456538 0.0129929099 0.0000000000 0.0154002595
0.0602779823 0.0231799242 0.1761906363 0.0129929099 -0.0004595437 0.0158800970
0.1782379655 0.2036459333 -0.1259024096 0.0129943284 0.0004596256 0.0158446946
-0.4686834836 0.2837807566 0.1546478267 0.0129610904 0.0004523602 0.0158774279
0.3624469383 0.2078296741 0.0500252746 0.0130271372 0.0004587155 0.0158622502
-0.1955487443 0.0231845774 -0.1843972393 0.0129928059 -0.0004597894 0.0158448455
-0.3252035065 0.0938083931 -0.2275456538 0.0129929099 0.0000000000 0.0154002595
-0.3954659507 0.1319255472 -0.2275456538 0.0129929099 0.0000000000 0.0154002595
-0.2590421664 0.0227360634 0.0653399629 0.0129940367 -0.0004601230 0.0158602077
0.3858888723 0.2049540480 0.0318222318 0.0130646788 0.0004541653 0.0158590565
0.1808801730 0.0620513472 -0.2275456538 0.0129929099 0.0000000000 0.0154002595
-0.2369512878 0.2121699539 0.0907627481 0.0129842683 0.0004593652 0.0158792550
0.4543238479 0.1717411735 -0.2275456538 0.0129929099 0.0000000000 0.0154002595
0.2585421626 0.2107397727 0.1103013019 0.0130037679 0.0004591066 0.0158860009
0.1442483920 0.4033297772 -0.1988072716 0.0129938099 0.0004460533 0.0159255026
0.0614552619 0.0229673843 -0.1690728415 0.0129929131 -0.0004598897 0.0158488118
-0.1701632297 0.2830336436 -0.2275456538 0.0129925675 -0.0000041982 0.0154002849
0.4827036424 0.1684288310 -0.0770820239 0.0134510023 -0.0000410477 0.0158603844
-0.1899307365 0.2148954997 0.0322593559 0.0129891672 0.0004599992 0.0158574262
-0.1376416661 0.3407736657 -0.1459520456 0.0129639565 0.0000986949 0.0163064092
0.1781669839 0.0230078039 -0.1716752257 0.0129929936 -0.0004598791 0.0158482573
-0.2231939371 0.0225461170 -0.0129836315 0.0129938071 -0.0004601216 0.0158616994
-0.1783744247 0.2123729996 -0.0195897362 0.0129904961 0.0004593739 0.0158385367
0.1969647992 0.0271272399 -0.2275456538 0.0129929099 -0.0003616172 0.0155863409
-0.0006780786 0.1870475138 0.1212095237 0.0130525577 0.0004278793 0.0158742516
-0.0443259397 0.1918362496 -0.2275456538 0.0129929099 0.0000000000 0.0154002595
-0.0471996277 0.0229604124 0.0792842849 0.0129931965 -0.0004601212 0.0158591535
0.1198762669 0.2106586946 -0.0492961175 0.0129892413 0.0004591006 0.0158301280
0.4378703129 0.0225461170 -0.1316579014 0.0129916468 -0.0004601106 0.0158580295
0.2158438050 0.2127204523 -0.2275456538 0.0129929099 0.0000000000 0.0154002595
0.1505722295 0.0228975819 -0.1640100079 0.0129929665 -0.0004599348 0.0158503803
0.4281125716 0.3382745175 -0.2274582853 0.0129882488 0.0000020071 0.0154002904
-0.4550477917 0.2829536330 -0.0117967928 0.0130633623 0.0004527049 0.0158652783
0.2432811497 0.0230449797 -0.1725169675 0.0129930231 -0.0004598616 0.0158476155
-0.2579347099 0.2037220826 -0.1235418542 0.0129895275 0.0004594995 0.0158456618
-0.0316402593 0.0229768785 0.0768312011 0.0129930705 -0.0004601216 0.0158590385
0.1342915505 0.2036079077 -0.1287445170 0.0129935260 0.0004598340 0.0158492397
-0.0449388403 0.3431720779 -0.1366487282 0.0129438201 0.0001018983 0.0163035366
-0.4109935912 0.4094088228 -0.1914161934 0.0130223174 0.0004470858 0.0159201854
0.0457624186 0.1215203058 -0.2275456538 0.0129929099 0.0000000000 0.0154002595
-0.0163536129 0.0230383590 0.0401208308 0.0130047112 -0.0004599689 0.0158605615
-0.4270029810 0.0169677144 -0.1994780388 0.0129929099 0.0000000000 0.0154002595
-0.4477633898 0.3350626584 -0.2275456538 0.0129942792 0.0000006281 0.0154002618
-0.0712570036 0.3642204021 -0.1447389803 0.0129487066 0.0001669595 0.0162866123
-0.0578692495 0.0226622345 -0.0327956264 0.0129929122 -0.0004601143 0.0158634253
-0.4819904263 0.1604706149 -0.1193001911 0.0125358219 -0.0000492324 0.0158603844
0.0636691350 0.1234004877 0.2277574759 0.0129774754 -0.0000637531 0.0163145667
-0.2897402779 0.0225572800 0.0928076064 0.0129940381 -0.0004601202 0.0158612052
-0.3808189334 0.0871588466 -0.2275456538 0.0129929099 0.0000000000 0.0154002595
0.3605658582 0.0338027743 0.2105173700 0.0129936590 -0.0001984160 0.0162466992
0.2851424275 0.2123151891 0.0289178254 0.0130114989 0.0004596320 0.0158568299
-0.3499633001 0.0228391010 0.1572749674 0.0129929126 -0.0004598460 0.0158716726
-0.2127744291 0.0268743226 -0.2275456538 0.0129928813 -0.0003693638 0.0155906882
-0.0668114937 0.1541891972 -0.2275456538 0.0129929099 0.0000000000 0.0154002595
0.2427911016 0.1719452306 0.2211046786 0.0130004371 0.0001172334 0.0163048038
0.0503073413 0.0229768854 0.0768297618 0.0129927249 -0.0004601216 0.0158590404
-0.0024648777 0.0240121032 0.1825021595 0.0130076974 -0.0004591903 0.0158777145
0.0738536872 0.2081072122 0.1489628108 0.0129859859 0.0004578113 0.0159033122
-0.4445901462 0.2752490414 -0.2275456538 0.0129929209 0.0000000046 0.0154002595
-0.3256223761 0.0906942029 0.2224735809 0.0129946317 -0.0000722690 0.0163143587
0.0787293982 0.3372396576 -0.1392644808 0.0130379984 0.0000862532 0.0163084300
0.2306626950 0.2144223298 0.0425656861 0.0130028200 0.0004599468 0.0158610203
0.1141386008 0.0228664076 0.0932911741 0.0129929099 -0.0004601221 0.0158598419
0.1044867775 0.3484928327 -0.1450331018 0.0130328754 0.0001213524 0.0162995694
-0.1365889732 0.2047799004 0.1806612668 0.0129926264 0.0004556800 0.0159231325
-0.0635336941 0.3876242819 -0.1585374036 0.0129575028 0.0003180774 0.0161900698
-0.0310497347 0.0228763628 -0.1625191799 0.0129928974 -0.0004599380 0.0158506261
0.4545653969 0.0462493738 0.0475026411 0.0134267289 -0.0001532308 0.0158604718
-0.3552351050 0.1234439193 -0.2275456538 0.0129929099 0.0000000000 0.0154002595
0.0794916558 0.2019551066 0.1968581441 0.0129897709 0.0004376625 0.0159777070
0.0443591943 0.0225461170 -0.1035542972 0.0129929122 -0.0004601198 0.0158589092
-0.1430464475 0.1383590242 0.2286742995 0.0129874339 0.0000156125 0.0163182413
0.2390764443 0.1367549200 0.2269720143 0.0130010550 0.0000247243 0.0163189360
0.4858418373 0.2267141843 -0.1150218638 0.0134525507 -0.0000210121 0.0158603844
0.1053233305 0.2339551403 -0.1364535179 0.0130044806 0.0000029535 0.0163201425
0.0755242933 0.2135676277 -0.2275456538 0.0129929099 0.0000000000 0.0154002595
0.3100801602 0.2089325947 0.1062364818 0.0130115008 0.0004589892 0.0158827810
-0.1987799673 0.0230062418 0.0690449102 0.0129937556 -0.0004601235 0.0158599606
-0.1974499751 0.3678345331 -0.1573513969 0.0129916293 0.0001865042 0.0162771015
-0.2332965475 0.0233531644 0.1858054454 0.0129929609 -0.0004593804 0.0158852343
-0.1235272019 0.2052438870 -0.1076094984 0.0129937993 0.0004583561 0.0158201175
-0.3678208283 0.2065919369 -0.0008680329 0.0129555993 0.0004584173 0.0158537972
0.2378536198 0.3708940375 -0.1570193763 0.0129761015 0.0002038468 0.0162655846
-0.1681469539 0.0225461170 -0.1312936265 0.0129928602 -0.0004601147 0.0158575045
0.0934400112 0.1380995722 -0.2275456538 0.0129929099 0.0000000000 0.0154002595
-0.2454003807 0.2107925278 -0.0336238419 0.0129835288 0.0004592423 0.0158356154
0.2638767630 0.0243795778 0.1969151683 0.0129928303 -0.0004330170 0.0159592109
0.3848138247 0.1372589398 -0.2275456538 0.0129929099 0.0000000000 0.0154002595
-0.2868752254 0.1717905449 -0.2275456538 0.0129929099 0.0000000000 0.0154002595
0.3675631593 0.3654425806 -0.2262044842 0.0129878655 0.0000052275 0.0154007537
-0.4707528660 0.3060378356 -0.2275456538 0.0129929099 0.0000000000 0.0154002595
-0.4817332911 0.1582298654 0.0564731411 0.0125360547 -0.0000509335 0.0158605790
-0.1057218814 0.0343129796 -0.2275456538 0.0129929099 -0.0001528006 0.0154788935
0.1006144929 0.1999956581 -0.2275456538 0.0129929099 0.0000000000 0.0154002595
-0.1376478442 0.0227703869 -0.0210583148 0.0129933074 -0.0004601179 0.0158627076
-0.4258366331 0.3793664118 -0.1475097131 0.0129855732 0.0002289797 0.0162531686
-0.4840085274 0.1836790880 -0.1839275241 0.0125341847 -0.0000342094 0.0158671201
-0.4794419348 0.1382621633 -0.1469781291 0.0125381970 -0.0000668952 0.0158604571
