-0.4192985441 0.7283357444 -0.0074729301 -0.0010512795 0.0010120029 -0.0026463273
-0.0083405387 1.3034982115 -0.3048741711 -0.0000019696 0.0005967613 -0.0011417119
-0.3854043938 0.6734938530 0.4462495742 -0.0004414863 0.0001161596 -0.0011366602
-0.2242539500 0.7577942949 0.0883063374 -0.0000133875 0.0015163768 -0.0026360674
0.0996928949 1.2935900179 -0.3002059102 0.0000014544 0.0005864771 -0.0011374475
-0.2196887422 0.8685537525 -0.2446990096 -0.0000055274 -0.0002332021 -0.0040400110
-0.3264186288 1.0553371741 -0.2873563643 -0.0000094392 -0.0004095608 -0.0040023469
-0.3632218275 0.7647318489 -0.0489841694 0.0015197567 0.0000000000 -0.0025391510
0.4999999529 0.8174534169 0.1762511012 0.0015197567 0.0000000000 -0.0025391510
0.0825861472 0.8471929339 -0.2420726664 0.0000024468 -0.0002326778 -0.0040389791
0.4999999529 1.0271534047 -0.2519032901 0.0015197567 0.0000000000 -0.0025391510
-0.4999999529 0.7825767454 0.0043201751 -0.0015197567 0.0000000000 -0.0025391510
-0.0049229433 0.7054227025 -0.2246419355 0.0000007447 -0.0000601474 -0.0040570110
-0.4148935779 0.2911587233 0.4679219232 0.0011650196 0.0000572310 -0.0019431419
0.2316832624 0.7561217646 0.0692814517 0.0000128723 0.0015162096 -0.0026320902
-0.4999999529 0.7340874719 -0.1746005679 -0.0015197567 0.0000000000 -0.0025391510
0.2128092550 1.2916205683 -0.2992779999 0.0000047386 0.0005791595 -0.0011344323
0.3889048707 0.7114898099 0.4805906120 -0.0008738647 0.0000000000 -0.0013403958
-0.0333909467 1.4459351449 -0.4109340623 0.0000009164 0.0013145637 -0.0032872725
-0.2097048115 1.3205336051 -0.3129004789 -0.0000085502 0.0006079589 -0.0011463958
-0.1373295995 0.6716512954 0.4533878577 -0.0000013009 0.0000934225 -0.0010230736
-0.1788045607 1.0675331669 -0.2145714608 -0.0000039954 0.0004526626 -0.0010886359
-0.4069417550 0.4970099729 0.2388283628 -0.0009137902 -0.0011632415 -0.0025387589
0.4717310315 0.3069473252 -0.2037121199 0.0009737203 -0.0000567584 -0.0021437194
0.3711249286 1.3544393724 -0.2612646038 -0.0009264878 0.0004274756 -0.0015406967
-0.1577955991 1.3270688187 -0.3919673894 -0.0000016413 -0.0005662127 -0.0039492724
0.1633447536 1.0052467032 -0.1992777723 0.0000047766 0.0003702857 -0.0010666906
-0.3632218503 0.9280357530 0.0232781779 0.0015181731 0.0000491201 -0.0025391510
0.1981543962 0.8588919252 -0.1675232388 0.0000067188 0.0002218130 -0.0010367499
-0.4185788770 0.4694433722 -0.1624501663 0.0003383222 -0.0014660120 -0.0025391510
-0.4999999529 0.8784025814 0.2593003000 -0.0015196366 0.0000044590 -0.0025391510
0.3903975194 0.7194370872 0.4258626749 0.0005917887 0.0009101215 -0.0015521967
0.4963531493 1.1658268446 -0.3270126782 0.0013920059 -0.0002121899 -0.0030700278
0.4072947944 0.0215592837 0.4643560512 -0.0010072826 -0.0001597659 -0.0027300142
-0.4696048190 0.3098753203 0.4438202735 -0.0013970667 -0.0000601702 -0.0026679701
0.4209582278 0.3832225961 0.4296674466 -0.0003717918 -0.0000450274 -0.0034459184
0.2412137432 0.6758187540 0.4522436800 0.0000218541 0.0002076611 -0.0010426891
0.0224392988 0.6691042835 0.4533878577 0.0000080593 0.0001098328 -0.0010245356
0.2175413351 0.9221377915 -0.1792170006 0.0000068070 0.0002851124 -0.0010479368
-0.4999999529 1.2264573814 -0.2841750469 -0.0015186564 0.0000178100 -0.0025076692
0.4999999529 0.8488818820 0.3498336091 0.0015197567 0.0000000000 -0.0025391510
-0.0292351766 0.7609696988 0.2161410047 -0.0000017857 0.0015184968 -0.0025056039
-0.4999999529 0.9340737798 0.1306568471 -0.0015185379 0.0000453997 -0.0025391510
-0.1075027969 0.4802431158 0.3730450066 -0.0000165198 -0.0015177506 -0.0024664549
-0.4361818586 0.6661463050 0.3827859814 -0.0014781169 0.0001228571 -0.0023166875
-0.4782777938 0.6056973426 -0.2682947065 -0.0010438266 -0.0000155653 -0.0034364320
0.4991354894 0.9510083450 0.4370887833 0.0014888372 0.0000387340 -0.0022874398
-0.1470126442 0.7598241305 0.1628736435 -0.0000087082 0.0015183266 -0.0025661844
-0.4803934304 0.5148937357 -0.2655387098 -0.0009458251 -0.0003813434 -0.0035848059
0.4982302114 0.9949207239 0.0405809483 0.0014731047 0.0002352492 -0.0025391510
-0.0668471594 0.4902363702 0.4162226454 -0.0000036626 -0.0013034832 -0.0017795994
0.4371692749 0.5489436975 0.3102219579 0.0014751822 -0.0002442249 -0.0024783805
0.1492464449 1.1158085377 -0.3079384520 0.0000051748 -0.0004889240 -0.0039774259
0.4094903444 0.7987853807 0.4892711006 -0.0004659924 0.0000000000 -0.0011134642
-0.0735238593 1.4469749685 -0.4078143590 -0.0000004742 0.0013575196 -0.0032059351
0.3845262024 1.1107669242 -0.2550786029 0.0013530728 0.0001908617 -0.0019109717
-0.4999999529 0.7406839059 0.0975272013 -0.0015197567 0.0000000000 -0.0025391510
0.2926736107 0.7649919431 -0.2319659911 0.0000083313 -0.0001599483 -0.0040477846
0.3462099248 1.4064575544 -0.3533838748 0.0000044043 0.0006186276 -0.0011510766
-0.3471418472 0.7495943427 -0.0049681416 -0.0000215988 0.0015072369 -0.0027244777
0.4999999529 0.7121430621 0.4194848716 0.0015136458 0.0000000000 -0.0024313440
0.3735685134 0.5017236397 0.2561652684 -0.0012787096 -0.0008017628 -0.0025391510
0.3281513597 0.4802431158 0.3714778503 0.0000078647 -0.0015178555 -0.0024654382
0.4132417331 0.4753369294 0.3197322867 -0.0004338677 -0.0014322597 -0.0025391510
-0.1040850829 1.2014967880 -0.2627983666 -0.0000025517 0.0005446367 -0.0011215083
0.4756838458 1.0420209368 0.1557454937 0.0012324649 0.0008108221 -0.0025277665
0.1483760225 1.4391689632 -0.4189931604 0.0000053511 0.0010466792 -0.0036028834
0.1593444698 0.6607708055 -0.2417966634 0.0000049574 0.0006858480 -0.0038871220
0.4999999529 0.7875962829 0.2914661952 0.0015197567 0.0000000000 -0.0025391510
0.4795262770 1.0403598169 -0.1257005254 0.0009392416 0.0010332203 -0.0020896313
0.4394161653 0.6200521984 0.4929015318 0.0001824103 -0.0000169043 -0.0010353350
-0.4534967339 1.3971778000 -0.2678179512 -0.0002900045 0.0007489376 -0.0012865402
-0.4758203868 0.6315930362 -0.2698778173 -0.0009397279 -0.0000003647 -0.0035846463
-0.3877987720 1.0291361204 0.0959742030 0.0009179954 0.0011625166 -0.0025391510
-0.3348333636 0.7361519063 0.4163240314 -0.0000024103 0.0012309361 -0.0016532179
-0.2478198019 1.2221922496 -0.3462366171 -0.0000053085 -0.0005409559 -0.0039588499
-0.3190035991 1.2154584402 -0.3438123954 -0.0000074438 -0.0005312021 -0.0039620308
0.2344518746 0.4869176988 -0.2127208804 0.0000067979 -0.0014180804 -0.0030229108
0.0908627817 0.6549472362 -0.2268790873 0.0000022295 -0.0000361489 -0.0040576052
0.3565201579 0.7443786198 -0.0532427161 0.0000174559 0.0015031442 -0.0027437908
-0.1868549854 1.3365329774 -0.3204386453 -0.0000085775 0.0006102461 -0.0011474019
0.4523131337 0.4755402561 -0.0262912460 0.0004551428 -0.0014256154 -0.0025391510
-0.1488410316 0.8987528880 -0.2495601855 -0.0000038511 -0.0002699529 -0.0040340597
0.3635477803 0.5052104342 -0.1661828301 0.0006411246 -0.0007359133 -0.0014479535
0.1040930145 1.3292927988 -0.3930152373 0.0000059058 -0.0005757446 -0.0039453408
0.1856810676 0.4802431158 0.2431692104 0.0000088191 -0.0015195546 -0.0025352817
-0.3694815473 1.3775535146 -0.3397656390 -0.0000159666 0.0006160850 -0.0011500067
-0.4966264152 0.5145361050 -0.1867636078 -0.0014193069 -0.0004060319 -0.0025391510
-0.3990841296 0.4892148186 0.3293453694 -0.0008264878 -0.0012691154 -0.0025250674
-0.3351625626 0.6946584406 -0.2248768474 -0.0000081748 -0.0000143830 -0.0040587481
0.3854063193 0.6524926118 -0.1800525233 0.0014138859 -0.0000084149 -0.0020166921
-0.4999999529 1.0720314020 -0.2350728707 -0.0015177719 0.0000091793 -0.0025066996
-0.2075647084 1.3589801835 -0.4070025825 -0.0000022964 -0.0005619148 -0.0039510125
-0.2809544918 0.4961692557 -0.1705035713 -0.0000018617 -0.0011569452 -0.0016192316
0.3270222549 0.9505100457 -0.1860654711 0.0000099772 0.0003046778 -0.0010526192
-0.4272884901 0.5183956502 0.0321797652 -0.0013234816 -0.0007403312 -0.0025375659
0.1700478943 0.7572003618 0.0815506420 0.0000095030 0.0015168448 -0.0026249899
0.4999999529 0.9173494075 0.2605648774 0.0015189573 0.0000297477 -0.0025391510
0.2061317511 0.9484493210 -0.1855680532 0.0000063389 0.0003116504 -0.0010537970
0.1606558329 0.6105308999 -0.1531307462 0.0000082264 -0.0000461915 -0.0010213001
-0.1415571645 0.7613073401 0.2318427844 -0.0000083313 0.0015187187 -0.0024971175
0.4268010905 0.4726443324 -0.0854720185 -0.0001272356 -0.0015039938 -0.0025391510
-0.0738575873 0.5421037255 -0.2575072774 0.0000005821 -0.0002513130 -0.0040066676
0.1376963320 0.4873931334 0.4071917162 0.0000010471 -0.0013401655 -0.0019037468
-0.2614004237 0.4802430687 -0.1703296732 -0.0000050410 -0.0015179664 -0.0026080719
0.2904047584 0.7452218416 0.3863231209 0.0000245760 0.0014742096 -0.0022309778
0.0762214700 0.7549787465 0.0562794058 0.0000035562 0.0015150348 -0.0026487969
0.4764310630 0.7314773384 -0.2712763855 0.0009138586 -0.0000694438 -0.0037038104
-0.3632218503 0.5706303763 -0.0133318642 0.0015178175 -0.0000601945 -0.0025391510
-0.0161919331 0.5737492453 -0.2309731264 -0.0000038678 0.0000126657 -0.0040587147
0.0686601957 0.4802431158 -0.0129837275 0.0000033328 -0.0015196473 -0.0025391510
-0.4959126387 1.1399622254 -0.3208947395 -0.0013906139 -0.0001903222 -0.0030841737
0.4233709236 1.0469520761 0.1097954403 -0.0002524985 0.0014967157 -0.0025391510
0.3302949400 1.4465572771 -0.3790023587 0.0000082234 0.0013837947 -0.0019184140
-0.3632218731 0.5351412186 0.0513474549 0.0015168220 -0.0000910714 -0.0025391510
-0.0481141581 0.7822366923 -0.2340862447 -0.0000006611 -0.0001497766 -0.0040491204
-0.4465601069 0.8441056499 0.4914438769 -0.0003364848 0.0000000000 -0.0010734277
-0.1304302491 0.5273484306 -0.1573248142 0.0000027204 -0.0001008875 -0.0010228973
0.4726443324 1.4299867893 -0.4871727163 -0.0006563951 0.0008040972 -0.0036294077
0.1340942716 0.4802431158 -0.0138684599 0.0000066109 -0.0015196473 -0.0025391510
0.2890830184 0.4956973454 0.4213962088 0.0000021596 -0.0011256595 -0.0015566739
0.4999999529 0.8210385366 -0.2098967059 0.0015197567 0.0000000000 -0.0025391510
-0.3636022530 1.0216627457 -0.2679967430 0.0014506306 -0.0001220577 -0.0029673348
-0.2821802956 0.5404607849 0.4489722244 -0.0000209043 -0.0004234179 -0.0011191602
0.4999999529 0.6642658113 -0.0235588785 0.0015197567 0.0000000000 -0.0025391510
-0.0486652249 0.4905086164 -0.2126669412 -0.0000020380 -0.0012972643 -0.0033183819
0.4993472113 0.5294343392 -0.1397164055 0.0015011655 -0.0001382675 -0.0025391510
-0.1157418113 0.6488156152 -0.1512004166 -0.0000006444 0.0000063587 -0.0010215767
-0.0469998953 1.0471256278 -0.2853743219 -0.0000012948 -0.0004207446 -0.0039986280
0.2139272048 0.6398766555 -0.2488810533 0.0000059757 0.0003722370 -0.0040013043
-0.0812690212 0.7197176829 0.4327582548 0.0000025122 0.0009508920 -0.0013965614
-0.3145904248 0.4802431158 0.0208275338 -0.0000158115 -0.0015196473 -0.0025391510
-0.3632218503 0.6516637684 0.0529771994 0.0015197567 0.0000000000 -0.0025391510
0.4125073639 1.0442361980 -0.0722458329 -0.0004819574 0.0014135242 -0.0025230264
-0.4182243527 1.0769431538 -0.2421747469 -0.0013307841 0.0002188191 -0.0018595796
-0.3317905569 0.8344853788 -0.1645224518 -0.0000090000 0.0002349498 -0.0010404140
-0.0962903587 0.6186031697 0.4533878577 -0.0000053115 -0.0000039970 -0.0010214900
-0.3726054254 0.5530289236 0.4642911652 0.0013251974 -0.0000302781 -0.0018038927
-0.1483316137 0.5417082483 0.4493215071 -0.0000156565 -0.0003638130 -0.0010899779
0.4335452433 0.7086799667 0.0966009369 0.0013934908 0.0004763723 -0.0025428090
-0.1959163858 0.7254503496 0.4270255882 -0.0000002827 0.0010410409 -0.0014815660
-0.1373940083 1.1093803681 -0.3056243109 -0.0000033146 -0.0004646641 -0.0039849335
0.2337186649 0.7552142601 0.2999625576 0.0000195015 0.0015121807 -0.0024017771
0.3632218503 0.8119120192 0.0114823188 -0.0015197567 0.0000000000 -0.0025391510
-0.1539372591 0.4924611846 -0.2260034460 0.0000009590 -0.0012297385 -0.0034066068
-0.0845638416 0.7506288320 0.0067990092 -0.0000064954 0.0015104710 -0.0026980127
-0.1949761397 0.6171481121 -0.2534385149 -0.0000134134 0.0002442507 -0.0040363940
0.3632218503 0.6785936260 0.2180299407 -0.0015197567 0.0000000000 -0.0025391510
0.3175830719 0.4802431158 0.3343961212 0.0000096930 -0.0015183479 -0.0024856099
-0.1248919122 0.8853199591 -0.2467604304 -0.0000031459 -0.0002582477 -0.0040363712
0.4383144253 0.4726443324 0.2342900334 0.0001719270 -0.0015003692 -0.0025391510
-0.3632218503 0.8492426206 -0.1443987075 0.0015197567 0.0000000000 -0.0025391510
-0.0033314009 0.7600248144 0.1722046943 -0.0000003131 0.0015186837 -0.0025507650
0.2541848028 0.7520795766 0.3323543190 0.0000242082 0.0015095910 -0.0023750659
0.2282751730 0.7032766404 -0.1920968200 0.0000054909 0.0013047643 -0.0032756646
0.4450792164 1.0326954528 0.4693217894 0.0003161398 0.0011346625 -0.0016670705
-0.3758920710 0.8427928370 0.4675778807 0.0012151731 0.0000000000 -0.0016803653
-0.4326299471 0.6906641158 0.3701268215 -0.0013902005 0.0004700243 -0.0024033470
0.4999999529 1.4013122357 -0.3839963430 0.0015174026 0.0000835593 -0.0025331647
-0.0851680710 1.1666254949 -0.3262325323 -0.0000011322 -0.0005107811 -0.0039694852
-0.3632663518 0.9647027586 0.4337793413 0.0014979999 0.0000576611 -0.0022954990
-0.4111553138 0.5014575607 0.1949139672 -0.0009972005 -0.0010783160 -0.0025381373
-0.4999999529 0.7968984857 -0.1483469777 -0.0015197567 0.0000000000 -0.0025391510
-0.3540001156 1.3180678029 -0.3877264901 -0.0000068875 -0.0005553267 -0.0039537542
0.4999999529 0.8724660318 0.2502662158 0.0015197567 0.0000000000 -0.0025391510
0.1351857502 1.2874327024 -0.3732926966 0.0000051413 -0.0005848525 -0.0039416417
0.0232111437 0.8749492717 -0.2454853469 0.0000007614 -0.0002580927 -0.0040358514
-0.4148150582 0.4703843615 0.0065891202 0.0004030258 -0.0014424300 -0.0025391510
0.4167796385 0.7364985461 0.1358050533 0.0010192917 0.0010491276 -0.0025347239
-0.4999999529 0.8524960352 -0.0785559842 -0.0015197567 0.0000000000 -0.0025391510
-0.4378618098 1.0440728500 0.2134046493 -0.0001893085 0.0014921093 -0.0025391510
-0.4867176183 1.0193613128 0.3008896791 -0.0011779148 0.0008938054 -0.0025391510
-0.4999999529 0.7609571304 0.2321138011 -0.0015197567 0.0000000000 -0.0025391510
-0.4999999529 0.6053118852 0.2583295585 -0.0015190834 -0.0000250334 -0.0025391510
0.2212954138 0.8140074355 -0.1620046481 0.0000072994 0.0001652219 -0.0010316405
0.4108874278 0.4990333162 -0.0599058842 0.0009618783 -0.0011158236 -0.0025399671
0.3568927004 0.7490207227 0.3639619710 0.0000341277 0.0015070622 -0.0023493166
-0.4999999529 0.9825782661 -0.0866793695 -0.0015180789 0.0000711444 -0.0025382604
-0.3637533563 0.5256724687 0.3893386100 0.0015045834 -0.0001370106 -0.0025391510
-0.0882688048 1.2722782692 -0.2901647926 -0.0000031185 0.0005885440 -0.0011382195
0.4999999529 0.8035429684 0.1523454043 0.0015197567 0.0000000000 -0.0025391510
-0.4839863419 0.9812508908 0.4724409350 -0.0011477674 0.0000530593 -0.0016310705
0.0457743224 0.8096842368 -0.1614731178 0.0000026353 0.0001798100 -0.0010319262
-0.4201848981 0.7143609676 -0.1952461951 -0.0013961154 -0.0000160684 -0.0031153059
-0.4806261629 1.0254526769 0.1185553756 -0.0010188221 0.0010561549 -0.0025391510
0.4845194255 1.0261187757 0.2641070032 0.0011095333 0.0009583023 -0.0025391510
-0.3517292693 0.4938354033 0.4196322652 -0.0000091717 -0.0012938950 -0.0017990097
0.3632218503 0.6472089436 0.1005408591 -0.0015197567 0.0000000000 -0.0025391510
-0.0351974663 1.3470392789 -0.4013765891 0.0000022310 -0.0005700851 -0.0039476600
-0.3788975418 1.0202349130 -0.0523256873 0.0011169573 0.0009793753 -0.0025379109
-0.2492106467 0.7568220457 0.2833485668 -0.0000111201 0.0015145439 -0.0024425492
-0.2040376328 0.9343797904 -0.2581597880 -0.0000055198 -0.0003006428 -0.0040270688
0.4392097322 0.6050348609 -0.1175322967 0.0015165090 -0.0000092386 -0.0025770157
-0.0394324583 0.7593959102 0.1429591408 -0.0000024438 0.0015181701 -0.0025797148
-0.0283355855 1.2349888532 -0.3508433340 0.0000003313 -0.0005625866 -0.0039502922
0.3632218503 0.6586788680 0.0051408802 -0.0015197567 0.0000000000 -0.0025391510
0.3203173634 0.4802431158 0.1410523720 0.0000160973 -0.0015196473 -0.0025391510
-0.2740434666 0.7600077460 0.2504292629 -0.0000150030 0.0015177111 -0.0024847984
-0.3632218503 0.8182816585 0.3586634609 0.0015197567 0.0000000000 -0.0025391510
0.2560994333 1.2698179396 -0.3649934010 0.0000079164 -0.0005926018 -0.0039384715
-0.4143602163 0.5075239263 -0.2111893897 -0.0012037537 -0.0005897492 -0.0032176296
0.3632218503 0.9566486241 -0.0971280387 -0.0015179953 0.0000599103 -0.0025375887
-0.4983093816 1.0954022980 -0.2948266310 -0.0014363692 -0.0001435015 -0.0029849762
0.1665379554 0.6345589448 0.4533878577 0.0000125532 0.0000620790 -0.0010237970
0.4475337481 1.1356939386 -0.3603696173 0.0003421975 -0.0004974984 -0.0039143591
0.4068907838 0.4953519123 0.3477486276 0.0008209665 -0.0012363707 -0.0025064139
0.4734315739 1.0425530933 -0.0699942738 0.0001893875 0.0014595759 -0.0025009777
-0.0103674063 1.4154357511 -0.4319429084 0.0000049574 -0.0004086170 -0.0039481630
0.0860417533 0.5622407327 -0.2315533786 -0.0000008860 0.0000150182 -0.0040587192
-0.1443666125 1.2009433899 -0.2625991675 -0.0000036915 0.0005465668 -0.0011223152
-0.3803080751 1.3304387379 -0.3935551384 -0.0000073222 -0.0005532568 -0.0039545946
-0.1029805496 0.7602358387 0.1820158271 -0.0000061246 0.0015188099 -0.0025470461
-0.4239572974 1.0266410066 0.4723202572 0.0002584544 0.0010913586 -0.0015918122
-0.3632218503 0.8477627499 0.2067025634 0.0015197567 0.0000000000 -0.0025391510
-0.4376899284 0.6592702038 0.3033071530 -0.0015140713 0.0000784240 -0.0024875127
-0.4999999529 0.9653657966 -0.1457831648 -0.0015175652 0.0000547781 -0.0025071981
-0.0629414667 0.9762363609 -0.1922752881 -0.0000017705 0.0003585136 -0.0010637347
0.0462201719 0.8448949325 -0.1658022891 0.0000022918 0.0002180517 -0.0010368092
-0.4999999529 0.7633094873 0.3930361522 -0.0015197567 0.0000000000 -0.0025391510
0.4342448284 0.5384994508 0.0982747666 0.0014247795 -0.0004021869 -0.0025375264
-0.2005625480 1.0908734534 -0.2229739980 -0.0000046003 0.0004714969 -0.0010949459
0.4711245757 1.0402953488 0.1940066952 -0.0015197567 0.0000000000 -0.0025391510
-0.3970225234 0.4092477335 -0.1867490090 0.0009286625 -0.0000597508 -0.0015044125
0.3632218503 0.6601446855 -0.1280852546 -0.0015197567 0.0000000000 -0.0025391510
-0.4750929279 0.4860914527 0.4545606038 -0.0008431413 -0.0010465683 -0.0019395750
-0.2677678380 1.2026416146 -0.3391983503 -0.0000060851 -0.0005251534 -0.0039641949
0.3934342502 1.0393308458 0.2322902281 -0.0007458829 0.0013220865 -0.0025391510
0.2335389446 0.4802431158 -0.0483864567 0.0000118465 -0.0015195850 -0.0025417726
0.4999999529 0.9878129115 0.3682199843 0.0015175652 0.0000815684 -0.0025391510
0.4462782604 0.2990807712 0.4334337228 0.0002420866 -0.0000515304 -0.0039113545
0.4620060355 0.2286341031 0.4663912197 0.0011543586 0.0000116793 -0.0019671510
0.0203072777 0.7412296976 -0.0699560519 -0.0000027796 0.0014897385 -0.0028124549
0.1116072478 1.1964874526 -0.3369828353 0.0000040350 -0.0005435592 -0.0039571098
-0.4069457443 0.5256526192 -0.2819661870 0.0004748161 -0.0000703389 -0.0039504062
-0.0361243568 0.7544274365 0.3080926845 0.0000031550 0.0015116199 -0.0023963577
0.4202524270 1.4536000652 -0.4684076542 -0.0003204787 0.0012204315 -0.0033333621
0.3983889959 0.9614433152 0.4864957634 -0.0006983875 0.0000574909 -0.0012068274
-0.2766968721 0.4802431158 -0.1413789054 -0.0000077933 -0.0015183540 -0.0025924154
0.4287039398 0.4499668983 -0.1818704289 -0.0002619726 -0.0000587386 -0.0015785766
0.4999999529 0.9217190788 0.3677637275 0.0015188707 0.0000329620 -0.0025391510
0.4680850623 0.0130070170 -0.2470953118 0.0010886124 -0.0007074984 -0.0028381920
-0.4274094020 0.1422259076 0.4375522969 0.0004043146 -0.0000228480 -0.0038708393
0.3674137268 0.6103741385 0.4522141831 0.0000966793 0.0000382568 -0.0010430797
0.1710375599 0.8218989651 -0.1629749140 0.0000059939 0.0001806292 -0.0010326815
0.0054233217 0.7497987363 -0.0026436115 -0.0000014742 0.0015103144 -0.0027009245
-0.0846736090 0.9408356955 -0.1837302737 -0.0000024012 0.0003258282 -0.0010560523
0.3828373226 1.0287339183 0.0264301913 -0.0010300653 0.0010443677 -0.0025391510
-0.4137999549 0.9615313425 0.4903484439 0.0003698389 0.0000654818 -0.0010821390
-0.1348437852 0.7184415098 -0.1635168911 -0.0000136824 0.0014105363 -0.0030838607
0.4072947944 0.1023871606 0.4589063907 -0.0009804923 -0.0000829696 -0.0029261297
0.3881794528 1.0340760713 0.3894783045 -0.0008424270 0.0012163388 -0.0025391510
-0.3796788472 0.4906176073 -0.1448762759 0.0011238935 -0.0009565835 -0.0025391510
-0.4376899284 0.5901207180 -0.1496682420 -0.0015124436 -0.0000466581 -0.0026196494
-0.3632218503 0.8975426662 -0.0040701493 0.0015190971 0.0000213222 -0.0025390704
0.2483121407 0.5672614769 0.4533878577 0.0000092644 -0.0000575380 -0.0010212621
-0.4268626817 0.6646677793 0.4155828902 -0.0012746974 0.0000869331 -0.0017199140
-0.4999999529 0.8082786655 0.0383793634 -0.0015197567 0.0000000000 -0.0025391510
-0.0357616471 0.5502243676 -0.1561714070 0.0000046687 -0.0000858328 -0.0010224596
0.3130163109 0.4802431158 0.1110880085 0.0000157584 -0.0015196473 -0.0025391510
-0.0445466858 1.1744452298 -0.2530598280 -0.0000006550 0.0005221854 -0.0011129809
0.4999999529 0.9252414934 -0.0231990290 0.0015189011 0.0000336368 -0.0025391510
0.4072766607 1.3554079589 -0.4601806626 -0.0004630987 -0.0006572051 -0.0038104062
0.1732694001 1.0274178606 -0.2806172448 0.0000050274 -0.0004169832 -0.0039989639
0.3121990846 1.1333136607 -0.2382524965 0.0000090471 0.0004682051 -0.0010950645
-0.3676598392 0.5133019987 0.2295984442 0.0014157932 -0.0004256261 -0.0025391510
-0.1083597010 1.4478751903 -0.4051137392 -0.0000022067 0.0013888053 -0.0031450248
0.2030023076 0.6156043311 -0.2536275574 0.0000071155 0.0002016763 -0.0040438362
0.3995486645 1.0994133645 -0.1771993382 -0.0002881398 0.0005912006 -0.0011973304
-0.1637650195 0.6415699639 0.4533878577 -0.0000065851 0.0000315380 -0.0010208852
-0.0030303888 1.0354391593 -0.2065656059 0.0000004073 0.0004106808 -0.0010770994
0.0945545914 0.5622161978 0.4533878577 -0.0000006611 -0.0000878769 -0.0010231481
0.4392096851 0.6610405487 0.3273321143 0.0015166761 0.0000546596 -0.0024941388
-0.4458872361 1.0425254519 0.0856536963 -0.0003706428 0.0014611397 -0.0025391510
-0.1022993885 0.7551624091 0.0583686533 -0.0000068252 0.0015147628 -0.0026545765
0.4999999529 0.7413194879 0.4063166312 0.0015171199 0.0000000000 -0.0024917604
0.4999999529 0.5435357315 0.2202185332 0.0015177917 -0.0000731580 -0.0025391510
-0.4690465515 0.3704180152 -0.2169639362 -0.0010019224 -0.0000804058 -0.0027071966
0.4321998726 0.7122621183 -0.0165445326 0.0013323585 0.0006108662 -0.0026067771
0.3456464872 0.5740970432 0.4533878577 0.0000159939 -0.0000312690 -0.0010217590
0.4772036025 1.4501925792 -0.4547864731 0.0012603175 -0.0005548389 -0.0023115461
-0.3330931191 0.9817470564 -0.1936054460 -0.0000089286 0.0003821094 -0.0010706466
0.1204404522 1.1696891269 -0.2513475971 0.0000038921 0.0005082857 -0.0011081420
0.4999999529 0.6167388613 0.4306648796 0.0015088844 -0.0000194119 -0.0023741419
0.4290408851 0.7076269257 0.3779208390 0.0013615546 0.0006455395 -0.0024214017
-0.3632218275 0.8751489798 0.3684531332 0.0015196761 0.0000024772 -0.0025391510
-0.4975192632 0.5391259887 -0.2016272781 -0.0012062172 -0.0001024483 -0.0034350430
-0.3697323208 0.7462265558 -0.0177002605 -0.0001591732 0.0014734786 -0.0027305628
0.4726031014 0.6154939481 0.4838242226 0.0007471853 -0.0000196884 -0.0012334034
-0.1743668164 0.6860493761 0.4493790633 -0.0000027340 0.0003110896 -0.0010779262
0.4949958120 1.4247906393 -0.4030071452 0.0013916868 0.0005081322 -0.0025498835
-0.2733215958 1.1792462293 -0.3307760334 -0.0000065137 -0.0005073784 -0.0039701843
-0.0629185214 1.1842633550 -0.3325821351 -0.0000004438 -0.0005249194 -0.0039644533
0.0825029953 0.4802431630 -0.0898687233 0.0000069225 -0.0015190363 -0.0025643637
-0.3750868324 1.0164242051 0.0579452567 0.0012400561 0.0008405941 -0.0025391510
-0.4487532921 0.0835110666 -0.2008749590 -0.0004617021 -0.0001308131 -0.0013728654
0.0831423736 1.4096706179 -0.3548977409 -0.0000036702 0.0006207188 -0.0011519839
0.4333262859 0.4726443324 0.1102027442 0.0000276398 -0.0015003692 -0.0025391510
-0.2059863043 0.7603308706 0.2470907419 -0.0000112751 0.0015178357 -0.0024838425
-0.0354512018 0.5464474698 -0.2323496871 -0.0000062036 0.0000185532 -0.0040586767
0.0022901016 0.6280779028 -0.1522460153 0.0000029954 -0.0000302188 -0.0010211222
0.3220079119 0.4802431158 0.2580089141 0.0000147173 -0.0015193585 -0.0025272011
0.3666948241 0.9994184955 0.0511874579 -0.0014380819 0.0003537294 -0.0025391510
-0.1189568475 0.6996146712 -0.1989981750 0.0000000350 0.0013323525 -0.0032484305
0.4222764192 0.5833160864 -0.2842159071 -0.0002888191 -0.0000073526 -0.0040257314
-0.2645017608 1.0567021178 -0.2116980553 -0.0000063663 0.0004486489 -0.0010877180
0.4392096851 0.5734499125 0.2391038095 0.0015166154 -0.0000728936 -0.0025368744
-0.1073642741 1.0434590658 -0.2844892901 -0.0000030942 -0.0004131580 -0.0040007739
-0.3354241416 0.7951673324 -0.1596882456 -0.0000086672 0.0001929362 -0.0010348958
-0.3632218503 0.8037816370 -0.1405885559 0.0015197567 0.0000000000 -0.0025391510
0.3986129153 0.7461288355 0.0683324791 0.0005549346 0.0014032066 -0.0026250142
-0.4999999529 0.8856453573 0.3942273588 -0.0015194938 0.0000097842 -0.0025391510
0.0105977148 0.9265545844 -0.1802831099 0.0000005410 0.0003048039 -0.0010516754
-0.0656649406 0.7611944997 0.2265942241 -0.0000039027 0.0015185379 -0.0024971069
-0.2843316921 0.9035955349 -0.2507291291 -0.0000074088 -0.0002646292 -0.0040348241
-0.1507807761 0.8227001216 -0.1630734231 -0.0000034043 0.0002088237 -0.0010363137
-0.3879656899 0.9334836506 -0.2934185552 0.0008879969 -0.0002277751 -0.0037085019
-0.1397392118 0.5903802103 0.4533878577 -0.0000113967 -0.0000645562 -0.0010237332
-0.3730029193 0.7659116452 -0.2571417622 0.0012357126 -0.0000728100 -0.0034130977
0.3864605198 1.2053392193 -0.3068444339 0.0014271184 -0.0001793617 -0.0029855415
-0.4498468695 0.0000000000 0.4612935333 -0.0004352310 -0.0004646550 -0.0027349549
0.0108930810 1.0668699420 -0.2143326994 0.0000010684 0.0004392766 -0.0010845706
-0.4934959991 1.1085701220 -0.3189504494 -0.0013415272 -0.0002220927 -0.0032019701
-0.4999999529 0.7793148901 -0.0349405659 -0.0015197567 0.0000000000 -0.0025391510
0.3632218503 0.8556342431 0.0529610246 -0.0015197567 0.0000000000 -0.0025391510
0.2594487841 1.1726100947 -0.2523991548 0.0000076003 0.0005010106 -0.0011060189
-0.4053114770 1.2807656787 -0.4192299263 0.0005362689 -0.0006318860 -0.0037883575
-0.4947269519 0.6908111841 0.4547228850 -0.0013844573 0.0000000000 -0.0019736966
-0.4999999529 0.7007120510 0.2355153053 -0.0015197567 0.0000000000 -0.0025391510
-0.4083903202 1.0384789508 -0.2717850040 -0.0009765303 -0.0002934498 -0.0036058667
-0.4974028513 1.0697082624 -0.2900901923 -0.0014181397 -0.0001447568 -0.0030315354
-0.3846771431 0.6207039202 0.4763629072 0.0009445698 -0.0000130289 -0.0014100432
-0.1499602807 0.6317638979 -0.2514429999 -0.0000126960 0.0002972021 -0.0040275992
-0.3632218503 1.1141660622 -0.2716981347 0.0015195606 0.0000026505 -0.0025344640
0.1242957071 0.7304774935 0.4219984443 0.0000064453 0.0012066458 -0.0016679079
0.4043953008 0.3827356129 -0.2422276892 -0.0009076291 -0.0001266352 -0.0037152162
-0.0263063349 1.2095214255 -0.2656872158 -0.0000004027 0.0005458054 -0.0011217788
0.1054474050 0.5450529836 -0.2582150722 0.0000096064 -0.0002340592 -0.0040169837
-0.4927747545 0.4998997736 -0.0706352935 -0.0013062537 -0.0007589787 -0.0025391510
0.2250978435 0.7390816872 0.4082521781 0.0000040562 0.0013957825 -0.0019672863
0.1449829468 1.1887502740 -0.3341974799 0.0000049149 -0.0005400379 -0.0039583560
-0.4199466489 0.8697815047 -0.2151296355 -0.0013876093 -0.0000861824 -0.0031248591
0.4694629907 0.1334134707 -0.2312999622 0.0009642537 0.0000303723 -0.0031469503
-0.2569203238 0.4802430687 -0.0389732600 -0.0000130289 -0.0015196473 -0.0025391510
0.3632218503 0.8151436360 0.0937653020 -0.0015197567 0.0000000000 -0.0025391510
0.3041558254 0.6270554257 -0.2522254177 0.0000109392 0.0002282994 -0.0040410976
-0.3421776638 0.5049539570 -0.2275947194 -0.0000029726 -0.0006917066 -0.0038872451
0.2254405639 0.6965161623 0.4464484481 0.0000158176 0.0005799331 -0.0011755174
-0.3078391762 0.7550521188 0.3016378234 -0.0000131930 0.0015129862 -0.0024244549
-0.1841822273 0.6235338911 -0.2284629640 -0.0000069088 0.0000021672 -0.0040587451
-0.4320620322 0.4680850623 0.2966095427 0.0000093632 -0.0015003616 -0.0025391510
0.4999999529 0.8714927158 -0.0898253069 0.0015197567 0.0000000000 -0.0025391510
-0.4999999529 1.2563811172 -0.2655159377 -0.0015160333 0.0000315608 -0.0024630735
0.0399132668 1.2631998004 -0.3618753208 0.0000022021 -0.0005804589 -0.0039434685
-0.1428001066 1.0486479817 -0.2857417854 -0.0000040973 -0.0004156808 -0.0040002223
0.0065292851 0.7521309185 0.0238854696 -0.0000011079 0.0015128129 -0.0026772695
-0.4061363781 0.1983125953 -0.2138260520 0.0009731777 -0.0000565988 -0.0024806586
0.3993638423 0.4635948515 -0.2043728858 -0.0010218586 0.0002968647 -0.0020937452
-0.4563117716 1.0393981878 0.2665961337 -0.0005361185 0.0013984497 -0.0025391510
-0.3632218503 0.7141626485 0.1618856481 0.0015197567 0.0000000000 -0.0025391510
0.1957902110 1.3499336251 -0.3267524441 0.0000021611 0.0006040790 -0.0011448897
0.0894072894 0.6823979813 -0.1495071903 0.0000039605 0.0000206505 -0.0010206420
-0.4696048190 0.3909407595 0.4750299666 -0.0009692674 0.0000271930 -0.0016136085
0.4532781017 0.0826340287 -0.2009626627 0.0004190288 -0.0001357264 -0.0013388000
-0.4101384477 1.2132958659 -0.2801917616 -0.0010364194 0.0003872370 -0.0015631131
-0.0496607218 0.6742275732 0.4526891997 0.0000041550 0.0001440653 -0.0010335949
0.4016883269 0.4782252452 -0.1748617411 -0.0005953586 -0.0013799543 -0.0025391510
0.0483225289 0.4802431158 0.1853038876 0.0000024286 -0.0015196488 -0.0025391510
-0.1406268181 1.0039700665 -0.2749574399 -0.0000043237 -0.0003732918 -0.0040111189
-0.4137158227 0.7331084978 0.0525532177 -0.0009340181 0.0011152339 -0.0026135461
-0.2966297183 0.6238714397 0.4533878577 -0.0000167933 -0.0000205547 -0.0010231906
-0.1022286819 1.2391437875 -0.3523391119 -0.0000015866 -0.0005612568 -0.0039509472
0.4999999529 0.9077401743 -0.0519852922 0.0015192324 0.0000210532 -0.0025391510
-0.0847599160 0.7567208451 0.0760962747 -0.0000054726 0.0015159223 -0.0026398835
0.1740544395 0.9737776104 -0.2676696306 0.0000046550 -0.0003660547 -0.0040121843
-0.4768182833 0.4817842540 -0.1875716731 -0.0008755212 -0.0011841260 -0.0025391510
0.0396901239 1.0863802274 -0.2973442144 0.0000016246 -0.0004595957 -0.0039870673
0.3632218503 0.9856709299 0.0259803296 -0.0015166655 0.0000959301 -0.0025391510
0.4759760357 0.4854411214 0.2930133394 0.0008981352 -0.0011796929 -0.0025391510
-0.3632218503 0.5837205149 0.4283689650 0.0015083965 -0.0000472720 -0.0023870963
-0.1063952590 0.5882498230 -0.1542541580 0.0000011398 -0.0000610137 -0.0010217165
-0.4148935779 0.3198975610 0.4737362160 0.0011430485 0.0000999301 -0.0017922422
-0.0725243397 1.2539403591 -0.3576658668 -0.0000008541 -0.0005733738 -0.0039463515
-0.4018505609 0.7485614295 0.2228896089 -0.0007719376 0.0012912126 -0.0025017650
-0.4999999529 1.1964942246 -0.3177827353 -0.0015197324 0.0000012462 -0.0025389367
0.2787847518 0.4802431158 0.1321292497 0.0000140243 -0.0015196473 -0.0025391510
-0.4712413583 1.1279455351 -0.3531672836 -0.0007356321 -0.0004463890 -0.0037895597
0.4918348777 1.0188031852 0.1273178398 0.0013112157 0.0007567416 -0.0025391510
0.2258055228 0.7501038184 0.0008267834 0.0000112599 0.0015118707 -0.0026862528
-0.0271701145 0.6894355293 -0.1491523545 0.0000006991 0.0000417416 -0.0010211192
-0.4999999529 1.1684198170 -0.2773046266 -0.0015191458 0.0000098936 -0.0025216616
-0.3632218503 0.7124196684 0.0532805261 0.0015197567 0.0000000000 -0.0025391510
0.1516902395 0.7505914506 0.0063739986 0.0000070365 0.0015120530 -0.0026849656
-0.0243417317 0.4802431158 -0.1714711837 0.0000082492 -0.0015179072 -0.0026076464
-0.4665513922 0.2880598224 -0.2303073985 -0.0009982689 -0.0000470881 -0.0032888150
-0.4999999529 1.1379161557 -0.2098491208 -0.0015108555 0.0000469574 -0.0023894382
-0.1302836108 0.4802431158 -0.0513379427 -0.0000061960 -0.0015195454 -0.0025433805
0.0399856756 1.3496918029 -0.4026262789 0.0000048845 -0.0005694422 -0.0039479122
-0.1599010336 0.7536523910 0.3161017400 -0.0000034833 0.0015112126 -0.0023957179
-0.2667456147 0.6100656234 -0.2543058081 -0.0000162492 0.0002286565 -0.0040379290
-0.4337848847 0.6345016667 -0.2823898845 -0.0000421550 0.0000063799 -0.0040396979
0.3874257188 1.3561565196 -0.3672292306 0.0014637719 0.0001675927 -0.0021750249
0.3632218275 0.7650802957 -0.0964106968 -0.0015197567 0.0000000000 -0.0025391510
0.4152904913 1.0020623007 -0.3175402642 -0.0003830896 -0.0003389757 -0.0039479305
0.2186816633 0.7467738780 -0.0370514654 0.0000102903 0.0015088160 -0.0027185203
-0.4478716675 0.7093565943 -0.2822940182 -0.0003694498 -0.0000577249 -0.0039932709
0.4765548958 1.0395135799 0.3330839587 0.0010651808 0.0010839923 -0.0025391510
-0.0600031539 0.4802431158 -0.0271043933 -0.0000031398 -0.0015196473 -0.0025391510
-0.4984767646 0.5215674843 0.0747563129 -0.0014792977 -0.0002138434 -0.0025391510
-0.4247940724 0.1971042991 -0.2402476635 0.0003268951 0.0000139377 -0.0037286889
0.4999999529 1.4048772263 -0.4180569948 0.0015148464 0.0000730243 -0.0026150887
0.4461884701 0.1119762311 -0.1980284304 0.0001871778 -0.0001306854 -0.0013524079
0.4999999529 1.3331871753 -0.2884794629 0.0015176366 0.0000343693 -0.0024783987
0.4014285564 0.4338385913 -0.2119907771 -0.0009980957 -0.0001036930 -0.0026341950
-0.4329861401 0.6677865085 -0.1534171276 -0.0014187324 0.0003669270 -0.0027425659
0.3467144856 0.4802431158 0.1693234027 0.0000173951 -0.0015196473 -0.0025391510
0.1382860903 0.6204244385 0.4533878577 0.0000091125 0.0000308845 -0.0010226070
-0.0216907897 0.7486612380 -0.0155819811 -0.0000031672 0.0015088798 -0.0027140795
0.0571415281 0.6953128053 -0.1488560141 0.0000027857 0.0000387523 -0.0010207514
0.2700344867 0.7603277627 0.2471228832 0.0000165319 0.0015165029 -0.0024484610
0.3632218503 0.6025144250 -0.0944663657 -0.0015187673 -0.0000334362 -0.0025391510
0.3852590640 0.7456383735 0.3351521971 0.0004598510 0.0013897354 -0.0023993106
-0.3632218503 0.8065735775 0.1497396310 0.0015197567 0.0000000000 -0.0025391510
-0.1934242644 0.6550682863 0.4533878577 -0.0000067280 0.0000537584 -0.0010214460
0.3937218474 0.5755142558 0.4448478525 0.0005642325 -0.0000493982 -0.0011590174
-0.4999999529 0.8751493522 0.0925051699 -0.0015197020 0.0000020653 -0.0025391510
0.3752218431 0.7474931287 0.0093505440 0.0001887431 0.0014784679 -0.0026809656
-0.3325618912 0.7406196247 -0.0731942021 -0.0000240395 0.0014864923 -0.0028315491
-0.4698016062 1.0353512231 0.3235175569 -0.0007376701 0.0013245652 -0.0025391510
-0.3632218503 0.9722245528 0.2187529938 0.0015169178 0.0000880927 -0.0025391510
0.4755410905 0.6719676950 -0.2705995497 0.0008891063 -0.0000203769 -0.0037277451
-0.3632218503 0.9716033477 0.0139611985 0.0015169360 0.0000875456 -0.0025391510
-0.4165621188 1.0422103501 -0.1059467020 0.0003668677 0.0014054634 -0.0022073744
-0.4854286913 1.0206501941 0.2696864085 -0.0011445455 0.0009271808 -0.0025391510
0.4585641346 1.4470523287 -0.3002187339 0.0004804544 0.0009795774 -0.0016262225
-0.4715017322 0.8558237491 -0.2873126059 -0.0007762279 -0.0001540988 -0.0038317375
-0.4659792099 0.6669191241 -0.2766044382 -0.0006778723 -0.0000120836 -0.0038825217
-0.1037310130 1.0103133623 -0.2764885826 -0.0000032325 -0.0003819012 -0.0040088788
0.4392096851 0.6366345586 -0.0358947846 0.0015164710 0.0000268389 -0.0025453805
-0.3632218503 0.6561268470 0.1022402191 0.0015197567 0.0000000000 -0.0025391510
-0.4348975244 0.3293312486 -0.1835573725 -0.0000012842 -0.0000762644 -0.0013472286
-0.3398400303 1.2079756962 -0.2651308040 -0.0000092964 0.0005627598 -0.0011287894
-0.4468541524 1.4566830831 -0.4447574604 -0.0003246975 0.0013982552 -0.0029374670
0.2395317054 0.9578192365 -0.2638175975 0.0000064590 -0.0003553374 -0.0040147770
0.2520989641 0.7473789433 0.3786191262 0.0000278723 0.0015016488 -0.0023231890
-0.2654902425 0.7512456313 0.3409712209 -0.0000078131 0.0015091670 -0.0023730325
-0.3810761860 1.1184322153 -0.1910112670 0.0005421899 0.0004172933 -0.0012022560
0.3632218503 0.9743030875 0.0011363228 -0.0015169877 0.0000859042 -0.0025391510
0.4968938848 0.7956107183 -0.2234779782 0.0014629573 -0.0001191611 -0.0028834230
0.0649256428 0.4883978947 -0.2188882598 0.0000026185 -0.0013549117 -0.0031853941
0.1240278318 1.3131503003 -0.3854096347 0.0000056869 -0.0005806671 -0.0039433363
-0.0295836234 0.5554714431 0.4531751617 -0.0000089468 -0.0001277280 -0.0010276481
-0.3573399587 1.4484627237 -0.3851954098 -0.0000070897 0.0013570029 -0.0018957209
0.4989892554 0.9503261977 -0.2530896502 0.0014670561 -0.0000843951 -0.0028245658
0.3920201910 0.4871547444 0.0140176043 0.0005781975 -0.0013665987 -0.0025384656
-0.0426220370 0.4802431158 -0.0450665831 -0.0000022036 -0.0015196275 -0.0025399640
0.1815003112 0.4802431158 0.2895595890 0.0000056930 -0.0015189406 -0.0025100218
-0.1138884482 1.1225160052 -0.3103531432 -0.0000024757 -0.0004760288 -0.0039811524
-0.3632218503 0.9409266925 -0.0520309123 0.0015180804 0.0000560897 -0.0025387558
-0.3834444517 1.4291300720 -0.2999817597 0.0008244574 0.0007676504 -0.0017147422
0.3783976650 0.5873464477 0.4700834291 -0.0011444786 -0.0000097416 -0.0015865675
-0.4999999529 0.8293083368 0.2268431891 -0.0015197567 0.0000000000 -0.0025391510
-0.2715381492 0.6064106571 0.4533878577 -0.0000174119 -0.0000510745 -0.0010240493
0.4211910971 0.2873051842 -0.1849968693 -0.0006114574 -0.0000854742 -0.0013829459
0.4757753062 1.4580034082 -0.3169053554 0.0010587598 0.0010132036 -0.0021663273
-0.2936976197 0.4802431158 -0.0172159566 -0.0000148328 -0.0015196473 -0.0025391510
-0.4940710553 1.4237454358 -0.4344735480 -0.0013086199 0.0006719224 -0.0026217771
-0.4079464692 0.0347236259 -0.2496147508 0.0008671792 -0.0003829164 -0.0034277801
-0.2360929595 1.0074962835 -0.2758086161 -0.0000068313 -0.0003696535 -0.0040116341
-0.1045199248 1.2534200764 -0.2814907524 -0.0000029574 0.0005811808 -0.0011351800
-0.0337947825 0.5824210135 -0.2576908473 -0.0000010912 0.0001110805 -0.0040514031
0.1788800318 0.9369961397 -0.1828035230 0.0000055699 0.0003024924 -0.0010516785
0.3234074072 0.5259166100 0.4448998433 0.0000109179 -0.0005338252 -0.0011352362
-0.1952131366 0.7295365969 -0.1516188968 -0.0000040167 0.0001085425 -0.0010245189
-0.3632218503 0.8765200451 -0.2248694036 0.0015197567 0.0000000000 -0.0025391510
-0.3632218503 0.9103094021 0.3206153961 0.0015186777 0.0000334863 -0.0025391510
0.1711224337 1.3135019477 -0.3095875141 0.0000027690 0.0005905410 -0.0011391921
-0.1362241361 1.4459945112 -0.4107555943 -0.0000012401 0.0013335136 -0.0032559184
-0.3632218275 0.5575472879 0.3828123006 0.0015174497 -0.0000715775 -0.0025391510
-0.1835375678 0.4900765465 -0.2113707559 -0.0000045912 -0.0012902522 -0.0033248348
-0.1374329551 0.4802431158 0.1145735508 -0.0000068176 -0.0015196488 -0.0025391510
0.0992747733 0.4802431158 0.1659079623 0.0000049985 -0.0015196488 -0.0025391510
-0.3170348683 0.7975067957 -0.2359637247 -0.0000078237 -0.0001379969 -0.0040486569
-0.1197641832 0.7333618215 -0.1117167501 -0.0000146581 0.0014641199 -0.0029260400
0.3084985272 0.6901711037 -0.1491152739 0.0000096140 0.0000060562 -0.0010197621
-0.4390436015 0.8488931981 -0.2959682343 -0.0002192462 -0.0001786292 -0.0040240733
-0.4715397626 0.7116845104 0.4848875615 -0.0007590075 0.0000000000 -0.0012275128
0.4970087662 0.9998066900 0.0935935527 0.0014424178 0.0003413070 -0.0025391510
0.0105557482 0.4802431158 0.0683183682 0.0000005684 -0.0015196473 -0.0025391510
0.1097721477 0.6328503781 0.4533878577 0.0000089073 0.0000511778 -0.0010231101
-0.3632218503 0.9560492169 0.3373888839 0.0015173783 0.0000738267 -0.0025391510
-0.3789635388 0.5422968486 -0.2528757946 -0.0003416732 -0.0002347827 -0.0039084411
-0.2912199452 0.9202682416 -0.1787657301 -0.0000084103 0.0003208632 -0.0010546283
-0.4376899284 0.6130807416 -0.0493880295 -0.0015162369 -0.0000174119 -0.0025512619
0.4925200858 0.7808994842 -0.2571465160 0.0012719406 -0.0000725532 -0.0033586555
0.3490657300 0.8509983545 -0.2425405630 0.0000093617 -0.0002565349 -0.0040348712
-0.4999999529 1.2010962561 -0.2694691471 -0.0015184026 0.0000186444 -0.0025038896
-0.5000000000 1.1224965249 -0.2600662787 -0.0015184406 0.0000086003 -0.0025149580
-0.2764486502 0.7426042872 -0.2292134032 -0.0000065623 -0.0000750395 -0.0040542542
-0.4575007046 1.2813959735 -0.2271120964 -0.0001751520 0.0004398465 -0.0010978654
-0.3632218503 0.6952452308 -0.1290755919 0.0015197567 0.0000000000 -0.0025391510
-0.4999999529 0.5907643228 0.1734962990 -0.0015188008 -0.0000355866 -0.0025391510
0.4864336381 0.8823554883 0.4699936860 0.0011939361 0.0000009179 -0.0016739444
0.0930764244 0.6585924638 0.4533878577 0.0000110486 0.0000988814 -0.0010245842
-0.2919205044 1.4452082894 -0.4129538342 -0.0000040471 0.0013317096 -0.0032656494
-0.0659930789 0.8569466852 -0.1672840610 -0.0000012310 0.0002393526 -0.0010400235
0.4647309577 1.3250682946 -0.2385926652 0.0002302416 0.0004634680 -0.0011185645
-0.3498346069 0.4802431158 -0.0545384561 -0.0000169954 -0.0015195014 -0.0025451236
0.3632218503 0.8869618800 0.2836651974 -0.0015194710 0.0000088739 -0.0025391510
0.3632218503 1.3518448225 -0.3181129085 -0.0015179938 0.0000520289 -0.0025123455
0.2774196927 1.4431604567 -0.4150015270 0.0000078343 0.0011662704 -0.0034916539
0.4321207496 1.4307066889 -0.2782077937 0.0000026581 0.0008900805 -0.0013433517
-0.3632218503 0.6464639072 0.3000641275 0.0015197567 0.0000000000 -0.0025391510
-0.5000000000 0.7043014367 0.1551406852 -0.0015197567 0.0000000000 -0.0025391510
0.2359379595 0.4802431158 0.1262821439 0.0000118815 -0.0015196473 -0.0025391510
-0.0383666909 0.7077578072 -0.1836515914 -0.0000001687 0.0013668920 -0.0031766144
-0.0241087333 0.6069705477 -0.2546847731 -0.0000034802 0.0001958890 -0.0040433074
-0.4999999529 0.5759885293 0.0111860134 -0.0015185120 -0.0000463070 -0.0025391510
-0.3461691574 0.4802431158 0.3234812180 -0.0000252766 -0.0015184102 -0.0024933759
-0.3632218503 0.6857450357 0.1957670902 0.0015197567 0.0000000000 -0.0025391510
-0.2387405216 0.4802431158 0.0614947746 -0.0000119362 -0.0015196488 -0.0025391510
-0.4475654715 1.0363352990 0.4538402407 -0.0003593829 0.0013143114 -0.0019616921
-0.3632218503 0.9894271894 -0.1919619614 0.0015149467 0.0000238891 -0.0024696875
0.3881360181 0.7458668856 0.0319837835 0.0003809361 0.0014397020 -0.0026644367
-0.3184956068 0.6399387117 -0.2276358349 -0.0000107477 -0.0000012006 -0.0040587405
-0.3970853212 0.8068565835 -0.2339665623 -0.0005190866 -0.0001373146 -0.0039119943
0.0469107479 0.7267254543 -0.1469403167 -0.0000078176 0.0014437035 -0.0030122725
0.3632218503 0.6687088078 -0.0279326547 -0.0015197567 0.0000000000 -0.0025391510
-0.2020209217 0.6906502024 -0.2158927145 -0.0000028085 0.0012837750 -0.0033417877
-0.2619551896 0.7562210625 0.0704103589 -0.0000158830 0.0015149999 -0.0026522680
0.4692899968 1.0399722713 0.2873845162 0.0007105182 0.0013375318 -0.0025391510
0.1489692945 0.6813316744 -0.2269471025 -0.0000008313 0.0010980394 -0.0035635871
-0.0353439845 0.8322327362 -0.1642454625 -0.0000000274 0.0002104969 -0.0010361116
-0.0898807529 0.4802431158 0.0589238022 -0.0000044818 -0.0015196473 -0.0025391510
-0.4999999529 0.7448466335 -0.1981560201 -0.0015183570 -0.0000007705 -0.0025487786
-0.3632218731 0.6694697530 0.3559857757 0.0015197567 0.0000000000 -0.0025391510
-0.0080698868 1.3890199603 -0.3451680853 -0.0000055106 0.0006177598 -0.0011506921
-0.3137322227 0.7531079442 -0.1545170120 -0.0000075380 0.0001460927 -0.0010286481
0.3365870792 0.5180875986 -0.1587315101 0.0000131884 -0.0002404255 -0.0010578517
0.2904740957 1.1783653935 -0.3304588921 0.0000086960 -0.0005411063 -0.0039576463
-0.4344628101 0.6923763010 0.3003081761 -0.0014443099 0.0003292477 -0.0024680704
-0.4999999529 0.6373379004 -0.0067681065 -0.0015197157 -0.0000016520 -0.0025391510
0.4999999529 1.2533750886 -0.2350273965 0.0015096868 0.0000467006 -0.0023740492
0.4392096851 0.5919942558 0.1174204046 0.0015168144 -0.0000430699 -0.0025374884
-0.1455170744 0.4802431158 0.3004080530 -0.0000120061 -0.0015187749 -0.0025045947
0.4999999529 0.6812118309 0.3503592018 0.0015197567 0.0000000000 -0.0025391510
0.3632218503 0.8711674103 0.3513176303 -0.0015197567 0.0000000000 -0.0025391510
-0.4823448406 1.0778187024 -0.1746321180 -0.0006582750 0.0006311565 -0.0013659414
-0.3632218503 0.9689331990 0.1847635335 0.0015170120 0.0000851900 -0.0025391510
-0.4999999529 0.8017680339 -0.0514071342 -0.0015197567 0.0000000000 -0.0025391510
-0.4187437083 0.7052017056 -0.1298398533 -0.0010930485 0.0009216732 -0.0028592285
-0.3632218503 0.7954240877 0.1838976202 0.0015197567 0.0000000000 -0.0025391510
0.4295200310 0.5201723021 -0.0374730732 0.0013336336 -0.0007012750 -0.0025384352
0.3632218275 0.6393207999 0.1855161307 -0.0015196154 -0.0000043982 -0.0025391510
-0.0305225382 1.0725057682 -0.2923494428 -0.0000005957 -0.0004445076 -0.0039919958
-0.2795434478 0.7748982826 -0.1571961577 -0.0000067523 0.0001669863 -0.0010312742
0.3693193831 1.0081669278 0.2150155869 -0.0013780607 0.0005482568 -0.0025391510
0.3030504684 0.4802431158 0.3702103747 0.0000065836 -0.0015178692 -0.0024662072
0.3327377604 0.4802431158 0.0634557835 0.0000167052 -0.0015196473 -0.0025391510
0.2975624522 1.4446509946 -0.3742418956 0.0000046261 0.0013338297 -0.0018305447
0.0790406764 0.5327762917 -0.2552686652 0.0000071064 -0.0004721291 -0.0039442360
0.1144861032 1.3280323019 -0.3164335621 0.0000006383 0.0005997659 -0.0011430371
-0.4148935779 0.3922939220 0.4458317429 0.0013114254 0.0000263055 -0.0025766115
0.4999999529 0.7431936747 0.1763095632 0.0015197567 0.0000000000 -0.0025391510
-0.4376899284 0.6321087733 0.0527992025 -0.0015168479 0.0000128191 -0.0025448501
-0.4018277889 1.1768817204 -0.2590858669 -0.0007095030 0.0004612766 -0.0012893882
0.4682804118 0.0721409339 -0.2428961298 0.0010164406 0.0000825775 -0.0034248393
-0.3065313723 0.6647161076 -0.2389472123 -0.0000133860 0.0008487841 -0.0037731509
-0.4421087623 0.1787317446 -0.1920218018 -0.0002257447 -0.0001064346 -0.0014237331
0.2370862649 1.2600499041 -0.2844033250 0.0000065608 0.0005648024 -0.0011284155
-0.4771812939 1.1133314209 -0.1902510178 -0.0009156792 -0.0003933206 -0.0036760992
0.0665798995 0.6689261877 -0.2359066320 -0.0000017097 0.0008667142 -0.0037533287
-0.3004855538 0.4802431158 0.0459392001 -0.0000150593 -0.0015196488 -0.0025391510
0.3735959709 1.3169125872 -0.4108999742 -0.0012262187 -0.0004090729 -0.0033174047
-0.1592130200 0.6636823584 -0.2396938490 -0.0000091854 0.0008034589 -0.0038122101
0.2574153526 0.7598680515 0.1649160247 0.0000149103 0.0015179983 -0.0025392163
-0.1329221622 0.6829454888 -0.1494795824 -0.0000019422 0.0000464772 -0.0010215782
-0.4441860448 0.0399367516 0.4390444579 0.0000530760 -0.0002280045 -0.0038671676
0.4999999529 0.9361548191 -0.0785987456 0.0015187476 0.0000404498 -0.0025391510
-0.2222947025 0.5219922259 -0.2332741429 -0.0000136003 -0.0000080821 -0.0040510900
-0.1889847223 0.4802431158 0.3657809207 -0.0000203906 -0.0015178388 -0.0024705963
0.3454102304 0.8758583050 -0.2455970977 0.0000091413 -0.0002829726 -0.0040314062
0.4327506720 0.4726442853 0.3867810692 -0.0000113845 -0.0015008889 -0.0025391510
-0.4753410570 0.7045527664 -0.2718315223 -0.0008742142 -0.0000349635 -0.0037414107
-0.3772223444 1.2284298007 -0.2192601290 0.0005856458 0.0004002325 -0.0012068107
0.0623783072 1.1657546774 -0.3259190552 0.0000028343 -0.0005191109 -0.0039663590
-0.4964189152 0.5137477039 0.0032781676 -0.0014273859 -0.0003925957 -0.0025391510
0.1631199178 1.1728750126 -0.2524945332 0.0000050289 0.0005077538 -0.0011080645
-0.4999999529 0.9571634341 0.0304357152 -0.0015180804 0.0000623815 -0.0025391510
-0.1979779920 1.3346763210 -0.3955516732 -0.0000025289 -0.0005635577 -0.0039503560
0.4280879764 0.0630432524 -0.2031806138 -0.0004941443 -0.0002108282 -0.0013229976
-0.0647868754 0.8551822310 -0.2430549566 -0.0000014286 -0.0002303282 -0.0040398256
0.4999999529 0.8935224158 0.1863015531 0.0015194284 0.0000122249 -0.0025391510
