-0.2605681331 0.4757878517 0.1628056003 -0.0055069706 0.0008987833 -0.0120691666
-0.0444785156 0.9496729949 -0.0924331972 -0.0051315635 -0.0011728806 -0.0142492146
-0.3406982801 1.0653872221 -0.0294621123 -0.0057935654 -0.0012716510 -0.0136987384
-0.0496085755 0.1431741738 0.0151811427 -0.0052982092 -0.0015629661 -0.0128477094
0.1082393446 0.4777891838 0.2101627409 -0.0051572455 0.0010559530 -0.0145374076
0.2377686815 0.0466113364 -0.4141306005 -0.0062130166 0.0004868338 -0.0138595459
-0.3941028397 1.1181747192 -0.0395651594 -0.0044290777 0.0017050547 -0.0131675797
-0.1319094747 1.0972699199 -0.3232288246 -0.0039514338 0.0005367744 -0.0117459623
0.3991056854 0.1169892298 0.0848112170 -0.0043988573 -0.0005811522 -0.0148653411
0.0143582530 0.1870803836 0.0650203515 -0.0043561871 -0.0017242257 -0.0132136988
0.2557228686 1.5868675871 -0.4124532956 -0.0041854480 -0.0007629390 -0.0147846486
-0.2507765557 0.9489026637 0.2225893374 -0.0045980173 0.0017530210 -0.0132125774
-0.2141660384 1.5395932369 -0.4039857361 -0.0049942835 -0.0007120784 -0.0148436643
0.0982652494 0.9836443308 -0.0899624592 -0.0045850342 -0.0017600635 -0.0133664271
-0.4409059051 0.0688713364 0.1099691692 -0.0043078977 0.0015154149 -0.0140273465
-0.0760203410 0.2314788964 -0.0981094615 -0.0051397045 0.0016857778 -0.0133333442
0.1452337896 0.1949446761 -0.1607636747 -0.0032430356 0.0004949306 -0.0123867924
0.3491709591 1.1013206564 -0.0735902715 -0.0036147907 -0.0013370240 -0.0137380798
0.1003781849 0.1869610808 0.0466668997 -0.0051833036 -0.0013699339 -0.0123025345
-0.1525198879 0.4796685042 -0.0192264931 -0.0046716496 0.0012185388 -0.0145137477
-0.3746224056 1.1109557829 -0.0660492840 -0.0053617686 -0.0015661695 -0.0135558675
-0.0532858899 0.5092860697 -0.0173484972 -0.0064042034 0.0000286858 -0.0134870332
0.4426563690 0.0613195573 0.0981446671 -0.0051011701 0.0010711012 -0.0144900542
0.1985366828 0.1582765594 0.0509055367 -0.0050405404 -0.0017183681 -0.0133922362
0.2580683808 0.4825269331 0.1291232327 -0.0050090926 0.0016361622 -0.0137192197
-0.0192345396 0.1407444018 0.0298738428 -0.0047937744 -0.0017102766 -0.0128589337
0.0601541369 1.5366673353 -0.4214881466 -0.0048106019 0.0007725192 -0.0116837538
0.0103679396 0.4838404967 0.2452936423 -0.0046493194 0.0017604079 -0.0131798918
0.2020909647 1.0360958648 -0.1798987138 -0.0038760532 -0.0014328629 -0.0139346951
0.0162577703 0.4550378310 -0.1321666199 -0.0042344844 -0.0006014958 -0.0148565768
-0.2016012489 0.9526711125 0.2968029034 -0.0042430721 -0.0016892037 -0.0129938385
-0.0658354888 0.1590246081 0.0074795719 -0.0062944490 -0.0002124857 -0.0126844720
0.1587948666 0.9634651334 0.1726289327 -0.0041438815 0.0016846088 -0.0133337927
-0.1735432359 0.9584201986 0.1951250396 -0.0041536665 -0.0016898995 -0.0131996879
0.3977599483 0.1313572440 0.1507613404 -0.0051626987 0.0001527902 -0.0115885454
-0.0930543434 1.6057901316 -0.4581544567 -0.0047774836 -0.0011533088 -0.0145791719
0.0230421921 0.5187023425 -0.0062980665 -0.0029917558 -0.0002188484 -0.0128465739
-0.0725163793 0.1862191493 -0.0014789254 -0.0050483087 -0.0017086484 -0.0133437720
-0.0373465479 0.4619703314 0.2307328432 -0.0044315111 -0.0009828116 -0.0146778575
-0.0334223351 0.1293288313 0.4423579434 -0.0063739548 0.0003518124 -0.0130802314
0.1037096715 0.1716511028 -0.1339209918 -0.0044576787 -0.0016437451 -0.0126670369
-0.0969482581 0.9606245952 -0.1114138779 -0.0050757548 -0.0012722726 -0.0137015621
0.2339103133 0.0895718175 -0.3671532765 -0.0058555673 -0.0012345787 -0.0129835608
-0.0346775894 1.2114548008 -0.3934516374 -0.0049458087 -0.0001215244 -0.0120035411
-0.0171482096 0.0479529271 0.5052420438 -0.0053084375 0.0005268481 -0.0117241795
-0.0294106946 1.3866704932 -0.3953808613 -0.0049050987 0.0009673332 -0.0146746046
0.0800326632 0.1751528677 -0.1229497350 -0.0048135351 -0.0017153095 -0.0129172624
0.3255725047 1.0743198150 -0.0534126370 -0.0056252810 0.0005863035 -0.0130744656
-0.1159760539 0.9827830294 -0.0163317585 -0.0047552011 0.0017607434 -0.0132008357
-0.0507317646 0.1783590880 -0.0416606776 -0.0050179506 0.0015092677 -0.0134213423
0.0554979524 0.9457165715 -0.0466048943 -0.0035024845 -0.0009728641 -0.0138221099
-0.4349487411 0.1210165625 0.0910882159 -0.0052338675 -0.0000001572 -0.0149232496
0.0031761809 0.1377426729 -0.0188622220 -0.0046567504 -0.0017659317 -0.0132637541
0.0085335533 0.0584661402 0.5023522502 -0.0042228151 0.0008938210 -0.0118877878
-0.1595020092 1.4177372670 -0.3695604427 -0.0043554224 0.0003294204 -0.0115553547
-0.0346775894 0.9762064861 -0.3798832053 -0.0049046131 -0.0015707751 -0.0137159615
0.0153925397 0.2133988320 0.1772912591 -0.0039387244 0.0015463381 -0.0129372863
-0.2754589389 0.9998095460 0.0065634260 -0.0054362221 -0.0015387764 -0.0136274777
0.0046156766 0.8644282576 0.0136662770 -0.0040755540 -0.0005721813 -0.0117089501
-0.0346775894 0.9766958240 -0.2293203345 -0.0049403926 0.0006421669 -0.0132519276
0.2355238115 0.9973526123 -0.0364103631 -0.0040562877 -0.0016048152 -0.0136803639
0.0252966423 0.1924476999 0.2392822095 -0.0033060670 0.0010228930 -0.0130337962
-0.0879148411 0.2268042279 0.0439477075 -0.0046745581 0.0012840513 -0.0120889362
0.1701869255 0.2050440025 0.0718533664 -0.0048626775 0.0010134223 -0.0118905585
-0.2679328735 0.9512167848 0.3011128310 -0.0050298883 -0.0016011208 -0.0127043034
0.1469453571 0.2238558796 0.0299109291 -0.0042693191 0.0017072498 -0.0133376566
-0.0380573796 0.4742972005 -0.0239419281 -0.0046730270 0.0004470262 -0.0137105754
0.0678848773 0.9969762305 -0.1451811375 -0.0048040680 0.0016930023 -0.0129782294
-0.0355237462 0.2012218764 -0.0204010955 -0.0060351943 0.0002934307 -0.0137109622
-0.0219121194 0.0569591117 0.4305106572 -0.0054986778 0.0008282220 -0.0144785738
-0.2880225559 0.4814769031 -0.0026726529 -0.0044927360 0.0014230072 -0.0122797487
-0.0840592824 1.3654448223 -0.3797245470 -0.0047772629 0.0008005428 -0.0148269551
-0.0475364136 1.5572464102 -0.4364070855 -0.0049080443 -0.0007200816 -0.0148558175
-0.2284134676 0.1554127409 -0.2696198266 -0.0060979573 0.0001986302 -0.0122727397
-0.0288456635 0.1381400446 -0.0301133879 -0.0048076811 -0.0017558765 -0.0133592751
-0.2260883801 1.0014060419 -0.0578423530 -0.0041900076 0.0004773366 -0.0123318543
0.0907345890 1.0560883802 -0.2975639387 -0.0050086741 0.0015215321 -0.0124419124
0.1872245587 0.1452746807 -0.2319341889 -0.0039215683 -0.0012774450 -0.0123155353
0.0009213528 0.9705773633 -0.2080195921 -0.0046170064 -0.0017484702 -0.0132619158
0.0313247102 0.4348050111 -0.0474776813 -0.0034223130 -0.0000355200 -0.0145081779
-0.3316850124 0.4827405614 0.0861071036 -0.0050081461 0.0016818345 -0.0130243538
0.1745927274 0.4826309995 0.1978519454 -0.0043952318 0.0016455305 -0.0127989644
-0.1996048754 0.9584815276 0.1154980524 -0.0047929408 -0.0017311923 -0.0135817348
0.1800024031 0.9997820611 -0.1029800548 -0.0041890964 -0.0016388994 -0.0137221652
0.0664757574 0.9557202126 0.0824111180 -0.0041656890 -0.0014768116 -0.0126303003
-0.0004476964 1.1629788771 -0.3967335226 -0.0045484547 -0.0001648727 -0.0115219803
0.3610244684 1.0576075936 0.0848189906 -0.0040008375 -0.0014907024 -0.0132946367
-0.0647235293 0.4568953262 0.2327108403 -0.0045240371 -0.0016032399 -0.0138738535
-0.1873267514 1.0517063178 -0.2378504345 -0.0054771423 -0.0013770312 -0.0139932605
-0.0292838053 0.1814775874 -0.0327849901 -0.0058068170 0.0009466595 -0.0140754929
-0.0295836852 0.1549590784 0.2698214889 -0.0062025552 -0.0007486032 -0.0134519883
0.1987333334 0.9555936730 0.1504309416 -0.0046555514 0.0017242080 -0.0129311868
-0.0311520374 0.1801466046 0.2723434178 -0.0062678011 0.0007010555 -0.0130961142
-0.0062027618 1.3835863641 -0.3784301702 -0.0046542128 0.0001609046 -0.0115103835
0.2618334885 1.0453618320 -0.1190816594 -0.0036888574 -0.0012069296 -0.0141104707
-0.2396663253 0.1547714817 0.0416710206 -0.0046049715 -0.0014102854 -0.0142397157
0.3236680974 0.4573048511 0.0001954145 -0.0041937920 -0.0016058553 -0.0138056779
0.2582121647 1.5687278766 -0.3997257932 -0.0051367430 0.0006849572 -0.0117087665
0.2809403433 1.0085076003 0.0236283304 -0.0055173190 0.0014929681 -0.0128934400
0.0481678436 0.2166085700 0.0525268156 -0.0037861514 0.0003219576 -0.0118036323
-0.2979991976 1.4262524131 -0.3362256793 -0.0040968618 0.0003127430 -0.0116185009
0.0144094844 1.0189764372 -0.2455711868 -0.0045195676 -0.0016284928 -0.0139298053
-0.2277418661 0.1839358561 0.0927989888 -0.0042350707 0.0004219500 -0.0116424663
-0.2617671212 1.4251362030 -0.3511215516 -0.0051518735 -0.0003463787 -0.0149225979
0.1807419082 1.0662527264 -0.2597784270 -0.0038481321 -0.0012857890 -0.0141594894
0.0066467224 0.3544793701 0.0127532992 -0.0037776414 -0.0000714637 -0.0117471296
-0.1970443327 1.0375857619 -0.1998901255 -0.0053744268 -0.0014614286 -0.0139420873
0.3015396558 1.0904078572 -0.2490044264 -0.0052854927 -0.0015288995 -0.0126575521
0.0082190090 0.9700476050 -0.1073600104 -0.0045469642 -0.0017473382 -0.0132538066
-0.0368951016 0.2054078268 0.0829105288 -0.0063343467 -0.0002794658 -0.0130327473
-0.0275471068 0.1043214194 0.4857621483 -0.0062440776 0.0000965064 -0.0125449457
0.0138186319 0.3328157729 -0.0336388692 -0.0034583168 -0.0000686983 -0.0145430727
-0.3474718538 1.5858094726 -0.3822931988 -0.0046554207 0.0011619795 -0.0119563360
-0.1879888539 1.0471819796 -0.2176122797 -0.0040340882 0.0014991030 -0.0125765241
-0.1010619395 0.9747943005 -0.0215948936 -0.0046857841 0.0017655450 -0.0132658962
-0.0079186682 0.4473387184 -0.0620574554 -0.0048587041 -0.0000234692 -0.0150139037
0.3450613729 1.5983818203 -0.4221759434 -0.0052467606 -0.0014900861 -0.0139932799
-0.1457353760 1.4522469825 -0.3798846587 -0.0043916947 0.0004891119 -0.0115878531
-0.2474552761 1.0897237529 -0.2233811989 -0.0056513956 -0.0011856307 -0.0141125086
0.0392176267 1.3863925179 -0.3802971486 -0.0045428831 -0.0001575600 -0.0150188006
-0.0612459206 0.4599823108 0.2495514838 -0.0048553259 -0.0012268669 -0.0121041497
-0.1877530102 0.2143674314 0.0557116946 -0.0048916917 0.0016808756 -0.0128304156
-0.0222629394 0.0251820378 0.5010006396 -0.0054139872 -0.0007363194 -0.0118744056
-0.0340301653 0.1822691927 -0.0167700680 -0.0038572531 -0.0014545926 -0.0131337144
-0.0799348041 0.2246831338 -0.1385084374 -0.0046272594 0.0016944697 -0.0137105966
-0.0304286606 0.8885917413 -0.0249349433 -0.0061051023 -0.0005016465 -0.0141228304
0.0677074047 0.2281011105 -0.1244561224 -0.0047003548 0.0016918526 -0.0137165302
-0.0288875055 0.1215277273 0.3772783360 -0.0060428002 -0.0009603967 -0.0136388963
0.2929261314 1.1196007002 -0.2156446574 -0.0043983734 0.0016997199 -0.0135028118
-0.0121005676 1.2464035216 -0.3889312337 -0.0046366912 -0.0001628313 -0.0115173218
-0.0089328746 1.4277289439 -0.3993503279 -0.0046384942 -0.0004769976 -0.0149490145
-0.0701712573 0.4750796036 0.2510483882 -0.0050095359 0.0007072804 -0.0117336979
-0.0856348943 0.4626225324 -0.0222730061 -0.0046192703 -0.0006136966 -0.0146121401
-0.0111761465 1.1110755307 -0.3452589409 -0.0046400023 -0.0000716297 -0.0115012518
-0.1504167815 0.1484565558 -0.2198671467 -0.0043710244 -0.0017117582 -0.0129468064
-0.3927820023 0.1613240154 0.0881084817 -0.0052889593 0.0012952579 -0.0142788982
-0.4094132221 0.1573255964 0.0934248826 -0.0052770339 0.0013269617 -0.0142447503
-0.4181846773 1.1188559132 0.0448863161 -0.0043223483 0.0017131780 -0.0131436195
-0.0563403372 0.1834178324 -0.0901694052 -0.0044594499 -0.0017400873 -0.0130716613
-0.0681413294 0.9747943005 0.0529763476 -0.0046761562 0.0017656191 -0.0132522897
-0.3064173358 1.0901567205 -0.2535559794 -0.0040086305 -0.0015233739 -0.0126601145
-0.0305042654 0.6214349673 -0.0248215352 -0.0061628941 -0.0002904551 -0.0140904397
-0.0647035284 0.2605483802 -0.0026987516 -0.0063775891 -0.0000000671 -0.0128678145
-0.2557723411 1.3642057387 -0.3565142232 -0.0047471326 -0.0016257856 -0.0126285502
-0.2702136344 0.1676479546 0.1076072726 -0.0041313398 0.0000934672 -0.0115976099
-0.0756173571 0.9942195493 -0.0457841122 -0.0046741519 0.0017482742 -0.0131332253
0.0041632537 0.9013867694 0.0138170823 -0.0041250213 -0.0005710493 -0.0116956403
0.2112310139 0.4657067692 -0.0228515748 -0.0046425311 -0.0005590357 -0.0148886073
0.3891314418 0.0947738532 0.1244064467 -0.0057347564 -0.0013571309 -0.0130464880
0.0105802699 0.9696062298 -0.0235116094 -0.0045363669 -0.0017448712 -0.0132314835
0.2255637430 1.0428321437 -0.1653311917 -0.0037921185 -0.0013809886 -0.0139421491
-0.0175222657 0.1377426729 -0.0153337969 -0.0046567504 -0.0017659317 -0.0132637541
0.0306618837 0.1197761985 0.4354358972 -0.0028988731 -0.0000380753 -0.0132563231
-0.1310871244 0.9756160451 0.2238872178 -0.0040049892 -0.0016395952 -0.0131961189
-0.1826343654 1.3575098784 -0.3790122567 -0.0046586311 -0.0017352310 -0.0129683155
-0.0153762702 0.4919472481 0.0131426023 -0.0054120641 -0.0001794557 -0.0116997885
0.0149739821 0.8874840994 0.0059560108 -0.0034674837 -0.0005513521 -0.0120917176
-0.2897323327 1.4738274785 -0.3532836154 -0.0041140037 0.0005658646 -0.0116818766
0.0363896831 0.9747943005 0.0837652680 -0.0046399900 0.0017651600 -0.0132406946
0.0296006594 0.2401667117 0.0254592961 -0.0047345591 0.0017555021 -0.0133561777
-0.4353800929 0.1434807113 0.0955898443 -0.0053606632 0.0007305818 -0.0147082191
-0.0925606383 1.3966862062 -0.3744886725 -0.0044875865 0.0002648792 -0.0115283253
-0.0833461568 0.9747943005 0.0298402636 -0.0046806488 0.0017655856 -0.0132565438
-0.0359548454 0.9900996165 -0.1200831334 -0.0062936190 0.0002370551 -0.0133131331
0.1431331079 1.4941661961 -0.3936957951 -0.0049092469 0.0006310645 -0.0116340923
-0.2728788615 1.6250977887 -0.4660088053 -0.0046167733 -0.0017325291 -0.0135901954
0.3567760305 1.0133320091 0.2250658342 -0.0057025952 0.0013628419 -0.0128659285
0.0323793229 0.2419326434 -0.0427056041 -0.0039368719 -0.0013752900 -0.0137618122
-0.0281745106 0.9790987591 -0.1929578405 -0.0048683320 0.0017394410 -0.0132440657
-0.2394903678 0.0960972035 -0.3965580773 -0.0031196040 -0.0002829023 -0.0140634333
0.0214292819 0.3133659230 -0.0244637627 -0.0031361790 -0.0000389105 -0.0141453461
0.0497436516 1.0064192871 0.2826598742 -0.0042947256 0.0017088497 -0.0130669640
-0.0156513459 1.1454504085 -0.3983728617 -0.0047693180 -0.0001672796 -0.0115383064
0.0012267036 0.2368292898 -0.0848728427 -0.0046650574 0.0016060566 -0.0139730105
-0.0515210018 0.1464863729 -0.0480303667 -0.0056092869 -0.0012375526 -0.0139577617
-0.3842612264 0.1636279364 0.1291318963 -0.0047605448 0.0015440283 -0.0124469842
0.0484528756 0.9747943005 0.0028402822 -0.0046408023 0.0017656421 -0.0132605083
0.0084941907 1.4268911400 -0.3991247354 -0.0044847840 -0.0004737147 -0.0149451065
0.0464060689 0.1429469390 0.0003937922 -0.0039682084 -0.0015970292 -0.0131167067
-0.0048516369 0.9448167905 0.0511186723 -0.0046636958 -0.0009356683 -0.0119373045
-0.3399685565 1.0413440796 0.0462483209 -0.0034939886 0.0012619966 -0.0128536694
0.0096225574 0.2006992189 0.2462533238 -0.0042359995 0.0016659976 -0.0128859012
-0.2164034562 1.3663670219 -0.3569424492 -0.0044170764 -0.0009428398 -0.0118507262
0.2737478694 1.6262675666 -0.4627506860 -0.0044207584 0.0017367921 -0.0134373699
-0.2192980478 0.9637175628 0.1084155449 -0.0050277956 -0.0016843262 -0.0136110493
0.1654833152 1.4309493129 -0.3717596387 -0.0033231647 0.0007198927 -0.0135163883
-0.3749286747 1.1066497085 -0.0474289716 -0.0056098873 -0.0014292268 -0.0136450399
-0.2484350856 1.0141630230 -0.0823439755 -0.0054137983 -0.0014898848 -0.0138259561
-0.1608964366 0.9759424140 -0.0076859016 -0.0046707331 -0.0017448553 -0.0135159857
0.0118097733 1.1195104859 -0.4007989163 -0.0044608609 -0.0001654501 -0.0115258901
-0.0118992054 0.9446333419 -0.0762308021 -0.0046992917 -0.0009271936 -0.0145949946
0.0726025656 0.9971774637 0.2007099699 -0.0041089019 0.0016647438 -0.0134552093
-0.0495882143 1.4603183818 -0.3978300355 -0.0051425247 -0.0007262853 -0.0147576882
0.2695852541 1.4622218460 -0.3561289499 -0.0041172159 -0.0005294987 -0.0148593511
-0.0087976837 0.6916080091 -0.0415186614 -0.0048396692 -0.0004549817 -0.0149386679
0.2076807054 0.9580244162 0.1329822614 -0.0043993465 -0.0016862970 -0.0136625509
0.3930680073 0.1659146273 0.1204978395 -0.0043929538 0.0016738136 -0.0128606961
0.0297114416 0.0297225131 0.4950705297 -0.0034915852 -0.0006522363 -0.0121269126
0.2912115036 1.6141697918 -0.4214145567 -0.0045961772 -0.0015032794 -0.0141170664
-0.2971775873 0.4747835222 0.0916894751 -0.0035314087 0.0007314401 -0.0142826172
0.1303011365 0.9958166915 -0.1169556683 -0.0036637935 0.0007811670 -0.0143626245
0.0614912509 0.9991023769 0.2321689836 -0.0052123585 -0.0016750904 -0.0132095647
0.2916480013 0.1427004908 0.0546831807 -0.0046340229 -0.0012875320 -0.0144680100
-0.1246576779 1.6178861810 -0.4646830091 -0.0045039726 0.0014174110 -0.0122405079
0.1022636490 1.3941095229 -0.3719820772 -0.0048580525 0.0002464746 -0.0115293443
0.2226638430 0.2064345624 0.0642206158 -0.0043610487 0.0016937386 -0.0129421885
0.2530024826 1.0979669596 -0.2160594783 -0.0036734955 -0.0012150034 -0.0140820815
0.0193366122 1.3903321279 -0.3786266867 -0.0047224184 0.0002107092 -0.0115138111
0.1077864361 0.1859792228 -0.0018198120 -0.0046681937 -0.0015016247 -0.0141259985
0.0729980460 1.5274576306 -0.4159469496 -0.0048198766 0.0007465123 -0.0116723565
-0.0346775894 0.9720725406 -0.3150555435 -0.0049239906 -0.0014109194 -0.0132687164
-0.1141768114 0.9747943005 -0.0595120150 -0.0047345786 0.0017606975 -0.0133234020
-0.2982080279 0.9587232872 0.2639437636 -0.0040474139 0.0016435244 -0.0134104871
-0.2943123401 0.1043978119 -0.3614338316 -0.0060563484 -0.0000899477 -0.0122013166
-0.0445629713 0.0338334590 0.4629903177 -0.0063089773 -0.0005800732 -0.0134269138
0.0952219045 0.9984317449 -0.1387669027 -0.0050418683 0.0016178212 -0.0126853391
-0.0158522541 0.1425148067 0.4743969279 -0.0054180648 0.0014083199 -0.0125604029
-0.1803453717 1.0228279872 -0.1679539658 -0.0041070918 0.0015757479 -0.0126881010
-0.3132449081 0.9806434107 0.1864244654 -0.0055792060 -0.0014057876 -0.0137919319
-0.1650699248 0.4831735290 -0.0087309482 -0.0046684833 0.0017003768 -0.0129055260
-0.1467077757 0.1883586868 -0.0000866719 -0.0050036589 -0.0007723161 -0.0147791654
-0.2059381105 1.6280422290 -0.4732958607 -0.0045813628 0.0017603107 -0.0131655771
-0.0340528275 0.1449690049 -0.0622747551 -0.0051801496 -0.0014269293 -0.0141472144
-0.1500744062 0.1767719039 0.0131065403 -0.0046012225 -0.0015017236 -0.0141266095
-0.0179543592 0.9805594459 -0.3515948849 -0.0047130678 0.0017233498 -0.0130965469
-0.0173505236 0.9786638507 -0.2747026460 -0.0046650026 0.0017559224 -0.0132525546
0.0087740273 0.5725594875 -0.0378626035 -0.0037157878 -0.0002733097 -0.0147083110
0.0384201161 1.5670759817 -0.4402105104 -0.0044148496 -0.0006107157 -0.0144472674
0.1895389888 0.4801107960 -0.0024455011 -0.0046548432 0.0013235393 -0.0121617809
-0.0923736738 0.2257561633 -0.1212335919 -0.0051554778 0.0016800827 -0.0133181995
-0.3365975872 0.4558908325 0.0103393341 -0.0047725161 -0.0017447087 -0.0133005455
-0.0400537936 0.9747943005 -0.0659768667 -0.0046672118 0.0017656827 -0.0132734544
0.3803441691 0.1691909745 0.1010247198 -0.0041809360 0.0016705202 -0.0134972085
0.1053156928 0.9940091544 -0.0448401175 -0.0046567504 0.0015939653 -0.0126015103
-0.2844266951 0.9536378259 0.2974864955 -0.0052737193 -0.0015291697 -0.0126442794
0.2538888160 0.4716051894 0.0021627878 -0.0046653487 0.0003485331 -0.0115745680
-0.2386474162 0.9586300548 0.1453989281 -0.0051202934 -0.0016181727 -0.0137751432
0.1626616266 0.9973946486 -0.1112815390 -0.0045043611 -0.0012486055 -0.0143782742
-0.0674469651 0.4826362814 -0.0065819029 -0.0046290889 0.0015698056 -0.0125677280
0.1725765755 0.9925035210 -0.0818285266 -0.0042720864 -0.0016778947 -0.0136476412
0.0250016452 0.1498579621 0.2724736747 -0.0033553294 -0.0010790196 -0.0135548909
0.0904191000 1.4690335744 -0.3918016815 -0.0048789170 0.0005425755 -0.0115981414
0.3205946399 1.1171682335 -0.1895932709 -0.0041053983 0.0015895045 -0.0137086311
0.2629094142 1.1196007002 -0.2441085574 -0.0045161116 0.0016878546 -0.0134355951
0.3971913342 1.1118128814 0.0073509274 -0.0042791165 -0.0016647085 -0.0133679882
-0.3498885295 1.0551129361 0.0378615404 -0.0034050104 0.0012005122 -0.0129696523
-0.0114861540 0.4340081644 -0.1167762620 -0.0049838734 -0.0010162990 -0.0118677621
-0.0058614849 0.9990350119 -0.0100071041 -0.0046975187 0.0017559065 -0.0130863821
0.4201544558 0.0280216294 0.1054193804 -0.0059308913 -0.0006705225 -0.0142770740
0.1517563343 1.6264232070 -0.4938867391 -0.0046536653 0.0017396176 -0.0135218274
0.2208318266 1.4703928367 -0.3728420047 -0.0042407534 -0.0005325061 -0.0148950388
0.0221708620 0.2288944536 0.0904215114 -0.0037914033 0.0014794852 -0.0129360590
-0.0610853762 1.1196007002 -0.3448978379 -0.0045727927 0.0012567765 -0.0128077128
-0.0166130175 0.9747943005 0.0484809372 -0.0046606019 0.0017657357 -0.0132527506
0.0138515612 0.9196906356 0.0070784300 -0.0035171170 -0.0005666698 -0.0120475110
-0.0285079167 0.4920142900 0.0012885492 -0.0060489951 -0.0001837646 -0.0122331616
-0.2848888995 0.9915835854 0.0733540358 -0.0043383370 -0.0011384326 -0.0134447956
-0.0220284184 0.5824180502 0.0082150754 -0.0057987908 -0.0002848307 -0.0119835101
0.1743271348 1.0441024843 -0.2149531168 -0.0053135993 0.0014872995 -0.0125751520
-0.4657566735 0.0011336399 0.1390721334 -0.0050220758 -0.0016877221 -0.0130911484
0.1258072482 0.9580448957 -0.0306823376 -0.0039746593 -0.0015986273 -0.0133587400
0.0254859961 0.1574271692 0.2486730193 -0.0032813333 -0.0009818704 -0.0135136016
-0.0159737997 1.1268784862 -0.4001098003 -0.0048014085 -0.0001681202 -0.0115438549
-0.0506463182 0.1782136476 0.0325374523 -0.0059635152 -0.0000117505 -0.0120770939
0.4936259296 0.0219473860 0.1417253963 -0.0031879314 -0.0008840095 -0.0130426824
0.1098404478 1.5897928423 -0.4411085926 -0.0048322452 0.0008477832 -0.0117254157
0.0042066268 0.3680685518 -0.0403301346 -0.0040870397 -0.0000893809 -0.0149053607
-0.2609685228 1.1013872656 -0.2229893227 -0.0055968795 -0.0012524288 -0.0140758337
-0.0277000418 0.0350718698 0.4296802367 -0.0055868384 -0.0006320640 -0.0145967623
0.2834962769 0.0689181283 -0.3829414123 -0.0045662376 0.0017237595 -0.0128983316
0.0306618837 0.1313212702 0.4191755354 -0.0028995389 0.0000966088 -0.0132392041
-0.3067521670 1.0203934720 0.0074844318 -0.0056987066 -0.0013621885 -0.0136821510
0.0415842207 0.9457656132 -0.0634204315 -0.0037655924 -0.0009929128 -0.0141802797
-0.0911571164 0.2353025853 0.0222261559 -0.0048990045 0.0017075059 -0.0129648807
0.0515386982 0.9747943005 -0.0147493194 -0.0046398010 0.0017656350 -0.0132636446
0.2644513180 0.9990497769 0.0335303545 -0.0053963244 0.0015548322 -0.0128954620
-0.2288713207 0.2055115682 0.0657938967 -0.0049449823 0.0016923418 -0.0129277626
-0.0396658838 0.1504826923 0.0371034789 -0.0055834460 -0.0007334638 -0.0119589319
0.3771709576 0.1019304150 0.1082699685 -0.0054316130 -0.0015493879 -0.0135661328
-0.1575605121 0.1953723089 -0.1781683250 -0.0059967394 0.0008374225 -0.0125342636
0.0331029134 0.2132889857 0.0924321871 -0.0029947791 0.0003922717 -0.0130567781
-0.1271959769 0.2143811474 -0.1620792850 -0.0052930368 0.0016382566 -0.0132299577
0.0080057657 0.2952227106 0.0118472720 -0.0036910418 -0.0000263106 -0.0117992087
0.2278687554 0.9728898668 0.0819372197 -0.0040837038 -0.0016366867 -0.0135934906
0.0006531660 1.3316530552 -0.3969581438 -0.0047174932 0.0013099222 -0.0121221958
0.0584225137 0.2371422411 -0.0623052545 -0.0040682961 0.0016385003 -0.0133903149
0.1162474882 0.2246972948 -0.0039311741 -0.0040165331 0.0013282208 -0.0142128488
0.2531853112 0.1584112771 -0.3784107680 -0.0047220546 0.0016502084 -0.0138354621
0.0071705842 0.9698132818 -0.0628506007 -0.0045618881 -0.0017456500 -0.0132397851
-0.2074835568 1.3964719316 -0.3562212657 -0.0042770557 0.0002499058 -0.0115580018
-0.0343795425 1.1288819728 -0.3999224173 -0.0050437243 -0.0001700751 -0.0115585881
-0.0329528710 0.9708000438 -0.2503303038 -0.0049098173 -0.0017446010 -0.0132458970
-0.3200174575 1.0899136683 -0.2413543026 -0.0041182190 -0.0013999247 -0.0128324800
-0.0872259812 0.9263031775 -0.0046529298 -0.0044795816 -0.0000848742 -0.0115391240
0.0810698214 0.4604007819 0.2419742488 -0.0043235474 -0.0011371028 -0.0120546542
0.3108014466 0.0154500111 -0.4196282550 -0.0035187099 -0.0011131886 -0.0139474240
-0.0031073749 0.3981313723 0.0149911532 -0.0045819597 -0.0001716803 -0.0115334942
0.1060935822 0.2323916376 0.0238517084 -0.0043466616 0.0017254000 -0.0131231718
0.0453502643 1.5173931991 -0.4176125870 -0.0044967164 -0.0006639179 -0.0148921162
-0.3222897312 0.1361124142 0.1210730281 -0.0039395014 -0.0007312847 -0.0118590349
0.0191707029 0.3739961541 -0.0278516285 -0.0032659185 -0.0000907071 -0.0143197795
-0.2174980566 0.9589461848 0.1418852944 -0.0044313045 0.0016736106 -0.0128087565
0.2547752855 1.0934249445 -0.2905604090 -0.0041116409 0.0002180219 -0.0139346368
0.0133792345 0.9399229699 -0.0479489414 -0.0037505855 -0.0006822165 -0.0145289665
0.0474812812 0.1464643058 -0.0388979463 -0.0036164401 -0.0012421369 -0.0138185480
-0.0081445839 0.9696193789 -0.0259958250 -0.0047134333 -0.0017412316 -0.0132060735
-0.0170132271 0.9703681534 -0.1682719554 -0.0047729063 -0.0017447370 -0.0132409489
0.3348242456 1.1081592217 -0.1925149572 -0.0037454996 0.0013369021 -0.0139558580
0.0443910791 0.1418616344 -0.0226871577 -0.0040864781 -0.0016558841 -0.0133918954
-0.0554486476 0.9541070093 -0.1118890707 -0.0050546484 -0.0013978427 -0.0140482392
-0.2457106309 0.8932353964 -0.0245901540 -0.0040073255 0.0013553808 -0.0140676380
0.0183021259 0.3220927018 0.0026269823 -0.0032558774 -0.0001050235 -0.0122043169
-0.1792967950 0.1704288873 -0.2032676818 -0.0060312581 -0.0001683392 -0.0122143739
-0.0015096747 0.9285121020 0.0149911532 -0.0045330540 -0.0005695041 -0.0116010446
0.2737484610 0.1669487322 0.0415461322 -0.0041358765 -0.0000920510 -0.0149312634
-0.3135651616 1.0377877492 -0.0243741063 -0.0057809796 -0.0012689473 -0.0137541056
-0.0107847012 1.2119221528 -0.4020726264 -0.0047504048 0.0001725880 -0.0150006221
0.2527330773 1.3645079638 -0.3757223135 -0.0047369537 0.0016747090 -0.0137713447
-0.0090074587 0.5435294510 0.0149911514 -0.0048518859 -0.0002439864 -0.0115526475
0.2684945882 0.9971121454 0.0499409918 -0.0054292149 0.0015528226 -0.0129484523
-0.0704665123 0.9747943005 -0.0425479947 -0.0046764759 0.0017656138 -0.0132694510
0.3165801191 1.4732401650 -0.3388692685 -0.0052507145 0.0005456323 -0.0116932651
0.1458895207 0.1466261835 -0.2586203696 -0.0057802503 -0.0012985214 -0.0136635310
0.1932057429 0.9921081695 -0.0630158071 -0.0041131543 -0.0016149622 -0.0133551110
0.1316799759 1.4576408143 -0.3823366637 -0.0049208296 0.0005029409 -0.0115918247
0.2103802357 0.2067881744 0.0338256377 -0.0040893001 0.0014673515 -0.0139889604
-0.1980278613 1.0049363972 -0.0983454147 -0.0042156931 0.0016321694 -0.0127606578
0.0749328608 0.9843560278 0.1019064195 -0.0050468977 -0.0017198709 -0.0132917088
0.2235600392 1.0167709633 -0.0993292859 -0.0053281859 0.0015284580 -0.0126912673
0.0426130278 1.0900069006 -0.3716896866 -0.0047662364 -0.0015188514 -0.0123768643
0.4396661469 0.0524204889 0.1754490038 -0.0051614255 0.0006538080 -0.0117107390
0.0130910522 0.6848951199 0.0078389408 -0.0035053965 -0.0003686665 -0.0120113094
-0.0540000468 0.2616393428 0.0230920382 -0.0060818079 0.0002727181 -0.0123014237
0.0499217811 0.2269806162 -0.1210098925 -0.0051500175 0.0014834568 -0.0140106514
-0.2954803397 1.6248785553 -0.4560874319 -0.0050338722 0.0016924954 -0.0134685827
0.0097637190 0.4726803346 0.2312612011 -0.0048970743 0.0004421204 -0.0149084987
-0.2606113278 0.1539204333 0.1003199082 -0.0039882340 -0.0008478609 -0.0119308553
0.2475650005 1.5112329176 -0.3775091026 -0.0051277173 0.0006425537 -0.0116879426
-0.0598334066 0.9973931387 0.0969114570 -0.0047510900 0.0017319781 -0.0131354274
0.1284726625 1.0991961276 -0.3225976700 -0.0039294762 -0.0004930676 -0.0147904939
-0.0131795165 0.9222974969 -0.0404436716 -0.0051567599 -0.0005704807 -0.0148404150
0.1198570897 0.1579519688 -0.1913264498 -0.0050583109 -0.0016932848 -0.0130605095
0.0704307804 1.6000429863 -0.4549585301 -0.0045244715 -0.0010129402 -0.0147013779
0.2866264844 1.6233851016 -0.4370369209 -0.0044846357 0.0017196978 -0.0129503489
-0.2022202521 0.1652279483 -0.3334461734 -0.0037327443 0.0010932618 -0.0142301620
-0.2812492789 1.1006861325 -0.2704452619 -0.0055653664 0.0010743858 -0.0143041051
-0.1428437494 1.5380288616 -0.4135126216 -0.0044432475 0.0007172014 -0.0116642615
0.3051649140 0.1079152653 -0.4299638700 -0.0034650096 0.0001870528 -0.0144921962
-0.3661681330 1.0896268545 -0.1848114792 -0.0039537330 -0.0015298778 -0.0128401548
-0.3256085862 0.4827895501 0.0085555135 -0.0043480038 0.0016813065 -0.0129951965
-0.0560248711 0.9435214442 0.0129552458 -0.0059158968 -0.0008611213 -0.0126749413
0.2136268076 0.1141689027 -0.3232326514 -0.0053453896 -0.0015849855 -0.0130030743
-0.0345889308 0.9380452653 -0.0111613735 -0.0063047514 -0.0005956594 -0.0131928837
-0.3417201524 0.9865649505 0.2487088024 -0.0036140790 0.0013830336 -0.0129400111
0.2006278797 1.0944743282 -0.3276486656 -0.0039706347 0.0006958089 -0.0144239536
-0.0437597550 0.9747943005 -0.1205725737 -0.0046918342 0.0017631345 -0.0133099632
0.2022019023 1.4073965855 -0.3572550492 -0.0050293797 0.0002882301 -0.0115620776
0.0820271859 0.1710458562 -0.1523312802 -0.0052417983 -0.0016656162 -0.0132311179
-0.0091735128 0.0061814197 0.4888166909 -0.0050378844 -0.0014433702 -0.0124003848
0.0403035935 0.2638486700 0.0293476340 -0.0034925582 0.0005269717 -0.0120797958
-0.0318064140 0.1562063807 0.2914709675 -0.0063543724 -0.0003715873 -0.0133594217
0.1401635931 0.9620614632 0.1367963030 -0.0051121666 -0.0017010037 -0.0132565155
0.2157631399 0.1088202258 -0.3399528194 -0.0056169316 -0.0014474565 -0.0131343731
0.4850039164 0.1235537560 0.1506330366 -0.0033458428 0.0007595943 -0.0124646417
0.2428284361 0.9637122809 0.1571583821 -0.0052455227 0.0015499088 -0.0126793755
0.2294661395 0.2048104615 0.0460405396 -0.0041461648 0.0016328687 -0.0136623885
-0.0002264816 0.9995173444 -0.0357583422 -0.0046376978 0.0017617765 -0.0133553424
0.1196111007 0.9750232341 0.0352724461 -0.0049755647 -0.0017199345 -0.0134972827
-0.0511809311 0.9572492340 -0.1314705373 -0.0049098649 -0.0015558582 -0.0139508481
-0.0158639128 0.1933422256 -0.0403299085 -0.0038181748 0.0000000000 -0.0117220975
-0.0812719905 1.0959910640 -0.3440722401 -0.0050866118 -0.0003081816 -0.0149394184
-0.3267495865 0.1796884284 0.0725309103 -0.0052467182 0.0014789272 -0.0139605643
-0.2186230646 1.4250231375 -0.3620974034 -0.0049617109 -0.0002943914 -0.0149768421
-0.2286241998 1.6281890309 -0.4818789104 -0.0047446020 0.0017412634 -0.0135246440
-0.1660076575 0.9821274873 -0.0428489748 -0.0047727845 -0.0017348283 -0.0135515250
-0.0029955438 0.5016470995 -0.0415186614 -0.0045975105 -0.0002066458 -0.0149919249
-0.4779848129 0.0060780014 0.1217741083 -0.0054399217 -0.0014582093 -0.0137742125
-0.3360491294 1.4314951306 -0.3262202334 -0.0045055408 0.0000785698 -0.0115120081
-0.1098342105 0.9529798062 -0.0252520146 -0.0055785791 -0.0013425884 -0.0134066321
-0.0030883576 1.3705050608 -0.4287990491 -0.0046493353 0.0008637331 -0.0147511012
-0.1430618102 0.2064100019 -0.0033338795 -0.0052701927 0.0003858808 -0.0148270028
0.0620086124 0.4531122184 -0.0100114235 -0.0046611282 0.0009912033 -0.0133849941
0.3439014030 0.4798431690 0.0207780372 -0.0037474757 0.0013827669 -0.0136200732
0.0447231749 0.9620047680 0.1127717134 -0.0043689406 -0.0010590451 -0.0125654711
0.0253640885 1.3692123017 -0.4167305376 -0.0044218762 -0.0009859815 -0.0128971573
-0.1165012914 0.9771481939 0.1022631978 -0.0051365894 0.0016988581 -0.0132554754
-0.0290188785 0.2274812985 -0.1036586229 -0.0040157684 0.0012758009 -0.0142461437
-0.0194976670 0.9783962237 -0.3250154512 -0.0046393631 0.0017498653 -0.0132567734
-0.0484425520 0.9851107305 -0.1035401748 -0.0045775784 0.0017627901 -0.0132046219
0.0635562555 0.9456625711 -0.0202952279 -0.0033746081 -0.0009786652 -0.0133053241
0.1060845954 0.9581513867 -0.0853228074 -0.0040914174 -0.0016054986 -0.0136422515
0.1381276504 0.1687664957 -0.1620925277 -0.0038519853 -0.0012290938 -0.0123345085
0.1819671416 1.4752247896 -0.3833840537 -0.0043292443 -0.0005949141 -0.0148937797
0.1190093824 0.9567344578 0.0067497706 -0.0039134327 -0.0015322230 -0.0131407216
0.1808300758 0.1535492645 -0.3193877024 -0.0060333878 0.0002305689 -0.0143221511
0.3994457703 1.1144919587 -0.0531394050 -0.0037902554 0.0014946334 -0.0135728133
-0.1826857910 0.4828679081 0.1993152052 -0.0048652822 0.0016651359 -0.0128770663
0.0781587395 0.2297701985 -0.0245536098 -0.0035672571 0.0011100611 -0.0139851866
0.3603629980 1.5852299185 -0.4067925380 -0.0032922415 0.0010795759 -0.0130327367
0.0215889786 0.9441704100 -0.0677247311 -0.0038577723 -0.0009064951 -0.0143493465
-0.0456507023 0.9892380996 0.0908265031 -0.0040913309 -0.0002493125 -0.0148735015
-0.0664000943 0.1798238859 -0.1470675446 -0.0036081261 -0.0013588279 -0.0136686893
0.1880192350 1.3597674120 -0.3805851473 -0.0046841542 0.0017418462 -0.0134944201
0.1072218907 1.4148354015 -0.3779426089 -0.0044306988 -0.0003596338 -0.0149775237
-0.0181762962 0.5797556256 -0.0378034271 -0.0056130378 -0.0002517706 -0.0146955927
0.3705419220 1.5051119776 -0.3501633518 -0.0059247671 -0.0002813906 -0.0144215925
0.0203074650 1.1580567080 -0.3971938939 -0.0044082326 -0.0001634140 -0.0115270645
-0.1046770189 0.4833854867 0.2298570718 -0.0047333972 0.0017134341 -0.0130508852
-0.0329116577 0.3667852758 -0.0137081384 -0.0064071313 -0.0000875160 -0.0132792978
0.0355006266 0.9747943005 -0.1016029954 -0.0046442900 0.0017656721 -0.0132793420
0.0359741788 1.6228912358 -0.5076992477 -0.0046413056 -0.0017274238 -0.0136265365
0.1779246255 0.9816952738 -0.0014997987 -0.0048592622 0.0017328947 -0.0130021808
0.4097775851 0.0776255791 0.1203746957 -0.0055449240 -0.0014807426 -0.0135053141
-0.3940071015 1.0407636620 0.2233512081 -0.0034354762 0.0011932789 -0.0128182290
-0.0233896197 0.9699078086 -0.0808314974 -0.0048484653 -0.0017402250 -0.0132029442
-0.3076688692 0.1041634091 -0.4323101646 -0.0057821858 0.0001818698 -0.0145833324
0.0088231237 0.1783591021 -0.0562039675 -0.0045653405 0.0013210882 -0.0140771758
-0.4146140128 1.0882256636 0.1471768646 -0.0059543306 -0.0011341061 -0.0135923057
-0.3358852439 0.9760854438 0.2646844819 -0.0057029096 -0.0014024500 -0.0131844955
0.0011589801 0.9124839866 -0.0413460186 -0.0042665290 -0.0005484154 -0.0148874312
0.0209317925 0.4311965133 -0.0013175157 -0.0031273741 -0.0001456911 -0.0124374358
0.1205234375 0.9710859940 0.0546908130 -0.0050414657 -0.0017102042 -0.0134763740
-0.0903531831 0.9591850342 0.0908818968 -0.0050793343 -0.0016056045 -0.0127414409
-0.0103888764 1.5646061125 -0.4482902625 -0.0047529195 -0.0006120419 -0.0149043470
-0.3587016448 1.0780447194 -0.0036243717 -0.0037163476 0.0005747949 -0.0129368113
0.1969662309 0.1299326369 -0.2724227470 -0.0047008775 -0.0016555186 -0.0126975876
0.1258339650 1.4364647238 -0.3777228916 -0.0049235792 0.0004099416 -0.0115672465
0.1231237508 0.4606521888 0.2293565785 -0.0042280228 -0.0011988010 -0.0121198383
-0.2444078466 0.4802410529 0.1688089752 -0.0052434583 0.0013820764 -0.0124095411
-0.3996636827 0.1136670602 0.0850196976 -0.0047198154 -0.0009310116 -0.0147022008
0.0845069302 0.2342967989 -0.0082211326 -0.0041058786 0.0015646102 -0.0137803792
-0.0280699674 0.5079628607 -0.0557256402 -0.0054999969 0.0000300367 -0.0148042152
-0.2880072770 0.0253692283 -0.3575127339 -0.0047804575 -0.0007044196 -0.0116526469
-0.0133465154 0.4806050396 -0.0029397642 -0.0046563248 0.0013602177 -0.0121907934
0.3665153840 1.1186261178 -0.1115795276 -0.0041472738 0.0016550171 -0.0135206318
-0.1616950350 0.2055509909 0.0697900395 -0.0043756777 0.0008356671 -0.0117650909
0.1524674238 1.4185184852 -0.3693176059 -0.0049591097 0.0003309568 -0.0115558862
0.1477113777 0.9690314173 0.0838587511 -0.0044667062 0.0017442284 -0.0130720357
-0.1259117984 0.9578331004 0.0334837445 -0.0053161246 -0.0015852945 -0.0130141856
-0.0707632877 1.4895548769 -0.4022189691 -0.0044774024 0.0005628448 -0.0115999798
-0.2609228487 1.0153704188 -0.0684081555 -0.0054885043 -0.0014524824 -0.0138182990
-0.0912357587 1.0923906506 -0.3638924094 -0.0044818808 -0.0014209040 -0.0122614607
-0.0033744544 0.1380432963 0.2794465672 -0.0046940045 -0.0017033153 -0.0137168339
-0.1179451931 0.9770592722 0.1286851862 -0.0051471991 0.0016935373 -0.0133411814
-0.1339930321 0.9725409699 0.1994095978 -0.0040293520 -0.0016471375 -0.0131663241
-0.0694869711 1.4726857242 -0.3965475682 -0.0045346663 0.0003389706 -0.0115460341
-0.0062411037 0.4834083909 0.2478919354 -0.0046695852 0.0016787900 -0.0128780781
-0.3412559013 0.1573559775 0.0630904937 -0.0052287392 0.0002356106 -0.0148962167
-0.1727780242 1.5908135562 -0.4340593888 -0.0044006215 0.0008812017 -0.0117554294
0.3697456687 0.1165271332 0.1368331651 -0.0054595889 -0.0010490341 -0.0121455449
-0.1867185945 0.9972317873 -0.0808428824 -0.0043085387 0.0016731249 -0.0128259249
-0.0166474320 1.4180000447 -0.3848226717 -0.0046211086 0.0004567971 -0.0115592592
0.0907138340 1.0907465152 -0.3649542695 -0.0047231530 -0.0010015870 -0.0129252868
0.1543497622 0.9927451729 -0.0850781040 -0.0050450382 0.0016799520 -0.0128858995
-0.1515445797 0.4706006427 0.2272164476 -0.0053180300 0.0000883319 -0.0116693632
0.1373341855 0.9763274189 0.0299641314 -0.0045234314 0.0017458548 -0.0130433146
0.3330712741 1.6050439442 -0.4077469093 -0.0040601357 0.0015380700 -0.0126667668
0.0630531204 0.9943810102 -0.1652300780 -0.0043240401 -0.0016214220 -0.0138706095
0.2963021390 0.1870456778 0.0942523947 -0.0044353432 0.0016575547 -0.0127328373
-0.0171997377 0.9967332859 -0.0570105074 -0.0048502930 0.0017223167 -0.0135843025
-0.3126314287 1.1137652796 -0.2201430064 -0.0054167032 0.0014370516 -0.0139492023
0.2967099933 0.9796561101 0.1894681475 -0.0055725909 0.0013931400 -0.0126944212
0.4350420830 0.0701751450 0.1250166397 -0.0048637989 -0.0017434337 -0.0133888209
0.0712491979 0.4851617121 -0.0108091567 -0.0046826831 0.0002798030 -0.0132574444
-0.2005959622 1.0198693188 -0.1375093333 -0.0040846821 0.0015547121 -0.0126544211
0.0068931387 0.9940724242 -0.4006650764 -0.0045602776 0.0012620355 -0.0120968070
-0.1848831151 1.5205353161 -0.4016312229 -0.0049357517 -0.0006771094 -0.0148704765
-0.3229968209 1.0003581663 0.1337004658 -0.0055736080 -0.0014699951 -0.0135799671
-0.1881624803 0.4788045628 0.1775004408 -0.0040588218 0.0011960903 -0.0143303751
-0.0177199512 0.9699927428 -0.0969660490 -0.0047919325 -0.0017419539 -0.0132162523
-0.1887561283 0.9747271510 0.0117605030 -0.0048753004 -0.0017247131 -0.0135496549
-0.1535112978 0.9639911180 0.1802963698 -0.0040719039 -0.0016630609 -0.0131658120
0.2293346977 1.4982826800 -0.3779036453 -0.0050987207 0.0006290284 -0.0116746239
-0.0702163380 0.9970197748 -0.1453208527 -0.0045013714 0.0017023741 -0.0130122148
0.0947707601 0.2075837955 -0.0854543022 -0.0031652604 0.0001299390 -0.0123724689
0.0568132396 0.9931851477 0.1635927732 -0.0050787834 -0.0016838229 -0.0129426388
0.0132242776 0.2668919495 0.0444263421 -0.0041849359 0.0009016141 -0.0118475740
0.0510956595 0.4823382045 0.2454525691 -0.0044993971 0.0015667064 -0.0125254657
0.3099440797 0.0600825557 -0.3765621394 -0.0035536418 0.0009992277 -0.0124699130
-0.0817297094 0.2229179173 -0.0313693009 -0.0060674049 0.0006073445 -0.0140834466
-0.0083868485 0.6725604896 0.0149911532 -0.0048399588 -0.0003529356 -0.0115719968
0.2550096882 0.0663350665 -0.4235229184 -0.0055275137 0.0013016594 -0.0139851549
-0.2667855407 0.1023420484 -0.4296670328 -0.0035705117 0.0000370086 -0.0146384101
-0.0806558640 0.9747943005 0.0851126351 -0.0047702716 0.0017562438 -0.0131509711
0.4649611725 0.1357225336 0.1565798523 -0.0040221540 0.0012127730 -0.0121590102
0.4900840957 0.1189430019 0.1315003675 -0.0030518187 0.0005405393 -0.0136367454
0.2232499186 0.1013289139 -0.3591141055 -0.0058555849 -0.0012496474 -0.0132471243
0.3094954289 0.0756917550 -0.4159653806 -0.0035231441 -0.0012065093 -0.0135750667
-0.0511149170 0.9747943005 0.0835026793 -0.0046881716 0.0017638938 -0.0132286438
-0.4551673612 0.1504245278 0.1198052728 -0.0053402631 0.0015870446 -0.0135711163
0.1616542385 0.1956578953 -0.1913287950 -0.0034472038 0.0010755849 -0.0127027776
-0.0069915205 0.2666556873 0.0044839461 -0.0047701515 -0.0005649604 -0.0122339669
-0.2963721441 0.0925361104 -0.4379521945 -0.0048991793 -0.0000265543 -0.0149791943
0.0531177661 0.9747943005 0.0900174627 -0.0045827314 0.0017595267 -0.0131806953
0.1222919298 0.2284432439 0.0115365970 -0.0041882187 0.0016683198 -0.0136007451
0.0478001431 0.2377944686 -0.0831393265 -0.0045088077 0.0017371717 -0.0135268550
0.3018557046 0.4600289809 0.0085626443 -0.0052206495 -0.0013477838 -0.0123766877
-0.1267536446 0.9778235674 0.2427565442 -0.0040007704 -0.0016384226 -0.0132040780
-0.0307544503 0.9747943005 -0.1066127370 -0.0046642468 0.0017657039 -0.0132806858
0.1032177059 1.0314823894 -0.2474170940 -0.0043926341 -0.0016325562 -0.0138804298
0.2990984301 0.1863949584 0.0652785625 -0.0040920373 0.0015374978 -0.0138357994
-0.2395256670 1.0001498199 -0.0384974277 -0.0041229022 0.0008203124 -0.0130579348
0.2056978731 0.9757784755 0.0612200665 -0.0049727180 0.0017124187 -0.0129723506
0.0383886931 1.0279421184 -0.2625730757 -0.0044693833 -0.0016228789 -0.0139335172
-0.2559206511 0.1505004081 -0.3990454062 -0.0041550740 0.0014226469 -0.0141350012
-0.0439640256 0.5048189124 -0.0413891673 -0.0060552889 0.0000212389 -0.0143379615
0.2974075699 0.0451815834 -0.3593631407 -0.0040561888 0.0004292380 -0.0117062977
-0.0288359703 0.5297795112 0.0156441011 -0.0046567504 0.0017659317 -0.0132637541
0.1105127504 0.1795282336 0.0193090540 -0.0049569712 -0.0017203142 -0.0134443506
0.0306387129 0.1460764454 0.3412398410 -0.0029054495 -0.0001284839 -0.0133067316
0.0246392424 1.4533865824 -0.4064120609 -0.0043336573 -0.0004836322 -0.0149285527
-0.1297025051 1.5796144835 -0.4385551648 -0.0048667215 -0.0007912469 -0.0148276385
-0.2060787404 0.9538588906 0.2011740885 -0.0049757995 0.0017286970 -0.0132447315
-0.0246656626 0.4307448462 0.0312407146 -0.0053762546 -0.0000390041 -0.0116673501
0.0905711626 0.9561086646 0.0612309658 -0.0040511754 -0.0015023999 -0.0127658514
0.0280964776 0.9942195493 -0.0828801742 -0.0046567504 0.0017659317 -0.0132637541
-0.1397653861 0.9677084784 -0.0262853477 -0.0050400000 0.0001778399 -0.0133377290
0.1112438072 0.9747792106 0.1623847170 -0.0052548273 -0.0016496151 -0.0130714123
0.2453303693 0.1924823528 0.0917440547 -0.0047044200 0.0013313659 -0.0121284490
-0.3068305267 0.4728734834 0.1289914677 -0.0057299795 0.0004833797 -0.0120417647
0.0226773418 0.4908899954 -0.0213239944 -0.0030513596 -0.0003687672 -0.0138320892
0.0120343910 0.0014925213 0.4625339603 -0.0041268173 -0.0016644825 -0.0133169457
0.3078072635 0.0964535986 -0.3851101848 -0.0031291736 -0.0000238719 -0.0123921273
-0.0510804195 1.4316612253 -0.3895967992 -0.0049267278 -0.0000986414 -0.0141647430
-0.2026281735 0.4706386368 0.2013541676 -0.0055106543 0.0001418944 -0.0117611157
0.0355367911 0.9747943005 -0.0254214027 -0.0046445832 0.0017656721 -0.0132656666
0.1789393034 0.1706431620 -0.2063824622 -0.0032698671 -0.0001473440 -0.0122308659
0.2655442196 1.1155336889 -0.2230088592 -0.0053380380 0.0014947994 -0.0126708708
0.4155883780 1.1031479172 0.1361673841 -0.0048369196 0.0013721978 -0.0128226085
-0.2897026915 1.0183838417 -0.0257784176 -0.0056474505 -0.0013794134 -0.0137428319
0.2568550833 1.4729905364 -0.3603764712 -0.0051343996 0.0005522227 -0.0116561276
0.0029476482 0.1828968861 0.0503426336 -0.0045919248 -0.0016377816 -0.0126161340
-0.1662961824 0.9672453310 0.0538151228 -0.0046362409 -0.0017364830 -0.0135469195
0.0727363738 0.9938512518 0.0058692824 -0.0046111452 0.0015651559 -0.0126210821
-0.0143559308 0.9889217542 0.0030343793 -0.0046613330 -0.0017658293 -0.0132530861
0.1408266669 0.4714824236 0.2265492115 -0.0040064108 0.0002094395 -0.0117046483
0.3759812106 1.0909889211 -0.1529338991 -0.0048611711 -0.0008934078 -0.0131489827
0.1994277595 1.3593058804 -0.3673732374 -0.0046969678 -0.0016189303 -0.0126325289
-0.0513107359 1.6028597021 -0.4594269271 -0.0047764841 -0.0009773814 -0.0147293979
0.0235981568 0.4103736850 -0.0107211745 -0.0029170357 -0.0001294869 -0.0131713288
0.3850925900 0.1046000675 0.1397457834 -0.0056078636 -0.0009651735 -0.0121659432
0.0234919131 0.5330659507 -0.0188802840 -0.0029909700 -0.0004539045 -0.0135995690
0.0422853079 0.4312634474 -0.0007436144 -0.0029493240 -0.0000349425 -0.0128289482
0.0185556678 0.9747943005 0.1052157914 -0.0046372316 0.0017643194 -0.0132277150
-0.0410070241 0.9977320121 -0.1864594414 -0.0049424658 -0.0016129155 -0.0139170128
0.0256905087 0.1916548001 0.0009083105 -0.0061727604 0.0000000000 -0.0141488761
-0.0939627457 0.9906875781 0.2419001468 -0.0040393736 -0.0016535284 -0.0132123284
0.1378325915 0.2083820566 0.0646766694 -0.0049429744 0.0008113361 -0.0117296839
0.0210878302 0.1842768028 0.1050934689 -0.0038053188 -0.0014947058 -0.0135333748
0.2220109692 0.9864161019 0.0207223609 -0.0051011507 0.0016891207 -0.0130044659
-0.1777197827 0.4577825498 0.2062525567 -0.0050314741 -0.0015405935 -0.0125223771
-0.0097121573 0.4715105020 -0.0415186614 -0.0049524963 -0.0005719217 -0.0149001265
0.3262507885 1.1196007002 -0.1697219584 -0.0045457934 0.0016989217 -0.0133588001
0.0367297680 0.9747943005 -0.0493582803 -0.0046441275 0.0017656686 -0.0132699560
-0.3569457365 1.0852244203 -0.0380728483 -0.0058441329 -0.0012050965 -0.0137685457
-0.2282707486 0.4814971671 0.1775556809 -0.0051354998 0.0015079644 -0.0125259266
-0.4955857641 0.1038908570 0.1383193979 -0.0063749031 0.0001278552 -0.0132832782
-0.0646782720 0.9698048759 -0.1342401540 -0.0052090703 0.0000193034 -0.0143380198
-0.0213006832 0.0036328005 0.4623015778 -0.0054087230 -0.0015594590 -0.0134471602
0.0787248142 0.9831300933 -0.0630164093 -0.0046043923 -0.0017639768 -0.0133219645
0.0153783399 0.4283399439 0.0312250084 -0.0038415451 -0.0000326256 -0.0117035481
0.0363183236 0.5147432243 -0.0391549900 -0.0031372404 0.0000407330 -0.0141610222
0.0253640885 0.9732052428 -0.1622033435 -0.0043210397 -0.0003452697 -0.0132448286
0.2882972165 1.3790225785 -0.3379824229 -0.0044552664 -0.0011569713 -0.0119782247
-0.0571828985 0.9862894546 -0.1188050791 -0.0045542257 0.0017573016 -0.0131378961
-0.2033526575 1.4114696328 -0.3629036802 -0.0050354880 -0.0001291744 -0.0149736157
0.0221697000 0.7956282206 -0.0036805884 -0.0031193197 -0.0004247613 -0.0125633909
0.0147568997 0.9747943005 0.0374989823 -0.0046510994 0.0017657198 -0.0132545112
-0.0013438979 0.4607586780 0.0149911532 -0.0044767561 -0.0003716474 -0.0115792071
-0.1042395252 0.2220566689 -0.1343034361 -0.0052117580 0.0016690474 -0.0132820138
-0.1444034220 0.9694275246 0.2140485130 -0.0040322622 -0.0016494703 -0.0131873122
0.0071449376 0.9704208612 -0.1782906864 -0.0045646906 -0.0017485126 -0.0132594752
-0.0628094077 1.3570819755 -0.3865125889 -0.0046393348 -0.0016284663 -0.0126707295
-0.2257479191 0.9513368558 0.1768571472 -0.0046712010 0.0017530086 -0.0130895449
-0.2747062830 0.1120286376 -0.3381380085 -0.0058831670 -0.0004287947 -0.0121213676
-0.1661481956 1.3601556503 -0.3703796814 -0.0045082108 -0.0014228959 -0.0122610704
-0.3553131327 1.0986181893 -0.1939370585 -0.0057973021 0.0010536714 -0.0140747247
-0.3042028892 1.1050587100 -0.1761972538 -0.0055222053 -0.0014042194 -0.0138856640
-0.3992226572 1.0926952473 0.0987323992 -0.0033624249 0.0011437392 -0.0128967900
-0.1758366620 0.4746618336 0.2145185863 -0.0053513337 0.0007140439 -0.0118792972
0.1151935360 0.1898823610 0.0565365454 -0.0052414963 -0.0008581987 -0.0118810490
-0.0345929112 1.6235486092 -0.5082931376 -0.0046634698 -0.0004386733 -0.0135212093
0.0860343693 0.2113635339 -0.0261819489 -0.0035850029 0.0000326962 -0.0146204700
-0.1282213387 0.4733213254 0.2354178335 -0.0051860302 0.0003903539 -0.0116950876
0.1171969961 0.9747943005 -0.0009127395 -0.0046200597 0.0017654867 -0.0132607202
-0.3479201532 0.4831645298 0.0421923043 -0.0049022132 0.0017202841 -0.0132916911
-0.0195677691 1.0915512291 -0.3488096133 -0.0046998356 -0.0002604361 -0.0149919920
-0.3491957227 1.0899931052 -0.0656504095 -0.0057793355 -0.0012515741 -0.0137985665
