0.0509863085 0.0000000000 0.0302764106 0.0459833340 0.0004127453 -0.0059685324
0.0056787363 0.0000000000 -0.1411041127 0.0459833340 0.0004127453 -0.0059685324
-0.0108112860 0.0000000000 -0.1449123832 0.0459833340 0.0004127453 -0.0059685324
0.1195594850 0.0000000000 -0.0654381305 0.0459833340 0.0004127453 -0.0059685324
0.0832816351 0.0000000000 0.0312497213 0.0459833340 0.0004127453 -0.0059685324
-0.4990022973 0.2944695862 -0.0059685324 0.0459833340 0.0000000000 -0.0055557871
-0.3787231781 0.0000000000 -0.0709768182 0.0459833340 0.0004127453 -0.0059685324
0.3839701619 0.0000000000 -0.0323919884 0.0459833340 0.0004127453 -0.0059685324
-0.0183503737 0.1922154741 0.0557850201 0.0459582403 0.0004114814 -0.0059485778
0.1742770771 0.0000000000 0.1105730678 0.0459833340 0.0004127453 -0.0059685324
-0.1376374204 0.0000000000 0.1572095794 0.0459833340 0.0004127453 -0.0059685324
0.1495960367 0.0000000000 0.1179115774 0.0459833340 0.0004127453 -0.0059685324
-0.2357553132 0.0000000000 0.1642957787 0.0459833340 0.0004127453 -0.0059685324
0.1430921624 0.1706902444 0.0730533796 0.0458725614 0.0000581649 -0.0056982651
-0.1581084166 0.0000000000 0.1582858812 0.0459833340 0.0004127453 -0.0059685324
0.0511241968 0.0000000000 0.0218155104 0.0459833340 0.0004127453 -0.0059685324
0.2696020873 0.0000000000 0.0091553291 0.0459833340 0.0004127453 -0.0059685324
-0.2663916981 0.0000000000 0.1436748776 0.0459833340 0.0004127453 -0.0059685324
-0.2290353799 0.0000000000 0.0781659140 0.0459833340 0.0004127453 -0.0059685324
-0.3470480025 0.0000000000 -0.0330785452 0.0459833340 0.0004127453 -0.0059685324
-0.0322643596 0.2807723333 -0.0828690477 0.0462746624 -0.0000103141 -0.0060388840
0.4671147527 0.0000000000 -0.0220015470 0.0459833340 0.0004127453 -0.0059685324
-0.2719603078 0.0000000000 0.0124912122 0.0459833340 0.0004127453 -0.0059685324
0.0277454329 0.1938073046 -0.0577979878 0.0459692763 0.0004108801 -0.0060050323
0.1287157714 0.3951431039 -0.0929706438 0.0456760422 0.0000107173 -0.0059993830
0.2826007919 0.0000000000 0.0007678703 0.0459833340 0.0004127453 -0.0059685324
0.1784628242 0.0000000000 -0.0219941911 0.0459833340 0.0004127453 -0.0059685324
0.1122689475 0.1937716075 -0.0297784805 0.0460177342 0.0004107905 -0.0059887053
-0.2661317169 0.0000000000 0.1537505202 0.0459833340 0.0004127453 -0.0059685324
-0.0034837380 0.1179424250 0.0864864066 0.0459723252 0.0002476893 -0.0056886795
0.3972594812 0.0000000000 0.0426029682 0.0459833340 0.0004127453 -0.0059685324
0.1745577282 0.0000000000 0.0239531313 0.0459833340 0.0004127453 -0.0059685324
0.1126472991 0.1945569041 0.0075924667 0.0460227012 0.0004108371 -0.0059649489
0.1504078856 0.0349125835 0.0766923726 0.0462462205 -0.0000155073 -0.0061681752
-0.0446003707 0.1196961264 0.0262887795 0.0459796940 0.0003185535 -0.0059522182
-0.0417714696 0.1737335101 -0.0277139526 0.0460176958 -0.0002220483 -0.0058924903
0.0047318141 0.1068023841 -0.0765479724 0.0459729951 -0.0002062513 -0.0062660338
-0.0893985611 0.0000000000 -0.0003302682 0.0459833340 0.0004127453 -0.0059685324
-0.0432752037 0.0000000000 0.1223871076 0.0459833340 0.0004127453 -0.0059685324
-0.0407733194 0.2440962238 -0.0688483173 0.0460231759 0.0000237172 -0.0056358151
0.1307688167 0.3648862358 -0.0983848582 0.0458441980 -0.0000333251 -0.0063043279
-0.0912542519 0.0000000000 -0.0842107781 0.0459833340 0.0004127453 -0.0059685324
-0.4492380260 0.1731858744 -0.0059685324 0.0459833340 0.0000000000 -0.0055557871
0.2677294670 0.0000000000 -0.1457562261 0.0459833340 0.0004127453 -0.0059685324
0.2107592215 0.0000000000 0.1469008607 0.0459833340 0.0004127453 -0.0059685324
0.0378712010 0.1875636633 -0.0083689957 0.0459944645 -0.0004121914 -0.0059538589
0.1440094272 0.1754911289 -0.0482958943 0.0463356744 -0.0000647713 -0.0059516519
0.0498325162 0.0000000000 -0.1334874210 0.0459833340 0.0004127453 -0.0059685324
-0.0146418258 0.2536702811 -0.0723076220 0.0459697716 0.0003021642 -0.0057190097
-0.1096410785 0.0000000000 0.0582878046 0.0459833340 0.0004127453 -0.0059685324
-0.1370464922 0.0000000000 0.1233913602 0.0459833340 0.0004127453 -0.0059685324
0.2359380553 0.0000000000 -0.0009333374 0.0459833340 0.0004127453 -0.0059685324
0.0737596175 0.1845313435 0.0585130397 0.0459690381 -0.0004110906 -0.0060023940
-0.0428242168 0.3609528118 -0.0981579920 0.0459535569 -0.0000321421 -0.0063155975
0.0850044037 0.2894306880 -0.0800317009 0.0459882820 0.0000384480 -0.0055616077
0.0806451884 0.1040118064 -0.0762739026 0.0459877995 -0.0002095875 -0.0062922324
0.1438187868 0.0000000000 -0.0156771215 0.0459833340 0.0004127453 -0.0059685324
0.0608180579 0.4024205859 -0.0972394109 0.0459949309 0.0002865612 -0.0061044230
-0.2694466276 0.0000000000 -0.0920065158 0.0459833340 0.0004127453 -0.0059685324
0.2046237041 0.0000000000 0.0255340975 0.0459833340 0.0004127453 -0.0059685324
0.1295911802 0.1809337411 0.0665155846 0.0459635391 -0.0004120081 -0.0059789303
-0.4172223050 0.0432544608 -0.0059685324 0.0459833340 0.0000000000 -0.0055557871
-0.4755510909 0.1719259864 -0.0059685324 0.0459833340 0.0000000000 -0.0055557871
-0.1438127912 0.0000000000 -0.1566816439 0.0459833340 0.0004127453 -0.0059685324
-0.1558657012 0.0000000000 -0.0348312828 0.0459833340 0.0004127453 -0.0059685324
0.0546720230 0.2356468111 -0.0763502406 0.0459922905 -0.0003113486 -0.0059469991
0.2491516100 0.0000000000 0.0090967766 0.0459833340 0.0004127453 -0.0059685324
-0.0453547378 0.0000000000 0.0942379385 0.0459833340 0.0004127453 -0.0059685324
0.1104363007 0.0000000000 0.0190110396 0.0459833340 0.0004127453 -0.0059685324
-0.3921560413 0.1994715177 -0.0059685324 0.0459833340 0.0000000000 -0.0055557871
-0.0371826007 0.1308190367 -0.0626286271 0.0460634350 0.0000014723 -0.0056045555
-0.3931225565 0.1874713095 -0.0059685324 0.0459833340 0.0000000000 -0.0055557871
-0.2815148166 0.0000000000 -0.0092192856 0.0459833340 0.0004127453 -0.0059685324
-0.4766861907 0.2414472627 -0.0059685324 0.0459833340 0.0000000000 -0.0055557871
-0.4520807888 0.2781229945 -0.0059685324 0.0459833340 0.0000000000 -0.0055557871
-0.2199868266 0.0000000000 0.0855250998 0.0459833340 0.0004127453 -0.0059685324
-0.1077561398 0.0000000000 -0.1523977617 0.0459833340 0.0004127453 -0.0059685324
-0.3202467170 0.0000000000 0.0370670513 0.0459833340 0.0004127453 -0.0059685324
0.0801596695 0.0000000000 -0.1433088889 0.0459833340 0.0004127453 -0.0059685324
0.2751002851 0.0000000000 0.0745614154 0.0459833340 0.0004127453 -0.0059685324
0.0325539598 0.0000000000 0.0900722128 0.0459833340 0.0004127453 -0.0059685324
0.4496152001 0.0000000000 0.0679424768 0.0459833340 0.0004127453 -0.0059685324
0.0517600923 0.0000000000 -0.1528450578 0.0459833340 0.0004127453 -0.0059685324
0.1275189703 0.1824070303 0.0332257355 0.0459518044 -0.0004112730 -0.0059832703
0.2171752009 0.0000000000 0.1172582236 0.0459833340 0.0004127453 -0.0059685324
-0.2175104561 0.0000000000 0.1003476213 0.0459833340 0.0004127453 -0.0059685324
-0.1100814847 0.0000000000 -0.0621256318 0.0459833340 0.0004127453 -0.0059685324
0.3246696965 0.0000000000 0.0211644868 0.0459833340 0.0004127453 -0.0059685324
-0.1906120054 0.0000000000 0.1001791250 0.0459833340 0.0004127453 -0.0059685324
0.0861647020 0.1967204033 0.0208088647 0.0460131400 0.0004114146 -0.0059560279
0.1448890551 0.1821655149 -0.0248635990 0.0463661796 0.0000480464 -0.0060062148
0.2864816908 0.0000000000 0.1123210254 0.0459833340 0.0004127453 -0.0059685324
-0.3815541513 0.0000000000 0.0444343173 0.0459833340 0.0004127453 -0.0059685324
0.1386663486 0.0000000000 0.1597384630 0.0459833340 0.0004127453 -0.0059685324
0.0202635211 0.0000000000 0.0905407393 0.0459833340 0.0004127453 -0.0059685324
-0.0335256839 0.2045690253 -0.0641252633 0.0462420051 -0.0000013740 -0.0056629387
0.0522303825 0.4028305096 -0.0935503362 0.0459893712 0.0002958137 -0.0058950452
0.4643768388 0.0000000000 0.1442720659 0.0459833340 0.0004127453 -0.0059685324
0.1445317828 0.1728576106 -0.0361917094 0.0463324199 -0.0001775787 -0.0059130396
0.1442929440 0.1906883117 -0.0649157056 0.0462920146 0.0000294176 -0.0058505913
-0.0838486435 0.0000000000 -0.0715180803 0.0459833340 0.0004127453 -0.0059685324
0.1467443178 0.1777432156 0.0250437075 0.0462892121 -0.0002518555 -0.0060278711
-0.0423093621 0.2531145213 -0.0699228868 0.0459767226 0.0000291794 -0.0056300598
-0.4331778924 0.2653509923 -0.0059685324 0.0459833340 0.0000000000 -0.0055557871
0.3655584331 0.0000000000 -0.1188521702 0.0459833340 0.0004127453 -0.0059685324
-0.1685690301 0.0000000000 0.1328755583 0.0459833340 0.0004127453 -0.0059685324
0.0387866803 0.0000000000 0.1119055845 0.0459833340 0.0004127453 -0.0059685324
0.3031559795 0.0000000000 0.0732268643 0.0459833340 0.0004127453 -0.0059685324
-0.0324293735 0.2876486583 -0.0764515626 0.0462658309 0.0000083808 -0.0057707090
0.2851801725 0.0000000000 0.1467005719 0.0459833340 0.0004127453 -0.0059685324
-0.1053376601 0.0000000000 -0.1018031068 0.0459833340 0.0004127453 -0.0059685324
0.0431176589 0.0000000000 -0.1557193358 0.0459833340 0.0004127453 -0.0059685324
0.4332960927 0.0000000000 0.0951448244 0.0459833340 0.0004127453 -0.0059685324
-0.1017430051 0.0000000000 -0.0617615574 0.0459833340 0.0004127453 -0.0059685324
-0.0176306079 0.1750768722 -0.0765479724 0.0460253011 -0.0000415086 -0.0062990778
0.0538517537 0.0000000000 -0.0375000450 0.0459833340 0.0004127453 -0.0059685324
0.1453994951 0.1358649511 -0.0650343847 0.0463275780 0.0000149051 -0.0058147621
0.0029472591 0.2353331206 -0.0785463257 0.0459773904 -0.0003222393 -0.0060284131
-0.4931805840 0.0562926763 -0.0059685324 0.0459833340 0.0000000000 -0.0055557871
-0.0041439030 0.0000000000 0.0030451588 0.0459833340 0.0004127453 -0.0059685324
0.0924683157 0.1196961264 0.0860904390 0.0459899408 0.0001980604 -0.0056406963
-0.0061329228 0.3863356124 -0.0874490297 0.0459667738 -0.0000799141 -0.0055781583
-0.1377163596 0.0000000000 -0.1496499852 0.0459833340 0.0004127453 -0.0059685324
-0.4765859266 0.1220571180 -0.0059685324 0.0459833340 0.0000000000 -0.0055557871
0.0174265747 0.1805285660 0.0864864066 0.0459728040 0.0000085616 -0.0055737267
-0.1819670525 0.0000000000 -0.0281243865 0.0459833340 0.0004127453 -0.0059685324
0.0870282732 0.1864103622 0.0106986901 0.0459530360 -0.0004115277 -0.0059737994
-0.3886942109 0.0464697534 -0.0059685324 0.0459833340 0.0000000000 -0.0055557871
0.2356148423 0.0000000000 -0.0761950579 0.0459833340 0.0004127453 -0.0059685324
0.2939488176 0.0000000000 -0.0850266075 0.0459833340 0.0004127453 -0.0059685324
0.0107061218 0.1076321573 0.0864864066 0.0459692734 -0.0000865931 -0.0055896921
0.0456727357 0.2356554771 -0.0762896727 0.0459906928 -0.0003205768 -0.0059351029
0.1702152117 0.0000000000 -0.0454252815 0.0459833340 0.0004127453 -0.0059685324
-0.1734765019 0.0000000000 -0.0667978731 0.0459833340 0.0004127453 -0.0059685324
0.2803210442 0.0000000000 0.0163630546 0.0459833340 0.0004127453 -0.0059685324
0.2966928030 0.0000000000 0.1198874340 0.0459833340 0.0004127453 -0.0059685324
0.1237703167 0.1606688530 0.0858735113 0.0458928718 -0.0001859062 -0.0056485925
0.3805126897 0.0000000000 0.1537007535 0.0459833340 0.0004127453 -0.0059685324
-0.4224488834 0.1577371749 -0.0059685324 0.0459833340 0.0000000000 -0.0055557871
-0.2304690803 0.0000000000 -0.0191304150 0.0459833340 0.0004127453 -0.0059685324
-0.0056087186 0.1823860204 0.0601726681 0.0460092259 -0.0004111859 -0.0059931741
0.0474727591 0.0000000000 -0.1194636800 0.0459833340 0.0004127453 -0.0059685324
0.4987006482 0.0000000000 -0.0517058921 0.0459833340 0.0004127453 -0.0059685324
0.0467497982 0.3356398935 -0.0851498091 0.0459933761 0.0000482545 -0.0055636891
0.1449575460 0.2234159580 -0.0811222990 0.0462665750 -0.0000332689 -0.0062206739
0.1886142692 0.0000000000 0.0996562593 0.0459833340 0.0004127453 -0.0059685324
-0.0378039545 0.0353104374 0.0860502203 0.0463473802 -0.0000071446 -0.0058380582
0.3711879570 0.0000000000 -0.1475349935 0.0459833340 0.0004127453 -0.0059685324
-0.0627037119 0.0000000000 0.0853493293 0.0459833340 0.0004127453 -0.0059685324
-0.1919809370 0.0000000000 -0.1258203578 0.0459833340 0.0004127453 -0.0059685324
-0.4867275091 0.1928114155 -0.0059685324 0.0459833340 0.0000000000 -0.0055557871
0.4550647274 0.0000000000 0.1620806360 0.0459833340 0.0004127453 -0.0059685324
-0.2079655452 0.0000000000 -0.0097369709 0.0459833340 0.0004127453 -0.0059685324
0.1098138198 0.0000000000 -0.0140901469 0.0459833340 0.0004127453 -0.0059685324
-0.3954375477 0.0437602434 -0.0059685324 0.0459833340 0.0000000000 -0.0055557871
0.3882165458 0.0000000000 0.0434161400 0.0459833340 0.0004127453 -0.0059685324
-0.3881533900 0.0594431147 -0.0059685324 0.0459833340 0.0000000000 -0.0055557871
0.3783746721 0.0000000000 -0.0610020381 0.0459833340 0.0004127453 -0.0059685324
0.0187471503 0.1969567041 0.0144472760 0.0459520991 0.0004114245 -0.0059596922
-0.0494479169 0.0313354148 0.0885501329 0.0459113921 -0.0000214037 -0.0056173708
0.0536291824 0.1978049175 0.0274010083 0.0459885325 0.0004121348 -0.0059479777
-0.2014754636 0.0000000000 -0.0395193921 0.0459833340 0.0004127453 -0.0059685324
0.2609014857 0.0000000000 0.1041155216 0.0459833340 0.0004127453 -0.0059685324
-0.1290903386 0.0000000000 0.1241769090 0.0459833340 0.0004127453 -0.0059685324
0.0321272192 0.1799455860 0.0749295392 0.0459922369 0.0000004825 -0.0063613107
0.4402267064 0.0000000000 -0.1470380061 0.0459833340 0.0004127453 -0.0059685324
-0.1345057814 0.0000000000 -0.0908775436 0.0459833340 0.0004127453 -0.0059685324
-0.2432861002 0.0000000000 0.1403657234 0.0459833340 0.0004127453 -0.0059685324
0.1717014624 0.0000000000 -0.1472117805 0.0459833340 0.0004127453 -0.0059685324
0.1592315753 0.0000000000 0.1555953785 0.0459833340 0.0004127453 -0.0059685324
0.2999458672 0.0000000000 0.0971427113 0.0459833340 0.0004127453 -0.0059685324
-0.4271548444 0.2302439897 -0.0059685324 0.0459833340 0.0000000000 -0.0055557871
0.2246867920 0.0000000000 0.1027636447 0.0459833340 0.0004127453 -0.0059685324
0.1026017361 0.1954863618 0.0002959992 0.0460198231 0.0004110939 -0.0059700360
0.0094760072 0.1941177072 0.0562928713 0.0459579122 0.0004106386 -0.0059358904
0.0884540159 0.1852524384 -0.0312081517 0.0459568101 -0.0004110212 -0.0059423206
0.3439226859 0.0000000000 0.0412547255 0.0459833340 0.0004127453 -0.0059685324
-0.3856940989 0.0000000000 -0.0469516065 0.0459833340 0.0004127453 -0.0059685324
0.0608868101 0.0000000000 0.0981990358 0.0459833340 0.0004127453 -0.0059685324
-0.0320526650 0.0000000000 0.1529620620 0.0459833340 0.0004127453 -0.0059685324
-0.0438419913 0.3941928879 -0.1020279386 0.0459195355 -0.0000275846 -0.0063226521
-0.2800926038 0.0000000000 -0.0782324713 0.0459833340 0.0004127453 -0.0059685324
0.1352133415 0.1040669896 0.0301259670 0.0456456737 -0.0002040522 -0.0059512846
0.0719744517 0.0000000000 -0.0077482900 0.0459833340 0.0004127453 -0.0059685324
0.1297673981 0.0982825538 -0.0626369406 0.0457153884 0.0000005857 -0.0056861655
-0.0329111950 0.0000000000 0.0831734291 0.0459833340 0.0004127453 -0.0059685324
0.2302666626 0.0000000000 -0.0076450958 0.0459833340 0.0004127453 -0.0059685324
0.3228541366 0.0000000000 -0.0939953652 0.0459833340 0.0004127453 -0.0059685324
0.2902966115 0.0000000000 -0.1118780750 0.0459833340 0.0004127453 -0.0059685324
0.1723417038 0.0000000000 -0.0860835619 0.0459833340 0.0004127453 -0.0059685324
-0.0644579927 0.0000000000 0.0754042442 0.0459833340 0.0004127453 -0.0059685324
-0.0841151997 0.0000000000 0.1337125364 0.0459833340 0.0004127453 -0.0059685324
-0.0378039545 0.1486184624 0.0783335163 0.0463281608 0.0000183205 -0.0060005321
0.2959864201 0.0000000000 -0.1376990902 0.0459833340 0.0004127453 -0.0059685324
-0.3995342661 0.2119681466 -0.0059685324 0.0459833340 0.0000000000 -0.0055557871
0.0995123188 0.0000000000 0.0985193959 0.0459833340 0.0004127453 -0.0059685324
-0.0355613526 0.1196961264 0.0785471569 0.0459614296 0.0002072406 -0.0061595550
0.0153473519 0.0000000000 0.0198275492 0.0459833340 0.0004127453 -0.0059685324
0.0770563807 0.0000000000 -0.0425163425 0.0459833340 0.0004127453 -0.0059685324
0.4783329898 0.0000000000 -0.0785720339 0.0459833340 0.0004127453 -0.0059685324
0.0172770478 0.3917434219 -0.0997328492 0.0459719934 -0.0001070896 -0.0063183914
0.1450613746 0.2807196319 -0.0732516847 0.0462802914 0.0000133985 -0.0056850424
-0.4040766808 0.2573913873 -0.0059685324 0.0459833340 0.0000000000 -0.0055557871
0.1872972956 0.0000000000 0.0104454544 0.0459833340 0.0004127453 -0.0059685324
-0.0506470232 0.1735314074 0.0429006492 0.0456404871 -0.0001911180 -0.0060487804
0.0593218530 0.0000000000 -0.0783702213 0.0459833340 0.0004127453 -0.0059685324
-0.3543057590 0.0000000000 0.1508954259 0.0459833340 0.0004127453 -0.0059685324
-0.0374165840 0.1083521691 -0.0000315657 0.0463411131 -0.0000997118 -0.0059625509
0.0920972127 0.1852319448 0.0346890644 0.0459522080 -0.0004109185 -0.0059916193
-0.2457198465 0.0000000000 -0.1334288623 0.0459833340 0.0004127453 -0.0059685324
-0.0534882745 0.0423824502 0.0792297080 0.0456484936 -0.0000078417 -0.0059696769
-0.1732357926 0.0000000000 0.1047448170 0.0459833340 0.0004127453 -0.0059685324
0.2244100203 0.0000000000 0.0837712663 0.0459833340 0.0004127453 -0.0059685324
-0.0082764947 0.1844173499 0.0005293959 0.0460220445 -0.0004109048 -0.0059682373
-0.2428283624 0.0000000000 -0.0869399253 0.0459833340 0.0004127453 -0.0059685324
0.1244750937 0.1918043035 0.0585806048 0.0460088049 0.0004115145 -0.0059496505
-0.2175494028 0.0000000000 0.1336523024 0.0459833340 0.0004127453 -0.0059685324
-0.4537257743 0.0516876151 -0.0059685324 0.0459833340 0.0000000000 -0.0055557871
0.0026383804 0.0000000000 -0.1321363249 0.0459833340 0.0004127453 -0.0059685324
-0.3992657699 0.0206775104 -0.0059685324 0.0459833340 0.0000000000 -0.0055557871
0.1287726362 0.4148199229 -0.0921347240 0.0456586417 0.0000269968 -0.0059067655
0.0538697184 0.0000000000 0.1146358399 0.0459833340 0.0004127453 -0.0059685324
0.0969109009 0.0000000000 -0.0910929541 0.0459833340 0.0004127453 -0.0059685324
0.1420568854 0.1248107518 0.0728658129 0.0459936654 0.0000013134 -0.0063146304
-0.0320709859 0.3589440545 -0.0885314405 0.0462700764 0.0000146244 -0.0059155392
-0.2683150799 0.0000000000 -0.1255487380 0.0459833340 0.0004127453 -0.0059685324
0.0182888169 0.0000000000 0.0646742529 0.0459833340 0.0004127453 -0.0059685324
0.4969872918 0.0000000000 0.0417150269 0.0459833340 0.0004127453 -0.0059685324
-0.3932614651 0.0358709553 -0.0059685324 0.0459833340 0.0000000000 -0.0055557871
-0.2409043504 0.0000000000 0.0027877184 0.0459833340 0.0004127453 -0.0059685324
0.0497668035 0.2574294019 -0.0764872597 0.0459517086 0.0000308622 -0.0055688679
-0.3744187267 0.0000000000 0.1160749692 0.0459833340 0.0004127453 -0.0059685324
-0.0359489625 0.4043136111 -0.0871846903 0.0461173416 0.0000434736 -0.0056845348
-0.4454048158 0.2447109328 -0.0059685324 0.0459833340 0.0000000000 -0.0055557871
0.1446013502 0.3267884925 -0.0924201551 0.0462663728 -0.0000094960 -0.0061992227
0.1029317758 0.0000000000 -0.1022648251 0.0459833340 0.0004127453 -0.0059685324
-0.0371697338 0.1100238704 -0.0074146523 0.0463664367 -0.0000375020 -0.0059680577
0.2760366708 0.0000000000 -0.0103856232 0.0459833340 0.0004127453 -0.0059685324
0.4716152482 0.0000000000 0.0283616568 0.0459833340 0.0004127453 -0.0059685324
-0.1982223487 0.0000000000 0.1271330232 0.0459833340 0.0004127453 -0.0059685324
0.0815274173 0.2360012875 -0.0820413465 0.0459866384 -0.0001973731 -0.0063072497
-0.3430971454 0.0000000000 0.0613562688 0.0459833340 0.0004127453 -0.0059685324
0.3901384161 0.0000000000 0.1279803046 0.0459833340 0.0004127453 -0.0059685324
-0.0393538402 0.1784173273 0.0540182380 0.0463102972 -0.0000241278 -0.0059971129
-0.3844288073 0.0000000000 0.1114487155 0.0459833340 0.0004127453 -0.0059685324
0.2562724105 0.0000000000 0.1438149072 0.0459833340 0.0004127453 -0.0059685324
0.1378820343 0.0000000000 0.0189689375 0.0459833340 0.0004127453 -0.0059685324
-0.0816320272 0.0000000000 -0.0152628239 0.0459833340 0.0004127453 -0.0059685324
0.0973318433 0.1939107555 -0.0444116700 0.0460100617 0.0004108495 -0.0059974398
-0.0994499311 0.0000000000 0.1293269037 0.0459833340 0.0004127453 -0.0059685324
-0.4763385919 0.0666501662 -0.0059685324 0.0459833340 0.0000000000 -0.0055557871
-0.0510782718 0.1815165700 0.0604218606 0.0456269280 0.0000154231 -0.0059668496
-0.1650939742 0.0000000000 0.1017102172 0.0459833340 0.0004127453 -0.0059685324
-0.0176708960 0.0000000000 -0.1528295650 0.0459833340 0.0004127453 -0.0059685324
-0.1165761763 0.0000000000 0.1235777684 0.0459833340 0.0004127453 -0.0059685324
0.2056357159 0.0000000000 -0.1121666492 0.0459833340 0.0004127453 -0.0059685324
0.1462866555 0.1196961264 0.0320482059 0.0462931975 0.0002120706 -0.0059731180
0.4111824542 0.0000000000 -0.1539174423 0.0459833340 0.0004127453 -0.0059685324
-0.0467896851 0.2324025388 -0.0833995591 0.0457096475 -0.0000438682 -0.0062072931
0.0507320330 0.1866744119 -0.0308358645 0.0459809058 -0.0004115293 -0.0059373008
0.1452519390 0.1886245853 0.0479498635 0.0461691387 0.0002890018 -0.0059541305
0.1504078856 0.0923093860 0.0777978592 0.0463146582 0.0000037878 -0.0060738134
0.3590959365 0.0000000000 -0.0381145715 0.0459833340 0.0004127453 -0.0059685324
0.1062250534 0.0000000000 0.0477355740 0.0459833340 0.0004127453 -0.0059685324
0.1420602109 0.0000000000 -0.0892641240 0.0459833340 0.0004127453 -0.0059685324
-0.3705076731 0.0000000000 0.1014519493 0.0459833340 0.0004127453 -0.0059685324
0.1216516656 0.3847763805 -0.0902191769 0.0460098512 -0.0002734607 -0.0058354530
0.1172633501 0.1906201043 0.0731435669 0.0459975440 0.0002838796 -0.0056800850
0.1746113747 0.0000000000 -0.0701802859 0.0459833340 0.0004127453 -0.0059685324
-0.0254620361 0.1857402934 0.0749295392 0.0459737958 0.0001770553 -0.0062611333
-0.0510793553 0.1131753736 0.0625415511 0.0456752345 0.0001243218 -0.0059545246
0.1504078856 0.0199360651 0.0742226461 0.0462026577 -0.0000226436 -0.0062696540
0.3198225346 0.0000000000 -0.1028073470 0.0459833340 0.0004127453 -0.0059685324
0.2821551711 0.0000000000 -0.1128443133 0.0459833340 0.0004127453 -0.0059685324
0.1346768470 0.1893117216 0.0018942756 0.0463781001 0.0001161416 -0.0059853105
0.2655255225 0.0000000000 0.1491694985 0.0459833340 0.0004127453 -0.0059685324
-0.0633042760 0.0000000000 -0.1295517550 0.0459833340 0.0004127453 -0.0059685324
0.1482495696 0.1049792412 0.0702725324 0.0462277015 -0.0003065187 -0.0059409511
-0.1500850383 0.0000000000 -0.1101464357 0.0459833340 0.0004127453 -0.0059685324
0.3538757065 0.0000000000 -0.1382903081 0.0459833340 0.0004127453 -0.0059685324
0.3108801657 0.0000000000 -0.0475578954 0.0459833340 0.0004127453 -0.0059685324
-0.0233891209 0.1115811876 0.0864864066 0.0459648302 0.0000744320 -0.0056437811
0.1565351778 0.0000000000 0.0073094695 0.0459833340 0.0004127453 -0.0059685324
0.1450247896 0.2095780708 -0.0788669247 0.0462674323 -0.0000346945 -0.0061959959
-0.0484781958 0.0186163476 -0.0650987127 0.0457485649 -0.0000222858 -0.0057009195
0.1477875995 0.1776086652 0.0555891460 0.0463085438 -0.0000201189 -0.0060198044
0.0218777662 0.1867945777 0.0178287960 0.0460129323 -0.0004115215 -0.0059787978
-0.0434091932 0.0764379087 0.0728658129 0.0460437137 -0.0000114054 -0.0063289713
0.1228522078 0.0000000000 0.1551645958 0.0459833340 0.0004127453 -0.0059685324
0.0627396731 0.0000000000 0.0056880196 0.0459833340 0.0004127453 -0.0059685324
-0.1018038561 0.0000000000 -0.0754295120 0.0459833340 0.0004127453 -0.0059685324
0.1224457103 0.1196961264 -0.0725702105 0.0460060746 0.0002865785 -0.0059979219
-0.0434548602 0.2632172578 -0.0868745522 0.0458698620 -0.0000408234 -0.0062471953
0.2667333765 0.0000000000 -0.0160813770 0.0459833340 0.0004127453 -0.0059685324
0.0387115264 0.1886245853 0.0813380810 0.0459749536 0.0002817754 -0.0059225249
-0.4806046002 0.0768399284 -0.0059685324 0.0459833340 0.0000000000 -0.0055557871
0.3023663371 0.0000000000 -0.1466593961 0.0459833340 0.0004127453 -0.0059685324
0.1291601643 0.2537109411 -0.0827482268 0.0456298255 -0.0000286581 -0.0060943000
-0.3489123593 0.0000000000 -0.1298748668 0.0459833340 0.0004127453 -0.0059685324
-0.0179645085 0.1818793846 0.0726876048 0.0459996296 -0.0003430507 -0.0057475094
-0.2623262935 0.0000000000 -0.0364982701 0.0459833340 0.0004127453 -0.0059685324
0.1290453580 0.3342300498 -0.0859389033 0.0456283920 0.0000063344 -0.0059478047
-0.4465058055 0.0354873573 -0.0059685324 0.0459833340 0.0000000000 -0.0055557871
-0.3574517826 0.0000000000 -0.0135293421 0.0459833340 0.0004127453 -0.0059685324
-0.0060903985 0.0000000000 -0.1314251430 0.0459833340 0.0004127453 -0.0059685324
-0.2856246851 0.0000000000 0.0908370223 0.0459833340 0.0004127453 -0.0059685324
0.0078723020 0.0000000000 0.0692041095 0.0459833340 0.0004127453 -0.0059685324
0.1347235656 0.0251594394 0.0852597780 0.0457361821 -0.0000191217 -0.0057405810
-0.3367887733 0.0000000000 0.0986800768 0.0459833340 0.0004127453 -0.0059685324
-0.2410342405 0.0000000000 0.0718594314 0.0459833340 0.0004127453 -0.0059685324
0.3965553655 0.0000000000 0.0055601891 0.0459833340 0.0004127453 -0.0059685324
0.1569205015 0.0000000000 -0.1288663444 0.0459833340 0.0004127453 -0.0059685324
0.3766732066 0.0000000000 -0.1393077487 0.0459833340 0.0004127453 -0.0059685324
-0.0423452482 0.0000000000 -0.0855076229 0.0459833340 0.0004127453 -0.0059685324
0.4025656662 0.0000000000 0.0894099853 0.0459833340 0.0004127453 -0.0059685324
0.4856031910 0.0000000000 0.0862928377 0.0459833340 0.0004127453 -0.0059685324
0.0802875599 0.1853669360 -0.0360317623 0.0459619113 -0.0004111067 -0.0059394512
-0.1464902318 0.0000000000 -0.1308599614 0.0459833340 0.0004127453 -0.0059685324
0.0137626887 0.0000000000 0.0809060069 0.0459833340 0.0004127453 -0.0059685324
-0.3932274054 0.0981892238 -0.0059685324 0.0459833340 0.0000000000 -0.0055557871
0.0653215607 0.1976243039 -0.0134123032 0.0459964424 0.0004121138 -0.0059859094
0.1381144995 0.1196961264 -0.0048764526 0.0458865072 0.0002982683 -0.0059624176
-0.0246848261 0.1040118064 0.0783345238 0.0459690860 -0.0002977660 -0.0060298267
-0.0362461082 0.2176760425 -0.0656995348 0.0461600703 0.0000076535 -0.0056527757
0.1498607918 0.1350460608 0.0728658129 0.0462785166 0.0000120827 -0.0062127839
-0.0348735803 0.2714290592 -0.0718345041 0.0461943075 0.0000167286 -0.0056572820
-0.2652904058 0.0000000000 -0.1081278976 0.0459833340 0.0004127453 -0.0059685324
-0.0455195123 0.0000000000 -0.1474718876 0.0459833340 0.0004127453 -0.0059685324
-0.0045803101 0.1951107624 0.0047080418 0.0459461592 0.0004110547 -0.0059656353
0.1020615445 0.0000000000 0.1507757388 0.0459833340 0.0004127453 -0.0059685324
-0.0506287212 0.1081301897 0.0490632984 0.0456100587 -0.0000505555 -0.0059711987
0.0833425492 0.0000000000 -0.1315995345 0.0459833340 0.0004127453 -0.0059685324
0.0620162289 0.2361113761 -0.0730982847 0.0459939956 -0.0002648454 -0.0057748946
-0.3387506988 0.0000000000 -0.0177654982 0.0459833340 0.0004127453 -0.0059685324
0.1452013980 0.0000000000 0.0964193868 0.0459833340 0.0004127453 -0.0059685324
0.4327976698 0.0000000000 -0.0988706668 0.0459833340 0.0004127453 -0.0059685324
-0.2397163226 0.0000000000 -0.1050255188 0.0459833340 0.0004127453 -0.0059685324
0.2085733894 0.0000000000 0.0818046173 0.0459833340 0.0004127453 -0.0059685324
0.0357245901 0.3360135407 -0.0897939614 0.0459033691 -0.0000503330 -0.0063698723
0.3557614517 0.0000000000 -0.1195158906 0.0459833340 0.0004127453 -0.0059685324
-0.2122032380 0.0000000000 -0.1017732669 0.0459833340 0.0004127453 -0.0059685324
-0.3623124731 0.0000000000 -0.0729386430 0.0459833340 0.0004127453 -0.0059685324
-0.1603465848 0.0000000000 0.1244037373 0.0459833340 0.0004127453 -0.0059685324
-0.3292645361 0.0000000000 -0.1094611448 0.0459833340 0.0004127453 -0.0059685324
-0.0124957283 0.0000000000 0.0980546608 0.0459833340 0.0004127453 -0.0059685324
-0.0317028242 0.0000000000 0.0551757585 0.0459833340 0.0004127453 -0.0059685324
0.4224014718 0.0000000000 0.1423087172 0.0459833340 0.0004127453 -0.0059685324
-0.4724696594 0.2656094369 -0.0059685324 0.0459833340 0.0000000000 -0.0055557871
-0.0296252928 0.1867563360 0.0864864066 0.0459309256 0.0001264986 -0.0056140824
-0.1048755509 0.0000000000 -0.0213014621 0.0459833340 0.0004127453 -0.0059685324
0.0717549823 0.0000000000 0.1596521175 0.0459833340 0.0004127453 -0.0059685324
-0.2889766533 0.0000000000 -0.1327427212 0.0459833340 0.0004127453 -0.0059685324
-0.2541494577 0.0000000000 -0.0583590258 0.0459833340 0.0004127453 -0.0059685324
-0.0455768868 0.0000000000 0.1454002382 0.0459833340 0.0004127453 -0.0059685324
0.0088277990 0.1854485704 0.0312479989 0.0460170969 -0.0004109548 -0.0059863712
0.1151052421 0.1196961264 -0.0658189321 0.0459943501 0.0001793894 -0.0056433927
0.0182695735 0.1936769865 -0.0563628106 0.0459670305 0.0004109535 -0.0060032575
-0.0822161410 0.0000000000 0.1007189637 0.0459833340 0.0004127453 -0.0059685324
-0.0455973049 0.3532920088 -0.0973452363 0.0458404647 -0.0000347804 -0.0063031326
0.1201940457 0.2536837085 -0.0815682224 0.0460108228 0.0002806040 -0.0061335834
-0.1013387871 0.0000000000 0.0223892514 0.0459833340 0.0004127453 -0.0059685324
0.0890787422 0.3284536315 -0.0843538624 0.0460539493 0.0000455819 -0.0055710736
0.0543240304 0.1097360771 0.0749295392 0.0459792400 -0.0000586676 -0.0063397159
0.2992947810 0.0000000000 0.1625130060 0.0459833340 0.0004127453 -0.0059685324
0.4383609637 0.0000000000 0.0498113612 0.0459833340 0.0004127453 -0.0059685324
0.1251026258 0.0000000000 -0.1015274181 0.0459833340 0.0004127453 -0.0059685324
0.0381475790 0.1886245981 -0.0751047871 0.0459915592 0.0002595978 -0.0062050020
0.2713623761 0.0000000000 0.1440601513 0.0459833340 0.0004127453 -0.0059685324
-0.4113741401 0.1551094004 -0.0059685324 0.0459833340 0.0000000000 -0.0055557871
-0.0030074304 0.0000000000 -0.0631712369 0.0459833340 0.0004127453 -0.0059685324
-0.4302678670 0.0907121333 -0.0059685324 0.0459833340 0.0000000000 -0.0055557871
0.0244037399 0.0000000000 0.0966144799 0.0459833340 0.0004127453 -0.0059685324
-0.0499041246 0.1572559325 0.0703517485 0.0458039718 -0.0001565770 -0.0058818489
-0.1365031771 0.0000000000 -0.1298968344 0.0459833340 0.0004127453 -0.0059685324
-0.1194462979 0.0000000000 0.0071150661 0.0459833340 0.0004127453 -0.0059685324
-0.0050158191 0.1089325542 0.0864864066 0.0459661101 -0.0000284101 -0.0056010546
0.1262923541 0.1920442442 -0.0402638054 0.0460170924 0.0004109143 -0.0059872962
0.2474287939 0.0000000000 -0.0078785309 0.0459833340 0.0004127453 -0.0059685324
0.4961115686 0.0000000000 -0.1162885974 0.0459833340 0.0004127453 -0.0059685324
0.2330915011 0.0000000000 0.1185997340 0.0459833340 0.0004127453 -0.0059685324
-0.0534882683 0.1367012993 0.0841042853 0.0456150100 0.0000174088 -0.0058889753
0.1391306115 0.0767237493 0.0885501329 0.0458804601 -0.0000101601 -0.0056224897
0.1289567078 0.4051386484 -0.0885118793 0.0456246299 0.0000382834 -0.0058104646
0.0624683464 0.1839104116 0.0684142719 0.0459784789 -0.0004110163 -0.0060056918
-0.2504300397 0.0000000000 -0.1102470774 0.0459833340 0.0004127453 -0.0059685324
0.1216103762 0.0000000000 -0.1167683028 0.0459833340 0.0004127453 -0.0059685324
0.4740144308 0.0000000000 0.1359592318 0.0459833340 0.0004127453 -0.0059685324
-0.4343943117 0.1594007897 -0.0059685324 0.0459833340 0.0000000000 -0.0055557871
-0.0690422764 0.0000000000 -0.1454494507 0.0459833340 0.0004127453 -0.0059685324
0.1434267432 0.0000000000 0.1498521507 0.0459833340 0.0004127453 -0.0059685324
-0.4257579497 0.1189344974 -0.0059685324 0.0459833340 0.0000000000 -0.0055557871
-0.0378039607 0.0969907094 0.0764153619 0.0463028851 0.0000039425 -0.0061180064
-0.3220835143 0.0000000000 0.0444812122 0.0459833340 0.0004127453 -0.0059685324
0.1285456374 0.3746478226 -0.0994554353 0.0457610566 -0.0000330345 -0.0062946408
-0.1654139624 0.0000000000 -0.0098886173 0.0459833340 0.0004127453 -0.0059685324
-0.0939290096 0.0000000000 -0.0577434629 0.0459833340 0.0004127453 -0.0059685324
0.0554244898 0.1886245853 -0.0755083059 0.0460020693 0.0002434128 -0.0062367764
-0.2097195364 0.0000000000 -0.0649008926 0.0459833340 0.0004127453 -0.0059685324
0.2166885548 0.0000000000 -0.1410422413 0.0459833340 0.0004127453 -0.0059685324
-0.2305458654 0.0000000000 0.0471676778 0.0459833340 0.0004127453 -0.0059685324
-0.0272731058 0.0000000000 0.0002031509 0.0459833340 0.0004127453 -0.0059685324
-0.1359772191 0.0000000000 0.1472068804 0.0459833340 0.0004127453 -0.0059685324
-0.0117279903 0.1920916051 0.0695790415 0.0459618824 0.0004115400 -0.0059456287
0.2789582089 0.0000000000 -0.0492593107 0.0459833340 0.0004127453 -0.0059685324
-0.1524892465 0.0000000000 -0.0895475653 0.0459833340 0.0004127453 -0.0059685324
0.1539367771 0.0000000000 0.0965217294 0.0459833340 0.0004127453 -0.0059685324
-0.0403980663 0.0207878467 0.0885501329 0.0462406811 -0.0000143635 -0.0057335772
0.1358685280 0.1879015506 0.0229224614 0.0463863017 0.0000635958 -0.0059860443
0.1213175821 0.0000000000 0.0137066996 0.0459833340 0.0004127453 -0.0059685324
0.2147340987 0.0000000000 0.0163537840 0.0459833340 0.0004127453 -0.0059685324
0.4617606525 0.0000000000 -0.1554378914 0.0459833340 0.0004127453 -0.0059685324
0.1440245044 0.0244375463 -0.0785849198 0.0462868379 -0.0000122680 -0.0061966158
-0.0501571779 0.1113906986 0.0349599161 0.0456264971 0.0000292500 -0.0059734036
0.4280245465 0.0000000000 0.0161006993 0.0459833340 0.0004127453 -0.0059685324
-0.0394996953 0.1170661602 0.0622725134 0.0463559736 0.0000777484 -0.0059416193
-0.4681634443 0.2863027773 -0.0059685324 0.0459833340 0.0000000000 -0.0055557871
0.1296967910 0.2038880104 -0.0650363498 0.0457854358 0.0000256839 -0.0056406083
0.4365861896 0.0000000000 0.1066769407 0.0459833340 0.0004127453 -0.0059685324
-0.0378039545 0.0628880101 0.0810812044 0.0463249480 -0.0000023935 -0.0059865277
-0.0481392127 0.0570219836 -0.0779797895 0.0456679995 -0.0000054912 -0.0061942459
-0.3485832515 0.0000000000 -0.0210493978 0.0459833340 0.0004127453 -0.0059685324
-0.4130056226 0.1825090201 -0.0059685324 0.0459833340 0.0000000000 -0.0055557871
0.0901485321 0.3604918744 -0.0924966190 0.0460425402 -0.0000254358 -0.0063726909
0.1504078856 0.0738850236 0.0804234420 0.0463278128 0.0000004656 -0.0059990879
0.0103235280 0.1177755913 -0.0649911051 0.0459744938 0.0002266442 -0.0056745859
0.1317521472 0.1304257400 -0.0782619586 0.0457506600 0.0000088389 -0.0062329824
0.1211548548 0.1934938283 0.0234290690 0.0460181717 0.0004111166 -0.0059579773
0.0237750711 0.3449465133 -0.0861806016 0.0460856919 0.0000483923 -0.0055768462
-0.1078330004 0.0000000000 -0.1213342093 0.0459833340 0.0004127453 -0.0059685324
0.3896627664 0.0000000000 -0.1095438375 0.0459833340 0.0004127453 -0.0059685324
-0.2797306708 0.0000000000 -0.1313537616 0.0459833340 0.0004127453 -0.0059685324
0.0032114755 0.1952003702 -0.0207684268 0.0459523995 0.0004110262 -0.0059895973
0.1006353198 0.1152682468 0.0864864128 0.0459901463 0.0000453607 -0.0055947581
-0.2848677169 0.0000000000 -0.0975885463 0.0459833340 0.0004127453 -0.0059685324
-0.0320730831 0.3214679733 -0.0892522019 0.0462769366 -0.0000054874 -0.0061016308
0.1565555831 0.0000000000 0.0513432722 0.0459833340 0.0004127453 -0.0059685324
0.2047658622 0.0000000000 0.1327068978 0.0459833340 0.0004127453 -0.0059685324
-0.1766698109 0.0000000000 -0.0011231812 0.0459833340 0.0004127453 -0.0059685324
-0.1645476608 0.0000000000 0.0714082810 0.0459833340 0.0004127453 -0.0059685324
-0.4121089897 0.2578935389 -0.0059685324 0.0459833340 0.0000000000 -0.0055557871
0.1455781374 0.0000000000 -0.1056719196 0.0459833340 0.0004127453 -0.0059685324
0.1190685943 0.1752865575 -0.0649911051 0.0459453808 -0.0000127819 -0.0056355213
0.1855107818 0.0000000000 -0.1176001294 0.0459833340 0.0004127453 -0.0059685324
0.1214070958 0.0000000000 0.1367195635 0.0459833340 0.0004127453 -0.0059685324
0.0781978038 0.1196961264 0.0786979307 0.0459990526 0.0003405004 -0.0060490057
-0.0534882745 0.1342299037 0.0740742212 0.0457301044 0.0000073522 -0.0062402323
-0.3858489795 0.0000000000 0.0648373459 0.0459833340 0.0004127453 -0.0059685324
0.1175444044 0.0000000000 0.0578831648 0.0459833340 0.0004127453 -0.0059685324
0.1195878261 0.1813280833 0.0693862098 0.0459609025 -0.0004117984 -0.0059826664
-0.3696969201 0.0000000000 -0.1094287732 0.0459833340 0.0004127453 -0.0059685324
0.0841311176 0.1843792849 0.0552558311 0.0459610461 -0.0004110361 -0.0059983524
-0.0470823153 0.1759350112 -0.0575449882 0.0456671038 0.0000702290 -0.0059396365
0.4412576124 0.0000000000 -0.0661691069 0.0459833340 0.0004127453 -0.0059685324
0.1794326142 0.0000000000 0.0711201857 0.0459833340 0.0004127453 -0.0059685324
0.1475754010 0.1572559453 0.0702448970 0.0462331196 -0.0001336911 -0.0058683814
-0.0506839610 0.1618437055 0.0621345809 0.0456741593 -0.0001772745 -0.0060998935
-0.4186006084 0.2211714286 -0.0059685324 0.0459833340 0.0000000000 -0.0055557871
0.0731762537 0.1800114127 0.0749295454 0.0459803531 -0.0002363090 -0.0062473794
0.0424282996 0.1853294505 0.0540823451 0.0459893584 -0.0004107430 -0.0060084205
-0.0299608625 0.1920246199 0.0420621469 0.0459526823 0.0004113667 -0.0059548561
-0.1802547796 0.0000000000 -0.1400732950 0.0459833340 0.0004127453 -0.0059685324
0.0387654371 0.1983080016 0.0055164207 0.0459710969 0.0004123680 -0.0059704558
-0.4597987022 0.0592128854 -0.0059685324 0.0459833340 0.0000000000 -0.0055557871
-0.1357841983 0.0000000000 0.1145526309 0.0459833340 0.0004127453 -0.0059685324
0.0364461307 0.1840240024 0.0659771692 0.0459926909 -0.0004105689 -0.0060096352
-0.3067080479 0.0000000000 0.0738561221 0.0459833340 0.0004127453 -0.0059685324
-0.0020821480 0.1953342153 -0.0025170752 0.0459461811 0.0004110249 -0.0059701788
-0.0387078802 0.1040118064 -0.0468686996 0.0461994734 -0.0002143584 -0.0059825575
-0.4221245618 0.2106175669 -0.0059685324 0.0459833340 0.0000000000 -0.0055557871
0.1384301485 0.1040118064 -0.0237986543 0.0459838144 -0.0003087718 -0.0059734845
-0.3782318342 0.0000000000 -0.0309110844 0.0459833340 0.0004127453 -0.0059685324
-0.0450089212 0.0000000000 -0.0344593643 0.0459833340 0.0004127453 -0.0059685324
-0.0476242700 0.3663813039 -0.0963800876 0.0457363749 -0.0000217645 -0.0062143445
-0.0330609109 0.1909707136 0.0677524724 0.0459606970 0.0004113333 -0.0059441738
0.4926975024 0.0000000000 0.0053854641 0.0459833340 0.0004127453 -0.0059685324
0.3675329796 0.0000000000 0.1208564811 0.0459833340 0.0004127453 -0.0059685324
0.1301863531 0.1196961136 -0.0709897668 0.0460048912 0.0002505933 -0.0059064023
0.2868329424 0.0000000000 0.0751391490 0.0459833340 0.0004127453 -0.0059685324
0.0775602457 0.2364503849 -0.0707252136 0.0459976447 -0.0002275114 -0.0056579395
0.1259884258 0.0000000000 0.0764132709 0.0459833340 0.0004127453 -0.0059685324
-0.0112450792 0.1936326234 0.0377958773 0.0459483035 0.0004108446 -0.0059505693
0.0021466076 0.0000000000 0.0769676770 0.0459833340 0.0004127453 -0.0059685324
0.0337343171 0.1868935693 0.0336112198 0.0459984206 -0.0004115916 -0.0059949295
0.2016406220 0.0000000000 0.1063317854 0.0459833340 0.0004127453 -0.0059685324
-0.0532749805 0.0000000000 0.1068443159 0.0459833340 0.0004127453 -0.0059685324
0.0217782199 0.3555102628 -0.0873506362 0.0460788862 0.0000507058 -0.0055770377
0.3148273948 0.0000000000 -0.0354215560 0.0459833340 0.0004127453 -0.0059685324
-0.3702449967 0.0000000000 0.0797245854 0.0459833340 0.0004127453 -0.0059685324
-0.0108248455 0.1822839047 -0.0469486529 0.0460105310 -0.0004112936 -0.0059473866
-0.1547712737 0.0000000000 0.0811341076 0.0459833340 0.0004127453 -0.0059685324
-0.2099913576 0.0000000000 -0.0167890796 0.0459833340 0.0004127453 -0.0059685324
0.0988629516 0.1834024406 0.0552369245 0.0459555133 -0.0004110274 -0.0059937837
-0.4643108866 0.1105958540 -0.0059685324 0.0459833340 0.0000000000 -0.0055557871
0.1042842071 0.2437411428 -0.0829013371 0.0459961183 0.0000147536 -0.0063245050
0.3998466461 0.0000000000 -0.0152559179 0.0459833340 0.0004127453 -0.0059685324
0.3827382241 0.0000000000 0.0218321246 0.0459833340 0.0004127453 -0.0059685324
-0.4663417625 0.1787066824 -0.0059685324 0.0459833340 0.0000000000 -0.0055557871
0.2571988449 0.0000000000 -0.0437297046 0.0459833340 0.0004127453 -0.0059685324
-0.3144177736 0.0000000000 0.0792793299 0.0459833340 0.0004127453 -0.0059685324
0.1482811541 0.1854981106 0.0707735568 0.0462856918 0.0002247819 -0.0059659234
0.1337582217 0.1913733318 0.0139606836 0.0462995699 0.0002641995 -0.0059799555
0.4724598340 0.0000000000 -0.0410094690 0.0459833340 0.0004127453 -0.0059685324
0.1289489424 0.1928860341 0.0219657112 0.0460168291 0.0004112800 -0.0059598792
0.1444057848 0.1078326854 -0.0351113548 0.0463625045 -0.0000651886 -0.0060046162
-0.0312927556 0.1818497334 0.0324130583 0.0460159442 -0.0004112879 -0.0059799580
-0.2783516368 0.0000000000 0.0499517623 0.0459833340 0.0004127453 -0.0059685324
0.1191637948 0.3957029198 -0.1001827840 0.0460049593 0.0001101918 -0.0063011073
0.4567378522 0.0000000000 0.1508969501 0.0459833340 0.0004127453 -0.0059685324
0.0297959365 0.1875102057 -0.0028932822 0.0460043869 -0.0004120217 -0.0059582253
-0.2921352983 0.0000000000 -0.0837832892 0.0459833340 0.0004127453 -0.0059685324
0.3352362926 0.0000000000 -0.1101426632 0.0459833340 0.0004127453 -0.0059685324
0.3755950404 0.0000000000 0.0647654981 0.0459833340 0.0004127453 -0.0059685324
0.3943105088 0.0000000000 -0.1495714621 0.0459833340 0.0004127453 -0.0059685324
-0.1546864146 0.0000000000 -0.0139411079 0.0459833340 0.0004127453 -0.0059685324
0.1450539934 0.1763935935 -0.0781636468 0.0461778740 0.0000133337 -0.0063130649
-0.0325776786 0.1191206158 0.0864864066 0.0459683022 0.0003175286 -0.0057265431
0.0960427668 0.0000000000 0.1594937608 0.0459833340 0.0004127453 -0.0059685324
0.2120368447 0.0000000000 -0.1577098543 0.0459833340 0.0004127453 -0.0059685324
-0.0647594524 0.0000000000 -0.0117014126 0.0459833340 0.0004127453 -0.0059685324
-0.4885321106 0.0254614170 -0.0059685324 0.0459833340 0.0000000000 -0.0055557871
0.0517453330 0.1092980896 -0.0765479724 0.0459791042 -0.0000751444 -0.0063330649
0.1298656467 0.1259949885 -0.0625171401 0.0457478157 0.0000047874 -0.0056547746
-0.0503584239 0.0000000000 -0.0513583218 0.0459833340 0.0004127453 -0.0059685324
0.1350942401 0.1769867382 0.0885501329 0.0456414463 0.0000255737 -0.0057668490
-0.1768107601 0.0000000000 0.1192905230 0.0459833340 0.0004127453 -0.0059685324
0.4010020006 0.0000000000 0.1423612927 0.0459833340 0.0004127453 -0.0059685324
0.1431937109 0.2397851970 -0.0842406811 0.0462156204 -0.0000364285 -0.0062739915
0.1350641485 0.0492306044 -0.0783491230 0.0459436498 -0.0000169572 -0.0063165675
0.4153153229 0.0000000000 0.1154407993 0.0459833340 0.0004127453 -0.0059685324
-0.2625950918 0.0000000000 -0.0945460491 0.0459833340 0.0004127453 -0.0059685324
0.4640925225 0.0000000000 0.1016764852 0.0459833340 0.0004127453 -0.0059685324
0.0014068455 0.2831537810 -0.0802619616 0.0458523138 0.0000162110 -0.0057426732
-0.2687716591 0.0000000000 0.0701524107 0.0459833340 0.0004127453 -0.0059685324
-0.2187419654 0.0000000000 -0.0634429830 0.0459833340 0.0004127453 -0.0059685324
0.3227841279 0.0000000000 -0.0299988832 0.0459833340 0.0004127453 -0.0059685324
-0.3349478951 0.0000000000 -0.0635577386 0.0459833340 0.0004127453 -0.0059685324
0.2418956039 0.0000000000 -0.0390775471 0.0459833340 0.0004127453 -0.0059685324
-0.1500845971 0.0000000000 0.0415429591 0.0459833340 0.0004127453 -0.0059685324
0.3493178241 0.0000000000 0.1231310137 0.0459833340 0.0004127453 -0.0059685324
0.2039316430 0.0000000000 -0.0066333045 0.0459833340 0.0004127453 -0.0059685324
0.2386021064 0.0000000000 0.0105692792 0.0459833340 0.0004127453 -0.0059685324
-0.3526812296 0.0000000000 -0.0705597023 0.0459833340 0.0004127453 -0.0059685324
0.0798873571 0.1965632811 -0.0226617170 0.0460052425 0.0004115211 -0.0059906205
-0.2571458666 0.0000000000 0.1462479229 0.0459833340 0.0004127453 -0.0059685324
-0.4998090451 0.2624144901 -0.0059685324 0.0459833340 0.0000000000 -0.0055557871
-0.0102800692 0.1835855109 -0.0246628113 0.0460149738 -0.0004110410 -0.0059485481
0.0116789318 0.1754887734 -0.0765479724 0.0460359871 -0.0002221911 -0.0063020157
-0.1810938487 0.0000000000 0.0487295612 0.0459833340 0.0004127453 -0.0059685324
-0.0326999602 0.0309353318 -0.0682543661 0.0463140465 -0.0000108800 -0.0059477391
0.0713327319 0.2400861151 -0.0824952177 0.0459829097 -0.0001135995 -0.0063394963
-0.3328517217 0.0000000000 -0.0366579716 0.0459833340 0.0004127453 -0.0059685324
0.0534658756 0.1877524517 -0.0104084728 0.0459782300 -0.0004124085 -0.0059535613
-0.0125414704 0.0000000000 -0.1202286848 0.0459833340 0.0004127453 -0.0059685324
0.1643526494 0.0000000000 -0.0872361893 0.0459833340 0.0004127453 -0.0059685324
0.0847328532 0.0000000000 0.1471144638 0.0459833340 0.0004127453 -0.0059685324
0.0027685314 0.1886245981 -0.0705894539 0.0459566880 0.0002663969 -0.0059345214
-0.1338313416 0.0000000000 0.0160365888 0.0459833340 0.0004127453 -0.0059685324
0.3321244294 0.0000000000 0.1327396347 0.0459833340 0.0004127453 -0.0059685324
0.1088143596 0.0000000000 0.1603867277 0.0459833340 0.0004127453 -0.0059685324
0.0083778988 0.1860419924 0.0009256293 0.0460186489 -0.0004111529 -0.0059683392
0.1408804458 0.0651462748 0.0728658129 0.0458945149 -0.0000107372 -0.0062881289
-0.4315319497 0.1131472970 -0.0059685324 0.0459833340 0.0000000000 -0.0055557871
-0.1218274934 0.0000000000 0.0520597699 0.0459833340 0.0004127453 -0.0059685324
0.3399642966 0.0000000000 0.1238591248 0.0459833340 0.0004127453 -0.0059685324
0.0041145890 0.3669070097 -0.0886129428 0.0459506346 0.0000554527 -0.0055621120
0.0641464526 0.1187510999 0.0749295392 0.0459899536 0.0002303948 -0.0062726187
0.0928550505 0.0000000000 -0.0681295585 0.0459833340 0.0004127453 -0.0059685324
0.1347235656 0.0811026179 0.0834019456 0.0456602816 0.0000004367 -0.0058600481
-0.3238727993 0.0000000000 0.0645199270 0.0459833340 0.0004127453 -0.0059685324
-0.1890378849 0.0000000000 0.1207253193 0.0459833340 0.0004127453 -0.0059685324
0.2322422042 0.0000000000 0.1341740533 0.0459833340 0.0004127453 -0.0059685324
-0.0318044359 0.3753943868 -0.0982864395 0.0462807322 -0.0000004590 -0.0062060578
0.1452295497 0.0432180522 -0.0714923531 0.0463106141 -0.0000083073 -0.0059524696
-0.2194391532 0.0000000000 -0.0012372281 0.0459833340 0.0004127453 -0.0059685324
-0.0327163288 0.0132510699 -0.0676326533 0.0463041770 -0.0000158998 -0.0059431634
-0.0370173479 0.1810241046 0.0658661671 0.0458278759 -0.0003764728 -0.0059820601
0.2134361709 0.0000000000 0.0332393957 0.0459833340 0.0004127453 -0.0059685324
0.2065522378 0.0000000000 0.0897937600 0.0459833340 0.0004127453 -0.0059685324
0.1468323072 0.1550990719 0.0885501329 0.0460761666 0.0000073130 -0.0056073906
0.2151826294 0.0000000000 -0.0931960869 0.0459833340 0.0004127453 -0.0059685324
0.1170349913 0.1781714285 -0.0765479724 0.0459736258 -0.0000325318 -0.0063277396
-0.4304617945 0.2995805588 -0.0059685324 0.0459833340 0.0000000000 -0.0055557871
0.2444859936 0.0000000000 0.0027279439 0.0459833340 0.0004127453 -0.0059685324
0.0301352156 0.1840543210 -0.0531002426 0.0459987446 -0.0004105891 -0.0059294780
-0.4698629452 0.2267103623 -0.0059685324 0.0459833340 0.0000000000 -0.0055557871
-0.0939694553 0.0000000000 -0.1267405321 0.0459833340 0.0004127453 -0.0059685324
0.0165733948 0.1849166293 -0.0361155855 0.0460089882 -0.0004108359 -0.0059384515
0.0572244145 0.1953256875 -0.0475094416 0.0459842230 0.0004107872 -0.0060085889
0.2251862352 0.0000000000 0.0583336478 0.0459833340 0.0004127453 -0.0059685324
0.3944085308 0.0000000000 0.0718179150 0.0459833340 0.0004127453 -0.0059685324
-0.0378039545 0.1011523348 0.0885452204 0.0462544639 0.0000009291 -0.0056863962
0.3891297042 0.0000000000 0.0960398320 0.0459833340 0.0004127453 -0.0059685324
-0.3545957943 0.0000000000 0.0474220725 0.0459833340 0.0004127453 -0.0059685324
0.1295041041 0.0942899347 -0.0726422408 0.0456407145 0.0000050202 -0.0060409031
-0.1318259853 0.0000000000 -0.0374390771 0.0459833340 0.0004127453 -0.0059685324
-0.0453460528 0.1040118064 -0.0362516441 0.0458515514 -0.0003381837 -0.0059812821
-0.1908359114 0.0000000000 -0.0387011506 0.0459833340 0.0004127453 -0.0059685324
0.2605022933 0.0000000000 -0.0537227800 0.0459833340 0.0004127453 -0.0059685324
