-0.0239295792 0.4086467035 0.0858763828 0.2405854138 0.0000933460 -0.0611071770
-0.1094899792 1.3668469960 -0.5095723899 0.2417295330 -0.0000194422 -0.0643291728
-0.1637274471 1.4278742104 -0.5204704210 0.2399357050 0.0000123872 -0.0623264944
0.0691353422 0.1522994418 -0.0781959870 0.2405587672 0.0001269473 -0.0632614350
0.3677661376 0.7961875275 0.2777388151 0.2423013273 -0.0016922220 -0.0621537208
-0.0541189290 0.7691766387 -0.1336028679 0.2413086290 0.0009531048 -0.0637570449
0.4242065536 1.3643816690 -0.4840183099 0.2428747988 0.0001924965 -0.0638865845
-0.1276735856 0.8812429183 -0.2392738405 0.2415530824 0.0017559354 -0.0629535963
-0.0606070315 0.7740013661 0.0275786188 0.2417346209 -0.0018228718 -0.0624927307
0.2016745257 0.9122143859 0.0949335821 0.2419395246 0.0018107963 -0.0625078433
-0.0270346031 0.7733930191 -0.0500103565 0.2417345279 -0.0018225090 -0.0624837543
-0.0847116475 1.1295865740 -0.4267876675 0.2416099851 -0.0015101694 -0.0615225646
-0.0572273473 1.3318379520 -0.5328033413 0.2408947910 0.0006089997 -0.0626814955
0.4197508679 0.8256814353 0.2265657313 0.2433846371 0.0002585287 -0.0619838312
0.0632106356 0.1744024166 -0.0483415562 0.2412227007 0.0012454955 -0.0627630906
0.2320052518 0.7765923133 0.0971057783 0.2417560629 -0.0018227588 -0.0624891486
0.2431506714 1.2074530498 -0.3884436116 0.2420440164 -0.0005836784 -0.0608082054
0.2384835831 1.6291366545 -0.4818689230 0.2423678918 0.0011717812 -0.0637522814
0.2242943720 0.7765923133 -0.1618241396 0.2417702220 -0.0018223431 -0.0625437707
-0.2371567915 1.5719031738 -0.4216635218 0.2413255081 0.0006379815 -0.0608518003
-0.1410383911 1.2407582721 -0.5049818506 0.2417136948 -0.0000922340 -0.0643266261
0.0001688879 0.5402313128 0.0888015035 0.2415937350 0.0001318657 -0.0607024412
0.1152747680 1.3771342299 -0.5740310577 0.2417424361 0.0002498987 -0.0643099859
0.2974080772 1.2000482785 -0.4043909621 0.2422092647 -0.0007983260 -0.0609413946
0.0546933959 0.1619243774 0.0282571143 0.2432649635 0.0005476343 -0.0631723803
-0.0521212255 0.1543778398 -0.0371294792 0.2428878295 0.0004779324 -0.0632532279
-0.2518901715 0.8860291479 0.3071337803 0.2413654023 0.0017439638 -0.0621419443
-0.1415588939 1.5113607462 -0.5073151313 0.2417151624 0.0000342248 -0.0643288338
0.3054464329 0.8893920605 -0.0365217939 0.2421714176 0.0017598566 -0.0627031089
0.0790932428 0.9208702911 0.0732779664 0.2418078248 0.0018208064 -0.0625460057
0.2545209253 0.1276090656 -0.3157332713 0.2411867168 -0.0014074387 -0.0629273727
0.1630202941 1.3690549628 -0.5036691580 0.2420514615 -0.0000523635 -0.0607132132
0.1724402641 0.7784092367 0.1992991504 0.2417636210 -0.0018225364 -0.0624727581
0.0201005161 0.7127878370 0.1564382696 0.2421430848 -0.0016606315 -0.0625063885
0.1462612570 1.4471672263 -0.5516352146 0.2418351349 0.0014817454 -0.0633530820
0.0037313283 1.1182529913 -0.4671979092 0.2417435900 -0.0017013333 -0.0630501526
-0.3974699641 0.7968734846 -0.0785270814 0.2407480606 -0.0014448737 -0.0628262151
0.0182351523 1.3187594921 -0.3617950324 0.2417560483 0.0000222368 -0.0606845832
-0.1350858949 0.7886683766 0.4118689755 0.2416459891 -0.0017943712 -0.0622008651
-0.1490972117 1.2276988387 -0.3721380406 0.2415934671 -0.0003018574 -0.0607182556
-0.0156101718 1.1398577858 -0.5620047309 0.2416855024 -0.0003687756 -0.0641946091
0.0576207843 1.0369077757 -0.5320038377 0.2429262180 -0.0002047779 -0.0624451799
-0.0518962745 0.1295159059 -0.0368228528 0.2431262251 -0.0006998920 -0.0633479922
-0.4046252196 0.8590454635 0.0648050817 0.2407782147 0.0015413279 -0.0625623579
0.2373827489 0.8904587703 -0.1239379323 0.2420368338 0.0017743603 -0.0627960429
0.3541461577 0.8764520146 0.2020564688 0.2423916545 0.0016863319 -0.0622813080
0.0474944398 0.7747693266 -0.3067243192 0.2423972638 0.0011491397 -0.0615251532
0.1545280840 1.3015069889 -0.3673406835 0.2418842043 -0.0000151745 -0.0606905717
0.3468193647 0.8720006403 -0.0666550942 0.2423684715 0.0016869262 -0.0627836119
-0.1071851261 0.8010830779 0.4603806811 0.2415775068 -0.0016080711 -0.0617180835
-0.0385262114 1.5049484708 -0.5086095758 0.2417319685 0.0000413800 -0.0643288046
-0.1322675211 0.7749720537 -0.0121883165 0.2417099796 -0.0018226640 -0.0625030999
-0.0203935922 1.5086214827 -0.3823101694 0.2417167739 0.0003453320 -0.0607175683
0.0605622754 0.8109521170 0.4848326690 0.2418766917 -0.0012965792 -0.0612399506
-0.0402230511 1.5112731790 -0.3833698971 0.2416949582 0.0003510088 -0.0607191616
-0.4206796632 1.4060412090 -0.4562520065 0.2401969134 0.0005022930 -0.0619357664
0.0143649078 0.6333927286 0.0781492037 0.2425103491 0.0001385233 -0.0608646560
0.0165618602 0.7802382866 -0.0726214870 0.2418351058 0.0016730004 -0.0629719866
0.0884407362 1.4502464094 -0.5206811036 0.2417424361 0.0017902440 -0.0622726051
0.0576207843 1.2029582264 -0.5296924474 0.2427399324 -0.0000544034 -0.0624678889
-0.0201549814 0.8990857447 -0.5366596089 0.2417803815 -0.0008026355 -0.0639962481
0.1087044105 1.4139120741 -0.5666047569 0.2417424361 0.0004064403 -0.0642818736
-0.0088125809 1.6709895751 -0.4892175043 0.2417148561 0.0009950353 -0.0639809751
-0.1686475039 1.3937226975 -0.3722548977 0.2415744132 0.0001741809 -0.0606997030
-0.1370254324 0.7770374902 -0.1967588295 0.2417233840 -0.0018221809 -0.0625475516
0.0284529979 0.6048189934 0.0494264265 0.2435409236 0.0001246577 -0.0626219240
-0.0393345620 1.5519404472 -0.3922295575 0.2416959353 0.0004378340 -0.0607395626
0.0691877057 1.4553118075 -0.3746366352 0.2418041715 0.0002734097 -0.0607056715
0.0878228750 0.9032217896 -0.1434850525 0.2418447530 0.0018011436 -0.0627625528
0.0451371540 0.8900395180 0.3972665553 0.2418086670 0.0017426403 -0.0619921751
0.0576207843 0.8464743208 -0.4758361770 0.2429296670 0.0001172691 -0.0627242427
-0.2423150398 0.7779585524 0.1954897281 0.2417197563 -0.0018222575 -0.0624622376
-0.0036866833 0.9187977340 0.2291228237 0.2417362981 0.0018174521 -0.0623677194
-0.3798659144 0.7898223180 -0.0915271274 0.2411342294 -0.0016944989 -0.0627409996
-0.0215409708 0.7293700718 -0.3365976161 0.2410937026 -0.0014867094 -0.0628500033
0.3068079907 0.8325715993 -0.2493851344 0.2427142247 0.0012296063 -0.0634232141
-0.0133329406 0.7476793275 -0.0333386021 0.2416858907 -0.0000634819 -0.0607147445
-0.2596285730 0.9040025457 0.1312699901 0.2414445254 0.0017965880 -0.0624584987
-0.4153559060 1.2698628592 -0.4361331430 0.2405589294 -0.0002887192 -0.0611912951
0.2294748461 0.1364545249 -0.2982481095 0.2407029071 -0.0006242180 -0.0632894196
0.3610058906 1.4283603335 -0.4175610216 0.2424551473 0.0003830168 -0.0608805488
-0.0194336147 1.2219264554 -0.5620047309 0.2418083206 0.0005337741 -0.0640777064
0.1135738266 0.1687916210 -0.0777643329 0.2427431719 0.0011286311 -0.0617597370
0.0589306659 0.1550407926 0.0539665638 0.2420033984 0.0000877331 -0.0637616589
-0.0235004518 0.3844264263 0.0864725615 0.2405921552 0.0000607820 -0.0611035948
-0.0310842221 0.5170617231 0.0572714636 0.2399398432 0.0000870822 -0.0622817273
0.0386429573 0.9192749554 0.0186288754 0.2417728726 0.0018195868 -0.0625983764
0.2988900159 1.1597980385 -0.4514315886 0.2422865793 -0.0016742054 -0.0622184423
0.2923552249 0.7765923133 0.0684989959 0.2417789359 -0.0018223140 -0.0624954816
-0.0598807409 1.1647568411 -0.3907300507 0.2416689442 -0.0010424293 -0.0610193473
0.1843466530 0.7914191012 0.4076563213 0.2418962670 -0.0017686489 -0.0621227118
-0.1760336643 0.9126584509 0.0136491595 0.2415803270 0.0018118664 -0.0626084302
0.1506021856 0.1579671511 0.1204313628 0.2412699690 0.0006439318 -0.0612198376
-0.0078889319 0.7715297535 -0.1024396039 0.2417395813 -0.0018228262 -0.0625202542
-0.2663535634 0.8925225917 0.2572037346 0.2413629796 0.0017610671 -0.0622428776
-0.1870115568 0.7779749083 0.1930156108 0.2417249737 -0.0018225637 -0.0624724227
0.1704475756 0.1276090656 0.1040945111 0.2418095493 -0.0012671106 -0.0628964512
0.0035545824 0.1294320668 0.1074634178 0.2417660693 -0.0017778768 -0.0621363532
-0.3756548189 1.4138732409 -0.4223868082 0.2409403748 0.0003623514 -0.0609193274
0.0717732003 0.8960949637 -0.1955751934 0.2418325317 0.0017896132 -0.0628375906
-0.2321295576 0.9063600557 0.1676963861 0.2414878432 0.0018019129 -0.0624164843
0.0982972860 1.6285699755 -0.4208794826 0.2419138205 0.0007776588 -0.0608715396
-0.0266054502 0.1294320522 0.0437632656 0.2415282479 -0.0017720652 -0.0626088440
-0.3876645127 0.7858218504 0.1401201236 0.2413188013 -0.0017590618 -0.0624026588
0.2873677485 0.8945071934 -0.0236354531 0.2421194935 0.0017734525 -0.0626772644
0.4185862019 0.7956819349 0.0042198012 0.2427505550 -0.0014630872 -0.0626708949
-0.0315409422 0.4307277460 0.0311304822 0.2403137705 0.0000877877 -0.0636093629
-0.3247433774 0.8534560570 -0.1790035702 0.2410060625 0.0015712340 -0.0630459689
0.3373396938 0.7793611748 -0.0624843887 0.2419427185 -0.0018085832 -0.0625742747
0.0850147774 0.9097399914 -0.0925187756 0.2418311809 0.0018101984 -0.0626996871
0.0573851779 1.5235355024 -0.3858555029 0.2418044759 0.0003697199 -0.0607229680
-0.0496756215 1.2943205221 -0.5610804420 0.2413260641 -0.0006424898 -0.0641103032
0.2283855532 0.9010727381 -0.0544744060 0.2419959770 0.0017942527 -0.0626962836
-0.1043272227 0.7736483739 0.0482660590 0.2417328234 -0.0018228189 -0.0624901166
-0.0449877220 0.7802382300 -0.1850651339 0.2408373013 0.0013534546 -0.0630398911
-0.0535813740 1.2782651323 -0.5286344735 0.2412027901 0.0011241119 -0.0620613392
-0.1757518269 0.7765923133 -0.1142600535 0.2417199732 -0.0018227369 -0.0625222540
-0.2911901432 0.7766975707 0.0943045952 0.2417009832 -0.0018221353 -0.0624855245
0.0066367971 0.1750246749 0.1638614129 0.2420779203 0.0012872109 -0.0625984020
0.3454967916 0.7871494805 0.2531336963 0.2420599347 -0.0017791292 -0.0623002015
0.1863914934 0.9095486143 -0.0291158176 0.2419189905 0.0018070392 -0.0626618838
0.2112586028 0.9087114460 0.1815404421 0.2419666197 0.0018051032 -0.0624056266
0.0997643874 1.6739132081 -0.4782368025 0.2420044120 0.0014472345 -0.0634234511
-0.0369356884 1.2969025676 -0.5036691580 0.2417424361 0.0000000000 -0.0606834019
0.0098348115 0.7747693266 0.0547390435 0.2428359874 0.0007048341 -0.0624006280
-0.2615598778 1.4275681182 -0.3897666241 0.2414008302 0.0002771614 -0.0607406364
0.4711804770 0.0853335147 0.1801730909 0.2424967715 -0.0000244663 -0.0641092295
0.1756839334 0.1722707929 0.1002065473 0.2419136619 0.0012244290 -0.0632885738
0.0750931507 0.8992634932 0.3593551871 0.2418362415 0.0017791730 -0.0621272748
0.3034067351 0.0506825400 -0.3238889490 0.2428038135 -0.0007436801 -0.0613068196
0.3107517543 0.8864884548 0.2319475415 0.2422193421 0.0017396032 -0.0622661590
-0.1932532334 0.1276090656 -0.2177619527 0.2421862713 -0.0013961070 -0.0627868022
-0.3814110687 0.8648795440 -0.0078549387 0.2409265985 0.0016072088 -0.0627019622
0.1486604642 1.6129987053 -0.5019687034 0.2418490133 0.0003036403 -0.0643002639
0.3111563115 0.8175733521 0.3905370037 0.2427563320 -0.0006393943 -0.0613575041
0.0858374949 0.8477820329 -0.3441886747 0.2419233529 0.0015681058 -0.0634175519
-0.1398690655 0.7765923133 -0.1679189455 0.2417286834 -0.0018227023 -0.0625313616
-0.2493820062 0.7800417905 0.2562968862 0.2416869535 -0.0018201756 -0.0624262318
0.0358013842 1.2667673203 -0.5736941424 0.2417424361 -0.0001916907 -0.0643186834
0.0285959893 0.7127877805 0.1237456929 0.2423223008 -0.0015880073 -0.0625063885
-0.0572273747 0.9867640705 -0.5093420136 0.2411047918 -0.0001277640 -0.0610580548
0.3943265245 0.8572510722 0.2026704634 0.2426608458 0.0015517572 -0.0622538119
0.1290942409 0.1276090656 0.0778034852 0.2420686905 -0.0012527109 -0.0636670149
0.2120647712 0.8057752323 -0.3254336586 0.2423738092 -0.0009662577 -0.0637389043
-0.0245250487 0.7760319764 0.1083221977 0.2417366936 -0.0018228554 -0.0624971059
-0.0572273747 0.8847883630 -0.5098612093 0.2406863361 -0.0000164160 -0.0627391712
0.0726126346 1.6626152301 -0.4922542956 0.2418627240 0.0008179304 -0.0641011117
0.4232423213 0.7961372915 0.0760207501 0.2427338272 -0.0014766484 -0.0624874222
0.0228927993 0.4108898029 0.0194823923 0.2427560750 0.0000459411 -0.0640183153
-0.0523289056 0.7127877805 0.0188400375 0.2406652624 -0.0013958044 -0.0625063885
0.1450042403 1.3076395397 -0.5773520216 0.2420948011 -0.0002123087 -0.0642724597
-0.1365406456 1.1468102595 -0.4147395323 0.2415529020 -0.0013573940 -0.0613171833
0.3683138886 0.7842843726 0.1770486230 0.2420337675 -0.0017896296 -0.0623827372
0.0716807238 1.1359073883 -0.4869756846 0.2418122893 -0.0010880022 -0.0639514227
0.0430368911 0.3694359670 0.0508515737 0.2435525542 0.0000511311 -0.0626158297
0.1286560533 1.3958392032 -0.3694583578 0.2418641550 0.0001763794 -0.0606967206
-0.0266568274 0.7734147710 -0.1336028679 0.2417283717 0.0011798935 -0.0638199452
0.0693529230 0.1750682771 0.0555886045 0.2420176906 0.0010160525 -0.0639449584
-0.0134756951 0.1313497685 0.4327872570 0.2406225899 -0.0011173760 -0.0625424800
0.0654391311 0.9181859925 0.2135431824 0.2418045908 0.0018167885 -0.0623819989
-0.4555194156 0.0532303425 0.1860503980 0.2419394845 -0.0004588202 -0.0641937049
-0.3374551052 0.8080616422 0.3535425249 0.2408854227 -0.0013972573 -0.0617372541
0.4740834702 0.1229103740 0.1917104854 0.2429616003 0.0000334937 -0.0638595296
-0.0440601517 0.1294320522 0.0869325356 0.2411826187 -0.0012645165 -0.0618082922
0.1812330410 0.8002688865 -0.3348409442 0.2421979184 -0.0014034263 -0.0635445484
0.4007573961 1.3966609054 -0.4293549413 0.2426867978 0.0003362262 -0.0609863112
0.1552012802 0.8018806346 0.4512604630 0.2419690588 -0.0015826824 -0.0616943701
0.0678906343 0.7817207976 0.3617499991 0.2417676789 -0.0018196561 -0.0624009889
-0.0212021086 1.3930221638 -0.3652622290 0.2417211636 0.0001649675 -0.0606917111
0.1032529202 0.7989754720 0.4585298775 0.2418859233 -0.0016742966 -0.0618151558
0.0530566966 0.8946097801 -0.2057631092 0.2418080381 0.0017859217 -0.0628570984
0.2039220313 0.8940444373 -0.1293864110 0.2419821114 0.0017835956 -0.0627873655
0.0991387657 0.7752702469 -0.1194125229 0.2417969944 -0.0018216522 -0.0625448098
-0.0077398626 1.3719050493 -0.5745913380 0.2417424361 0.0002270019 -0.0643121698
-0.0311262255 1.1487254856 -0.5054921447 0.2414728528 -0.0001701485 -0.0607814950
0.1941797135 0.7799977289 0.2806440889 0.2417688548 -0.0018211400 -0.0624317482
-0.0310658355 0.7725332639 -0.1128998612 0.2417181047 -0.0018222957 -0.0625351699
0.0984483022 1.3603773075 -0.5097163129 0.2417488730 -0.0000209206 -0.0643292057
-0.2070789301 1.4165347303 -0.3798783617 0.2415196397 0.0002248545 -0.0607126699
0.0799121612 0.7765956511 -0.2454494521 0.2417736292 -0.0018219184 -0.0625599041
-0.0572273747 1.1610370989 -0.5369386644 0.2405470435 0.0002685733 -0.0626649519
0.1964694996 0.7778665354 0.1800778180 0.2417591674 -0.0018226111 -0.0624749475
-0.2859014347 0.8022473120 -0.2684367030 0.2409373851 -0.0013574578 -0.0633989137
-0.2478167133 0.8971829240 0.2492303920 0.2414204164 0.0017778513 -0.0622789327
-0.4182331404 1.2403434715 -0.4700040727 0.2403847139 -0.0007873133 -0.0630978876
-0.2334435026 1.4704006261 -0.3915657716 0.2414396817 0.0003503835 -0.0607447472
0.1764648626 0.8642986220 -0.2762287368 0.2420466196 0.0016957094 -0.0630966880
0.1294019410 1.6254551877 -0.4995440163 0.2418633857 0.0003950740 -0.0642726329
-0.3066304518 1.2277519132 -0.5017507326 0.2416208702 -0.0002388787 -0.0643029966
-0.0367880939 0.7822968231 0.3782692570 0.2417247476 -0.0018183070 -0.0623856977
0.3411441940 0.8808925402 -0.0188414485 0.2423043626 0.0017193444 -0.0626962526
-0.0134756677 0.1492242784 0.4002813705 0.2400898166 0.0002371815 -0.0625310663
-0.3215543193 0.8310133158 0.3815542552 0.2406073862 0.0005077619 -0.0613438408
0.0063855859 0.1607217969 0.5563963562 0.2417369871 0.0010121568 -0.0624495642
0.2931693398 0.7798141961 0.2110813592 0.2418236647 -0.0018196032 -0.0624373356
0.0157039699 0.8995301432 0.3625030767 0.2417561340 0.0017797819 -0.0621192846
-0.3988009303 1.3535063924 -0.4242571943 0.2408319089 0.0001660704 -0.0609440234
0.0050407942 1.2639532852 -0.5732921374 0.2417424361 -0.0001974696 -0.0643181055
0.2766055500 1.6102782459 -0.4675845045 0.2427750267 0.0014736933 -0.0625383309
0.2675625171 0.8574134657 -0.2327714112 0.2422678718 0.0016389689 -0.0630949762
-0.3604998514 0.8149900816 -0.1924085270 0.2402571577 -0.0001552000 -0.0634416755
-0.2898940015 1.3035996846 -0.3853903533 0.2413753886 -0.0000133206 -0.0607244483
-0.2277165718 0.1464843040 -0.2764683192 0.2429481849 -0.0000773384 -0.0633837264
-0.3445974539 0.8688341690 -0.0830893735 0.2410971699 0.0016754159 -0.0628176909
0.3033666640 0.8922450383 0.2094437703 0.2421704241 0.0017619093 -0.0623230380
0.1333396815 0.1482199058 -0.1663109035 0.2406136136 0.0001530233 -0.0632997906
0.0847272231 0.9136577885 0.2576397310 0.2418281237 0.0018102057 -0.0623175454
-0.2295116303 0.7765923133 -0.1012280579 0.2417408464 -0.0018229611 -0.0625079873
0.1809406886 0.9031317760 -0.0846177673 0.2419304644 0.0018001392 -0.0627173117
0.0834108609 1.1238944131 -0.4357747274 0.2418730038 -0.0016343349 -0.0617279040
0.1847417525 0.8441376730 -0.3182853287 0.2421798471 0.0014902971 -0.0634240162
0.0295104177 0.9115322681 -0.0887153619 0.2417650903 0.0018129985 -0.0626898065
-0.0040934172 1.5682734469 -0.3951113822 0.2417347084 0.0004752307 -0.0607481653
0.3516811371 1.5047892494 -0.4371699794 0.2426149448 0.0006533365 -0.0610636313
0.4197920638 0.1531407666 0.1704133545 0.2422027420 0.0006643474 -0.0637803481
-0.0974471854 1.3004442843 -0.5770854827 0.2417301090 -0.0000963977 -0.0643221890
-0.0552283933 0.7127877805 0.1009113212 0.2406068156 -0.0013726251 -0.0625063885
0.2567063618 0.7779120426 0.1817626952 0.2417714142 -0.0018219074 -0.0624624619
-0.1192695606 0.8917043405 0.3736706510 0.2415712029 0.0017550640 -0.0620552212
0.2678100988 0.7789235650 0.2064704572 0.2417939263 -0.0018209668 -0.0624492835
-0.0199430465 0.0736335317 0.5755389393 0.2414930114 -0.0000675854 -0.0608237700
-0.0185404241 0.7686487364 -0.4214615167 0.2414765553 -0.0017051433 -0.0626229047
0.0539748110 0.7794990327 -0.3986298722 0.2425984176 -0.0000029222 -0.0633992674
-0.3703631061 0.8351558706 -0.1520978186 0.2405806394 0.0012251181 -0.0631530365
0.0494673161 0.7592783353 -0.0862052150 0.2419521470 0.0001315832 -0.0607407038
0.0050100003 0.1624041584 0.5102245232 0.2416890080 0.0010732706 -0.0624581013
0.2045727299 0.9080444042 0.2059660587 0.2419613786 0.0018040476 -0.0623758682
-0.3021075344 0.8113838859 -0.2637569122 0.2405842252 -0.0003752855 -0.0636834345
-0.2642353860 0.7775889802 0.1573406389 0.2417111864 -0.0018217179 -0.0624663813
0.4477934614 0.1369794102 0.2178089365 0.2414193755 -0.0009126600 -0.0614820578
0.3333115131 0.8755318420 0.2514743555 0.2423359367 0.0016928181 -0.0621988215
-0.1376902483 0.8530012565 -0.3186280301 0.2414567722 0.0016063867 -0.0633060271
-0.1602758278 1.6077427085 -0.4194589476 0.2414702988 0.0007259315 -0.0608578271
0.1350173761 0.9178066290 0.1117288365 0.2418629008 0.0018179953 -0.0624981231
0.3739261444 1.5126463163 -0.4662829103 0.2432122737 0.0010291507 -0.0624421337
0.1375125909 0.7793445965 0.2635079706 0.2417629210 -0.0018218637 -0.0624488223
0.2738634007 0.0806935087 -0.3623803496 0.2407358794 0.0001009625 -0.0639762663
-0.0557013580 1.2179996455 -0.5620047309 0.2411036907 0.0004073938 -0.0640843384
0.0948755565 1.5951206625 -0.5043499962 0.2417874511 0.0001589936 -0.0643197334
0.3966552295 0.8638810395 0.0521274711 0.2426265627 0.0015825967 -0.0625861041
0.2352372631 0.7775932642 0.1813062266 0.2417595812 -0.0018224580 -0.0624687165
-0.0004885559 0.1294320522 0.0800558909 0.2417282459 -0.0017849500 -0.0623148710
0.0855613598 1.2279657659 -0.3670284150 0.2418261184 -0.0002565033 -0.0607042186
0.2721200002 0.8929915240 -0.0614911837 0.2421010230 0.0017704409 -0.0627286325
0.1935062731 0.9130778691 0.1373736976 0.2419323129 0.0018117972 -0.0624608595
-0.0849794916 1.4344194489 -0.5611745737 0.2417424361 0.0007379341 -0.0641423513
0.0576207843 0.7620211044 -0.2763040626 0.2428096927 0.0003357595 -0.0624648883
0.2132871020 0.1276090656 -0.2262354225 0.2421519572 -0.0014299489 -0.0621721603
0.1687886377 0.7947239317 0.4272110926 0.2419203249 -0.0017320050 -0.0619989693
-0.3464714003 1.3505333564 -0.5052312534 0.2415717407 0.0000085772 -0.0643179578
0.2116753922 0.7773626090 0.1302771624 0.2417587171 -0.0018227333 -0.0624833259
0.1941564960 1.4219735380 -0.3786182149 0.2419437503 0.0002305823 -0.0607108816
-0.0276841205 0.9525993155 -0.5599760694 0.2416978093 0.0000701321 -0.0641981384
-0.1275355873 0.1276090656 -0.0853937982 0.2408667079 -0.0012749568 -0.0618179376
-0.2025682796 1.6475491096 -0.4642786714 0.2410776275 0.0016036413 -0.0622793975
-0.1642431663 1.4082139046 -0.5292881072 0.2399310163 -0.0000811594 -0.0624143387
0.3678674465 1.2483722238 -0.4976705713 0.2420675530 -0.0002739748 -0.0642692859
0.3528316166 0.8405310890 0.3393147959 0.2428185305 0.0012121549 -0.0616915062
-0.1018314938 0.8871043144 0.3954488827 0.2415901638 0.0017322894 -0.0619741749
0.2150722653 0.7934461493 -0.3042182394 0.2421546152 -0.0016121345 -0.0631911242
-0.2000553307 1.2485758404 -0.5042826806 0.2417228116 -0.0000878880 -0.0643270272
0.1077929445 0.8944765945 0.3713723334 0.2418899777 0.0017650230 -0.0620811733
0.2473734067 1.4994572577 -0.5054921447 0.2418115674 0.0000706389 -0.0643263016
0.2489659660 1.3187380173 -0.5067922076 0.2417449354 -0.0000398122 -0.0643288392
0.0703731228 1.2865798382 -0.5036691307 0.2417424361 0.0000000000 -0.0606834019
-0.1212467902 0.7794656538 0.2697414966 0.2417213332 -0.0018217652 -0.0624459620
-0.3681781709 0.8776522435 0.0634166313 0.2410667059 0.0016907016 -0.0625632037
-0.0634299683 0.1766008437 0.0684691354 0.2415824307 0.0014476939 -0.0631500997
0.2767467986 0.1569572292 -0.3028304726 0.2431082414 0.0005690726 -0.0615506258
0.1881565638 1.3214925246 -0.5068897319 0.2417708218 -0.0000367769 -0.0643286697
-0.0448524236 1.6366031776 -0.4211246306 0.2416623705 0.0008066588 -0.0608808095
0.0163100364 0.7717801025 -0.1189959941 0.2417521580 -0.0018226403 -0.0625308293
0.2552016759 1.4755407940 -0.5056970411 0.2417999294 0.0000599143 -0.0643272879
-0.0305266671 1.2659822256 -0.5735819868 0.2417424361 -0.0001936960 -0.0643184701
-0.0558096197 1.6209772762 -0.4145364717 0.2416440112 0.0007023093 -0.0608303747
-0.2031960432 1.3763077443 -0.3752140790 0.2415289734 0.0001480138 -0.0607038576
0.1678227209 1.4523117347 -0.3794571625 0.2419038907 0.0002807308 -0.0607127137
0.3591247671 0.1276090656 0.1505873739 0.2421383177 -0.0013063650 -0.0637081433
0.2282930749 0.8496883592 0.4292460416 0.2423172383 0.0013545593 -0.0614720788
-0.4574745870 0.1604255926 0.2302248884 0.2421156233 0.0011708423 -0.0611928209
0.1256808698 0.9098850830 -0.0600541470 0.2418598637 0.0018095421 -0.0626820442
0.1631155525 0.7793533305 0.2608867582 0.2417594883 -0.0018219311 -0.0624496335
-0.0389155048 0.9191574584 0.2027832589 0.2417045708 0.0018182414 -0.0623975599
0.0567904321 1.1694066603 -0.5620047309 0.2428239265 0.0004951706 -0.0638225193
0.3788835451 0.8620761898 0.2233881051 0.2425753896 0.0015895915 -0.0622166467
0.2975436618 1.1958315099 -0.4969685646 0.2419341304 -0.0004636347 -0.0642532892
-0.1542114549 1.4053508020 -0.3726045794 0.2415900927 0.0001950085 -0.0607009864
0.3885658101 0.7835934096 0.0393964542 0.2421536964 -0.0017647805 -0.0625242374
-0.1280162032 1.6152493993 -0.5020533210 0.2416484702 0.0002950686 -0.0643020267
-0.0394716980 0.8004671637 -0.3832933462 0.2416162015 0.0017100800 -0.0629812456
-0.1530423517 0.9163989442 0.1102230714 0.2416003288 0.0018165132 -0.0624967632
0.0408209961 0.1752342728 -0.0366890839 0.2405608071 0.0011077980 -0.0631640109
-0.0107663049 0.7127877805 0.0656336401 0.2415030724 -0.0017280601 -0.0625063885
0.2905024124 1.1587307710 -0.4699286885 0.2422283914 -0.0015952263 -0.0631595081
0.0430368911 0.2863968049 0.0526362375 0.2435572302 -0.0000140334 -0.0625867604
-0.0900317879 1.1205594303 -0.4486380548 0.2415993991 -0.0017638216 -0.0622495571
0.0612667576 0.7320132019 0.1489965993 0.2430454048 -0.0012730390 -0.0625063885
-0.0572273747 1.1524798318 -0.5562171603 0.2404941441 -0.0000466521 -0.0635318769
0.3981763660 0.7869850289 0.0071270711 0.2422770561 -0.0017348489 -0.0625827443
-0.2666973751 0.7765923133 0.0710671612 0.2417274092 -0.0018227004 -0.0624990237
0.0576207843 1.3169410665 -0.5201499181 0.2429116997 0.0000822769 -0.0619272439
-0.2088356858 0.1276090656 -0.2072030463 0.2411650141 -0.0013749148 -0.0620706674
0.1224546282 0.9185908906 0.1249018183 0.2418513960 0.0018187683 -0.0624847916
0.3175051870 0.7771703422 -0.0379137590 0.2418365022 -0.0018188813 -0.0625316460
0.2677528296 0.7765923133 0.0049122116 0.2417592422 -0.0018226840 -0.0625029413
0.1393857316 0.1603444095 -0.1133669468 0.2428584995 0.0007406193 -0.0616630129
-0.1640656968 1.1318787701 -0.4409138945 0.2414803489 -0.0016465926 -0.0618032444
0.0996063071 1.2731722527 -0.5746091413 0.2417762379 -0.0001987311 -0.0643137795
-0.0380050414 0.7127877805 0.0320985410 0.2409539998 -0.0015103098 -0.0625063885
-0.0572273747 0.9325263238 -0.5528458472 0.2407330009 -0.0002410681 -0.0639027489
-0.0499134246 0.8378056765 0.4897266043 0.2416090135 0.0006616639 -0.0609394148
0.0239226245 0.9120730224 0.2852492886 0.2417649463 0.0018071577 -0.0622782655
0.2951534055 0.7765923133 0.0304135872 0.2417827733 -0.0018222593 -0.0624981177
-0.2828002755 0.8269070347 0.4139270108 0.2407214432 0.0001202715 -0.0610656348
0.0561543775 1.1849413230 -0.5351457753 0.2426258609 -0.0009473624 -0.0625740560
-0.3312923439 0.7924075902 -0.1914561842 0.2411335166 -0.0016488258 -0.0629369306
-0.0608418595 0.8190880189 -0.3741893162 0.2415269317 0.0003074686 -0.0641955443
-0.3860759075 0.8410023565 0.2763240371 0.2405260828 0.0012101788 -0.0619221377
-0.3180339662 1.3256228399 -0.5070125976 0.2416873819 -0.0000348446 -0.0643280991
0.3646992087 1.3214206479 -0.4045228953 0.2423871681 0.0000373020 -0.0608072173
0.2923850508 0.1067647336 -0.3179645487 0.2424013017 0.0011680641 -0.0613684675
-0.0542456613 1.0792080973 -0.5175712123 0.2412424656 -0.0012101040 -0.0616187381
-0.3681873496 0.8482288233 0.2957768578 0.2407267682 0.0013691286 -0.0619359159
0.2177268839 0.7765923133 -0.0253383231 0.2417590161 -0.0018227934 -0.0625076136
0.1638663915 1.5072477893 -0.5071336567 0.2417720869 0.0000336760 -0.0643288028
-0.3613372986 1.4554280794 -0.4971852831 0.2412881897 0.0002612103 -0.0642421708
-0.2087956293 1.6269970042 -0.4886543855 0.2413407428 0.0008355204 -0.0640318802
-0.1188103649 1.2938908113 -0.3653329937 0.2416334233 -0.0000282508 -0.0606882984
-0.4159635877 0.8441628193 0.1723730178 0.2404967164 0.0012800684 -0.0622900784
0.1174738058 1.2482188997 -0.5639431563 0.2432753363 -0.0009185629 -0.0627344533
0.2184957650 0.8618508194 0.4143759158 0.2421685373 0.0015849593 -0.0617259661
0.3583932408 1.3740157706 -0.5042838764 0.2419647019 0.0000504275 -0.0643128115
0.1381085271 1.3914254937 -0.5719586682 0.2418382449 0.0003008949 -0.0642948606
0.0493584018 0.1438132038 0.0907424046 0.2430847102 -0.0003085113 -0.0615874337
0.0211498691 0.7237257004 -0.0959789775 0.2423962156 -0.0013592626 -0.0618360545
-0.2145006970 0.7769913140 0.1201659086 0.2417257120 -0.0018227168 -0.0624836577
-0.0556637498 1.4627431706 -0.5096989835 0.2417122583 0.0000451426 -0.0643283999
-0.2638595846 1.1522261450 -0.4728104585 0.2413377130 -0.0015871122 -0.0633007240
-0.0922469318 1.4812064724 -0.5082828146 0.2417083097 0.0000482873 -0.0643283561
-0.0535814014 0.9657256215 -0.5217713189 0.2406585356 0.0000761936 -0.0619364409
0.1871336368 1.3951889640 -0.3741424454 0.2419340793 0.0001801475 -0.0607030792
0.1093602136 0.1477190256 0.0686973697 0.2420874053 -0.0001702159 -0.0638608658
0.0009420785 0.0636329387 0.5585720561 0.2399492097 -0.0000727846 -0.0627990435
-0.0187202873 0.9113546873 -0.0921874223 0.2417245617 0.0018128563 -0.0626923368
-0.1682999351 1.2632467448 -0.3698090694 0.2415798329 -0.0001366620 -0.0606980277
-0.0716807256 1.4508236599 -0.5264543218 0.2417424361 0.0018124571 -0.0624312068
0.2610653234 1.1505606006 -0.4420054715 0.2421600513 -0.0016231381 -0.0617971592
0.3878413424 1.4499306353 -0.4896521116 0.2425513517 0.0003865789 -0.0640534771
-0.1670458534 1.1738831243 -0.3937313193 0.2415407062 -0.0009956734 -0.0609997812
0.3034356768 0.1024609957 -0.3424567316 0.2420551603 0.0012394596 -0.0636023699
-0.3257039947 1.4057998729 -0.5055822695 0.2416068168 0.0000650460 -0.0643207142
0.3997340370 0.7964514522 -0.0762577000 0.2427087028 -0.0014712560 -0.0628094564
0.4215977904 1.2480046003 -0.4753417667 0.2429817297 -0.0006337522 -0.0635038904
-0.0837517521 0.8990533666 0.3581837760 0.2416316677 0.0017789506 -0.0621295954
-0.0535814014 0.7507239048 -0.2574411202 0.2412276374 0.0000667687 -0.0611639339
-0.1283528942 0.9171369731 0.1594064090 0.2416194300 0.0018167375 -0.0624434281
-0.3284595047 0.1276090656 0.1756439972 0.2419496021 -0.0013991769 -0.0619028378
-0.0114232783 1.3251066758 -0.3617691077 0.2417300634 0.0000349011 -0.0606845249
-0.4613889331 0.1276090656 0.2000131742 0.2416106068 -0.0015978569 -0.0628797909
0.2652893239 0.7804600401 0.2564119641 0.2418158331 -0.0018188886 -0.0624170458
-0.3453097805 0.8421298738 -0.1797488582 0.2407974326 0.0014012806 -0.0631434877
0.0885366618 0.9189557869 0.0299595432 0.2418152151 0.0018192240 -0.0625889188
0.0423463456 0.2208439732 0.0596891286 0.2435396293 -0.0000661580 -0.0623523097
-0.2618485022 0.0969468056 -0.3270979798 0.2434028159 0.0005402093 -0.0625350915
0.0576207843 0.7373006306 -0.2916118547 0.2428969663 -0.0006656490 -0.0629580353
-0.2090552427 0.9076209244 -0.0067723781 0.2415268806 0.0018037888 -0.0626383327
0.0576207843 0.7789355256 -0.0773066229 0.2422388353 0.0015353905 -0.0631545733
0.3763666733 0.8742749784 0.1264205484 0.2424683840 0.0016656082 -0.0624377731
-0.2239689287 1.3908638206 -0.5073151313 0.2417273016 0.0000047343 -0.0643292221
-0.1025302446 0.1287727581 0.1139239677 0.2422128213 -0.0011345831 -0.0612383300
-0.0502226907 0.7534677878 -0.4009075209 0.2411601449 -0.0012922861 -0.0635235294
0.2929253221 0.7830721266 0.2778976756 0.2419025927 -0.0018080546 -0.0623496919
0.1997654740 0.9013700417 -0.0804928462 0.2419582048 0.0017965734 -0.0627183982
0.1287375900 0.7762973467 -0.1308982904 0.2417767046 -0.0018223869 -0.0625315148
-0.0949629978 1.3919725902 -0.5718284304 0.2417424361 0.0003137779 -0.0643013541
0.2378566634 0.7765923133 -0.1495704135 0.2417811417 -0.0018219895 -0.0625451197
-0.2426886719 0.1695635994 0.1428999595 0.2418464757 0.0013275554 -0.0622083959
0.2427690291 1.6012427566 -0.4345635387 0.2422539606 0.0008500897 -0.0609824063
-0.0907983010 0.8105528391 0.4811801858 0.2415357057 -0.0013102151 -0.0612666063
-0.2456079662 0.9066485142 0.0866662337 0.2414790163 0.0018029210 -0.0625159975
-0.2649975056 0.9001156811 0.0006137878 0.2414262299 0.0017887528 -0.0626332830
0.3624760254 0.8076165217 -0.1860528573 0.2429714791 -0.0008417586 -0.0632705171
-0.0052678599 0.1650809882 0.4367602978 0.2409416983 0.0010659550 -0.0624748491
0.0030347177 0.7271757901 -0.3238413271 0.2418198547 -0.0017224854 -0.0625538500
-0.1060572480 0.9164611427 0.2065754649 0.2416356145 0.0018149290 -0.0623866858
0.1539859114 0.7779884275 -0.2276294075 0.2417756709 -0.0018211381 -0.0625759701
-0.0292050182 0.9169934402 -0.0209915646 0.2417159061 0.0018179716 -0.0626313889
0.0490705558 1.4062385947 -0.5684317487 0.2417424361 0.0003745709 -0.0642885986
0.0459286875 0.7127877805 -0.0044610644 0.2426879390 -0.0014398404 -0.0625063885
0.1390116474 0.9152829428 0.1877833146 0.2418778730 0.0018140431 -0.0624089663
-0.2229760154 0.7905210706 -0.2901620826 0.2413830014 -0.0016953594 -0.0630635808
0.0326194193 0.8823585296 -0.2636975247 0.2417922929 0.0017557531 -0.0629880198
-0.0306398527 0.7763777915 0.2500822755 0.2417305702 -0.0018218892 -0.0624474295
-0.0379988378 0.3454263176 0.0581594951 0.2399316270 0.0000470002 -0.0623637180
-0.0608733480 0.7532420291 0.1502525878 0.2404080554 -0.0012393903 -0.0625063885
-0.0130380853 0.6509969443 0.0333023174 0.2406964938 0.0001411575 -0.0639769536
0.4164625883 0.8402721720 0.1990080231 0.2430297672 0.0012361454 -0.0621937773
0.3689313597 0.8579227863 -0.0905806345 0.2425616917 0.0015768324 -0.0628792294
0.0576207843 0.9352555736 -0.5549709775 0.2423380951 -0.0002918930 -0.0641361842
0.2915060960 0.7790122442 -0.1446507613 0.2418964347 -0.0018098466 -0.0626229102
0.2621509685 0.7765923133 0.0870599351 0.2417525026 -0.0018227697 -0.0624949602
-0.2021079700 0.7765923133 -0.0863266132 0.2417312046 -0.0018228882 -0.0625125940
-0.0016967968 0.9103584652 -0.1080776094 0.2417386151 0.0018119576 -0.0627047131
-0.0485228194 1.0972043043 -0.5054921447 0.2413503007 -0.0000667086 -0.0607599564
-0.1011760225 1.4180579669 -0.5656176024 0.2417424361 0.0004239355 -0.0642781930
0.2732624714 0.9001013287 0.0190579099 0.2420715143 0.0017876900 -0.0626091704
0.2058254189 0.8869504324 0.3468318340 0.2420427403 0.0017451178 -0.0620784078
0.3968413655 1.2182969491 -0.4407118073 0.2427890109 -0.0009035542 -0.0613765196
0.3553870483 0.8745771785 -0.0332464702 0.2423781625 0.0016921965 -0.0627276845
0.3103963849 1.5642529501 -0.4869113441 0.2424589555 0.0007198628 -0.0639727972
-0.1531881104 0.8450542306 -0.3292103418 0.2413933687 0.0015084303 -0.0634443407
-0.2650194252 0.1398328346 -0.2671414528 0.2406665166 -0.0003626139 -0.0617499512
-0.3016505627 0.8963901526 0.0918030783 0.2413479709 0.0017774503 -0.0625118393
0.1161865803 0.8776925223 -0.2580233475 0.2419165714 0.0017441534 -0.0630000788
-0.2359573410 0.8986779535 -0.0646592191 0.2414760540 0.0017903041 -0.0627171641
0.0367774112 1.5054648573 -0.5085978085 0.2417512867 0.0000418594 -0.0643288010
-0.2624814413 0.7799028187 0.2396201296 0.2416795959 -0.0018200735 -0.0624311995
-0.2109361711 1.6080703885 -0.4955178464 0.2414969891 0.0005046337 -0.0642316722
0.0009478355 0.7747820109 -0.0305971474 0.2417419129 -0.0018221371 -0.0624517864
0.0528293939 0.7821706488 -0.3235216044 0.2430092404 0.0012161253 -0.0622298834
0.2099938948 0.1529439660 -0.2715121872 0.2406503850 0.0006282541 -0.0633351037
-0.2214247977 0.7831001113 0.3259219802 0.2416607626 -0.0018146100 -0.0623572135
-0.1052474226 0.9094411857 -0.0761020097 0.2416363893 0.0018094182 -0.0626923933
-0.1931537603 0.9095779316 0.1971782221 0.2415372370 0.0018065269 -0.0623887476
-0.1462440662 1.3166751402 -0.5329638991 0.2400691749 -0.0006910742 -0.0624344170
-0.4276363644 0.8277089300 0.0047744011 0.2401558908 0.0006267300 -0.0627385659
0.2277491194 1.2683540898 -0.5050593476 0.2417542107 -0.0000748938 -0.0643276798
0.2873604128 0.1554373177 0.1270208434 0.2421496056 0.0005597298 -0.0638280156
0.0091237921 0.7764633005 0.1468076444 0.2417437723 -0.0018228791 -0.0625225092
-0.1533357614 0.7954795415 0.4339212823 0.2415609322 -0.0017203926 -0.0619576003
-0.1805289324 0.7765923133 -0.0758684523 0.2417206495 -0.0018227788 -0.0625152628
-0.2292383591 1.4280329871 -0.3838475633 0.2414762836 0.0002548845 -0.0607222917
-0.1633374592 1.4111445471 -0.5540079684 0.2399438428 -0.0000096545 -0.0627535855
-0.1343974914 0.1532951626 0.1243655703 0.2422640545 0.0001642821 -0.0612035747
0.3336600481 1.2153615232 -0.4974391923 0.2419901690 -0.0004034871 -0.0642620596
0.3646473575 0.8792060224 0.1036085138 0.2423931821 0.0016984402 -0.0624815613
0.1650093184 0.7764516735 -0.0734125484 0.2417735234 -0.0018226713 -0.0625153066
0.1711567101 1.4453383423 -0.5093356714 0.2426444717 0.0007802346 -0.0615363445
0.1609162777 1.4323596891 -0.5617924350 0.2419379714 0.0006653427 -0.0641620031
0.0229840380 0.1412842619 0.4021444137 0.2430725473 -0.0002317636 -0.0624953103
0.2197625712 1.5904672849 -0.4993866306 0.2419260655 0.0003315265 -0.0642868249
-0.0652218839 1.2981974842 -0.3628619098 0.2416841679 -0.0000200875 -0.0606856715
-0.4184752002 0.1501799026 0.2174463463 0.2421199985 0.0004308173 -0.0612221473
-0.2916211884 0.8983397038 0.0538437328 0.2413747232 0.0017825400 -0.0625633733
0.2211538089 1.2331137234 -0.3779471134 0.2419833693 -0.0002998521 -0.0607267963
0.1410075553 1.2837399896 -0.5436826249 0.2433352597 -0.0008829016 -0.0625363439
-0.1768518608 1.5247910315 -0.3957124701 0.2415160557 0.0004338945 -0.0607520902
-0.1875068313 0.7765923133 -0.1335767828 0.2417171731 -0.0018225947 -0.0625312687
-0.2885407803 0.8855367391 -0.0926552900 0.2413233205 0.0017514454 -0.0627834461
0.1009617943 0.8800936492 0.4202111083 0.2418999913 0.0017012549 -0.0618733346
0.1842158391 0.8028915992 0.4441489903 0.2420560536 -0.0015552300 -0.0616761986
-0.1995873992 1.4768211358 -0.3882475604 0.2415021810 0.0003493553 -0.0607358201
0.0076024769 1.4376120126 -0.3704517998 0.2417466873 0.0002370521 -0.0606997304
0.0576207989 0.9849940471 -0.5586213460 0.2424088853 -0.0001583720 -0.0639655581
0.0229840380 0.1498322098 0.2519871252 0.2431268978 0.0000974222 -0.0625648153
0.2586373568 1.1975599200 -0.3960313324 0.2420961520 -0.0007618134 -0.0608977632
-0.3529427587 1.2470554987 -0.4071821589 0.2411118340 -0.0003581950 -0.0608397230
-0.1757919107 0.7774041111 0.0980567156 0.2417134250 -0.0018226439 -0.0624886254
0.1759747217 1.4276929581 -0.3771205439 0.2419167482 0.0002373857 -0.0607084935
0.1428156956 1.4750605701 -0.5073151040 0.2417700251 0.0000311056 -0.0643288629
0.2930785605 1.3459585331 -0.5073151313 0.2417769306 -0.0000203445 -0.0643286934
-0.3034378334 1.5853127628 -0.4575446972 0.2407244530 0.0011894660 -0.0617612118
0.4239822825 0.1276090656 0.2023757466 0.2416397472 -0.0015805440 -0.0621837892
0.3654467645 1.4652643521 -0.4955045787 0.2422767170 0.0003014618 -0.0642181694
-0.1131983716 1.1326534063 -0.4793822343 0.2416082970 -0.0013725157 -0.0636431757
0.0315734607 1.1404681928 -0.4902361746 0.2417573153 -0.0008977480 -0.0640689743
-0.0713647291 0.1621631960 0.1037122837 0.2423248694 0.0004436584 -0.0611952965
0.0702835540 0.8909829445 -0.2188622637 0.2418385822 0.0017779516 -0.0628884319
0.3245832791 0.7995943906 -0.2232595919 0.2425940716 -0.0014354707 -0.0631826874
0.0279653034 0.7752675762 0.0187367470 0.2417492558 -0.0018227606 -0.0624866183
0.0098881084 0.1705770140 0.2859254270 0.2422725059 0.0012849850 -0.0625426441
-0.2808354241 0.7807419340 0.2451762119 0.2416481475 -0.0018175250 -0.0624106854
-0.4853369418 0.1381329506 0.2011335417 0.2413936641 -0.0008865603 -0.0634963450
0.4008033755 1.3345391643 -0.4216316706 0.2426380202 0.0001033214 -0.0609284496
0.0669720751 0.9086637129 -0.1097249658 0.2418155287 0.0018092504 -0.0627130551
-0.0925229557 0.7735354399 0.0764977892 0.2417364129 -0.0018228481 -0.0624875462
-0.3800097808 0.7939117438 -0.1118806548 0.2409540162 -0.0015641791 -0.0628531899
0.1629975414 0.9160844498 0.0642503487 0.2418871630 0.0018163327 -0.0625482844
-0.4075877953 1.3758764767 -0.4331038642 0.2406780306 0.0002807017 -0.0610832613
-0.1244655849 1.3597576652 -0.5758928758 0.2416465834 0.0001640852 -0.0643105055
-0.0989312533 0.7737620882 -0.0511914677 0.2417164293 -0.0018227241 -0.0625092816
-0.1008377747 0.1276090656 -0.0460391022 0.2407863160 -0.0012457726 -0.0617476560
0.0603635534 1.3429688077 -0.3631463887 0.2417919064 0.0000715121 -0.0606863351
0.0171135451 0.8531454019 -0.5127964694 0.2419397124 -0.0015074131 -0.0632896931
-0.3187740532 1.4538871525 -0.5032573053 0.2415700508 0.0001289380 -0.0643143082
0.0053129515 0.9048531768 -0.5395432967 0.2415891575 -0.0014525631 -0.0633666523
-0.3437838185 1.3512354469 -0.4002105493 0.2411824620 0.0001382024 -0.0607839396
-0.3128117949 1.2145472752 -0.4032725963 0.2412407957 -0.0006323120 -0.0608871626
0.0388714997 1.0380475872 -0.5054921447 0.2424574953 -0.0002132475 -0.0610155227
0.0137231783 1.2861237579 -0.5764593324 0.2417424361 -0.0001458772 -0.0643234742
-0.0260181859 0.4458411548 0.0728824002 0.2402301975 -0.0001859136 -0.0615230112
-0.4945598031 0.0678866283 0.2161208600 0.2406800632 -0.0002699150 -0.0639125876
-0.1792109003 1.1942585385 -0.5013217729 0.2417069115 -0.0001991121 -0.0643159325
0.0607200512 0.1433054819 -0.0048625371 0.2428816660 -0.0000256184 -0.0615436675
0.3014900469 0.7783533803 0.1508493644 0.2418114215 -0.0018206004 -0.0624560504
-0.4373953625 0.0994280363 0.2105803551 0.2430570355 0.0012610656 -0.0625063885
0.3697803082 0.8084327148 0.3176783726 0.2427542028 -0.0013135038 -0.0618125051
-0.0013611339 0.8918855380 -0.2265072590 0.2417370108 0.0017791001 -0.0628948907
-0.2204259870 0.8617423353 0.4120104502 0.2413123807 0.0015895787 -0.0617368731
0.1695908120 0.1672574119 -0.2128757633 0.2406883998 0.0011724502 -0.0632290314
0.1213046354 1.2979508068 -0.5084958616 0.2417591784 -0.0000403153 -0.0643287918
0.0798217720 1.3892716003 -0.5724715491 0.2417424361 0.0003026723 -0.0643037021
-0.4114958557 1.2662718526 -0.4869157959 0.2408719727 -0.0003012103 -0.0640291530
-0.1529981789 1.4415658592 -0.3772103624 0.2415934579 0.0002608530 -0.0607091625
0.0981139191 1.5132717448 -0.5073151313 0.2417648515 0.0000446267 -0.0643286606
0.0090733482 0.9169675155 -0.0309432378 0.2417476717 0.0018181193 -0.0626375014
0.0265551849 0.7802827383 0.3113099638 0.2417487272 -0.0018208319 -0.0624188888
0.4010502625 1.3050044216 -0.4956679730 0.2422807950 -0.0000767970 -0.0642369644
0.0830965743 0.7784749389 -0.2810566070 0.2417878594 -0.0018138808 -0.0626557385
0.3944529650 0.8611945150 0.1662823446 0.2426299826 0.0015760996 -0.0623377896
0.3810651279 0.7817856668 0.0573071668 0.2420483004 -0.0017893726 -0.0625017819
-0.1574545336 0.1451001521 -0.1807001856 0.2431075322 0.0000419961 -0.0634440490
-0.0318778575 0.1890204416 0.0780177700 0.2403116777 -0.0000890292 -0.0614197627
0.3153564126 1.5461530425 -0.4919942666 0.2422648092 0.0004955680 -0.0641700462
0.0321731996 1.1201960344 -0.4706564540 0.2417846236 -0.0016576454 -0.0632293577
0.1285369703 1.2742184884 -0.5747586280 0.2421118789 -0.0003659646 -0.0642509521
-0.1559824810 1.3701518265 -0.3698860378 0.2415926321 0.0001282198 -0.0606953734
-0.2043048402 1.5975292435 -0.4241976100 0.2413785971 0.0007323448 -0.0608828239
-0.0027689864 1.5013529013 -0.3805262366 0.2417361650 0.0003332784 -0.0607148721
0.3565341481 0.7837073463 -0.0869423105 0.2420960390 -0.0017748124 -0.0626520889
0.2705033373 0.8705674756 0.3556575030 0.2422225725 0.0016758115 -0.0619859550
0.3476541049 0.8844868866 0.1142486288 0.2423121176 0.0017249628 -0.0624628192
0.0425395311 1.3895068185 -0.5724155269 0.2417424361 0.0003041343 -0.0643034177
0.2250362145 0.7772156270 0.1607548449 0.2417538133 -0.0018226877 -0.0624767687
-0.2756813486 1.5146230737 -0.5032863181 0.2415867876 0.0001517910 -0.0643139965
0.0688339770 1.3707951676 -0.5747102824 0.2417424361 0.0002230461 -0.0643126693
0.3567380364 1.5168693178 -0.4846365047 0.2426485990 0.0006818790 -0.0638976045
-0.0754443891 0.1749832001 -0.0207376827 0.2410831165 0.0011847663 -0.0618634631
-0.4085258258 1.2997182725 -0.4274207160 0.2407424714 -0.0000805760 -0.0609993966
0.2741129803 0.7765923133 0.0320474408 0.2417629392 -0.0018226166 -0.0625021847
0.4728666211 0.0826576711 0.2145947595 0.2430771540 0.0000487631 -0.0636972582
0.1567656834 0.9125480180 -0.0203703126 0.2418802867 0.0018118354 -0.0626462955
-0.3528790034 1.2196408239 -0.4161296654 0.2410544992 -0.0006542717 -0.0609633962
0.2660991274 0.1615096462 -0.3372531967 0.2410905780 0.0011655174 -0.0630505865
-0.3729315776 1.3427202398 -0.5028579436 0.2414520069 0.0000040069 -0.0643024570
0.0125563009 0.9210933791 0.1736628173 0.2417510533 0.0018207790 -0.0624354671
0.3452202737 0.8581918847 0.3088559029 0.2424811977 0.0015892615 -0.0620169075
0.2854010978 0.8191587854 0.4106074378 0.2426718621 -0.0005481320 -0.0612332694
-0.0684952552 0.7869074754 0.4193283215 0.2416877957 -0.0017970620 -0.0622131976
-0.3304931739 0.8527689332 0.3383390459 0.2409229835 0.0014727071 -0.0618711251
0.0528769884 0.8387298542 -0.3608134415 0.2418884737 0.0013507274 -0.0636825267
-0.1242985464 0.8059271655 0.4649132804 0.2415251452 -0.0014557095 -0.0614951560
0.0161516626 0.1648266050 0.4437419775 0.2426639832 0.0012576967 -0.0624801029
0.3601734256 1.2029128286 -0.4880385278 0.2422482966 -0.0008166689 -0.0640471860
0.3410180597 0.8869386942 0.0847741377 0.2422754300 0.0017372115 -0.0625134581
0.0903121797 0.8190288247 -0.3713282718 0.2420553791 0.0003026759 -0.0641859043
-0.3330979721 1.2143652446 -0.4096157203 0.2411591004 -0.0006791154 -0.0609285079
-0.0608733480 0.7460520567 0.0460327290 0.2404231570 -0.0012550497 -0.0625063885
-0.1601481221 1.2930253831 -0.3679751795 0.2415909604 -0.0000377541 -0.0606913501
-0.0854606908 0.7950980086 0.4494117176 0.2416363783 -0.0017222648 -0.0619440755
-0.2326006593 1.3701269026 -0.5073151587 0.2417328271 -0.0000067687 -0.0643292184
0.2210080101 0.9064514056 0.1970289304 0.2419830612 0.0018017106 -0.0623830398
-0.1776877494 1.3526568733 -0.5073151313 0.2417106541 -0.0000177030 -0.0643289322
-0.0118110129 1.2183138628 -0.5063288391 0.2417376452 -0.0001113280 -0.0643252170
0.0982060072 1.5767944402 -0.5056185433 0.2417786460 0.0000966839 -0.0643263855
-0.2770081985 0.7765923133 -0.0849000678 0.2416840112 -0.0018212730 -0.0625363712
0.0166348234 0.1317335400 -0.0061435388 0.2405854375 -0.0010006957 -0.0632561811
-0.0037180606 1.5235188129 -0.3843550208 0.2417351204 0.0003649911 -0.0607206911
-0.0832027378 1.4079581049 -0.3683119818 0.2416662316 0.0001954278 -0.0606959440
-0.0083138573 0.9016178877 -0.1723073629 0.2417282240 0.0017996251 -0.0627904080
-0.0011375172 1.3816677753 -0.3641902071 0.2417388502 0.0001423971 -0.0606898826
0.3739496646 0.8640274108 -0.0468572185 0.2425269584 0.0016119140 -0.0627835281
0.1797723437 0.9050185180 0.2711178315 0.2419433474 0.0017947504 -0.0622709024
0.3374664333 1.3591610545 -0.3983408030 0.2422649241 0.0001578834 -0.0607735723
0.3607068770 0.8801311462 0.1358621864 0.2423780477 0.0017031362 -0.0624229304
-0.0130267919 0.7819825530 0.3747031451 0.2417363929 -0.0018195667 -0.0623958864
-0.0129089887 0.9138488320 0.2712765535 0.2417256409 0.0018098848 -0.0623010382
-0.2833609460 1.2858042011 -0.5056693354 0.2417135034 -0.0000677094 -0.0643276306
0.4426422499 0.0963660440 0.2215669816 0.2407082211 0.0003515429 -0.0610917418
-0.0369578304 0.2540599877 0.0690737016 0.2400408621 -0.0000406854 -0.0618794215
0.0644767764 1.4117671936 -0.3682403821 0.2417984473 0.0001992561 -0.0606960024
0.1755419100 0.8928253478 -0.1632627021 0.2419580589 0.0017814226 -0.0628221444
0.1717580077 0.8985966738 0.3179610175 0.2419533738 0.0017782542 -0.0621752904
-0.3346726133 0.8819290977 0.2032798696 0.2411759430 0.0017158169 -0.0623006025
-0.2186781894 0.1277437114 0.1519809414 0.2421750089 -0.0012531429 -0.0612698330
0.3856033328 1.3609062671 -0.4173603819 0.2425436259 0.0001776027 -0.0608892718
-0.3711208852 1.5067376320 -0.4608223798 0.2403558797 0.0009318142 -0.0620749459
0.1983310442 1.2622504662 -0.3729439684 0.2419421989 -0.0001419669 -0.0607029552
-0.0233625665 0.9218946638 0.0950022887 0.2417196196 0.0018218254 -0.0625217527
0.0553332186 1.1469323175 -0.4932100164 0.2417696569 -0.0007461557 -0.0641579962
-0.3118945701 0.7814346781 0.2186143922 0.2416082351 -0.0018132847 -0.0624078415
0.1657376399 1.1296210668 -0.4631224476 0.2419977435 -0.0017115548 -0.0628780791
-0.0098131435 0.4500329176 0.0869001576 0.2411516845 -0.0001702323 -0.0607941666
0.1987910111 1.5797269731 -0.5019765204 0.2418688347 0.0002290856 -0.0643069907
0.2124871426 0.7815454992 0.3077063567 0.2417929054 -0.0018187227 -0.0623973575
0.2471189013 0.1276090656 -0.2851765332 0.2417224579 -0.0015097611 -0.0625219404
0.3464117613 0.8037375561 -0.2045425869 0.2427910690 -0.0011813209 -0.0632621350
0.0156983770 0.9210492063 0.0395747934 0.2417533175 0.0018210397 -0.0625786262
-0.0078801706 0.1276090656 0.3869052734 0.2410978407 -0.0013697247 -0.0625499616
0.0270887476 0.1664692290 -0.0204906370 0.2404884455 0.0006420778 -0.0632237557
0.0174416280 0.7447786714 -0.3830001042 0.2418211435 -0.0016242920 -0.0631056717
-0.2037354905 1.2162912628 -0.5025971070 0.2417112393 -0.0001470822 -0.0643227195
-0.0731781178 0.7738265672 -0.0888496613 0.2416978877 -0.0018219494 -0.0625338610
0.0201615187 0.1459169851 0.1143233166 0.2429054195 -0.0003222803 -0.0626283974
0.4110658405 0.7903715292 0.0224647037 0.2424690676 -0.0016408247 -0.0625955071
-0.1477192635 0.9167949407 0.0694033140 0.2416094929 0.0018171112 -0.0625434444
