0.3242414783 0.5075214374 -0.4786504346 -0.0565655477 -0.0000582082 0.1880899429
-0.1258514310 0.2925009337 -0.1616713907 -0.0565852385 -0.0012020836 0.1892841105
-0.2471351898 0.3216417983 -0.0775347265 -0.0561443429 0.0011050756 0.1892963589
-0.3798693790 0.0132233957 0.2625187305 -0.0566978021 -0.0011935245 0.1892857730
-0.1367859001 0.0132233957 0.1705719189 -0.0565835916 -0.0011950488 0.1893595836
-0.2427047873 0.1361209665 -0.4802533927 -0.0565636327 0.0000000000 0.1880885087
0.0541589017 0.0132233957 -0.2324260302 -0.0565892993 -0.0011943671 0.1892074881
-0.1378179597 0.0132233957 0.4195925762 -0.0565819231 -0.0011711937 0.1895326730
0.0567311491 0.9656983686 -0.4379887719 -0.0565964832 0.0001616007 0.1904792109
-0.4429609357 0.0132233957 0.0928685472 -0.0567527261 -0.0011893194 0.1892869391
0.0047722117 0.4363720567 0.2035607039 -0.0565827634 0.0012021269 0.1892904829
-0.4645142917 0.0132233957 0.3337904962 -0.0567183056 -0.0011919917 0.1892849327
0.3523534846 0.0132233957 -0.2667114089 -0.0564005678 -0.0011791783 0.1892939715
0.1666353741 0.2921168313 0.1484879225 -0.0565765856 -0.0012020776 0.1892896619
0.4767411494 0.3092855124 -0.1427059026 -0.0553807375 -0.0000004977 0.1893056610
-0.4697619301 0.1310276932 0.3184555635 -0.0577832878 0.0000450148 0.1892512696
0.2470802899 0.7984901799 -0.4978768348 -0.0565695376 -0.0000785963 0.1880910019
0.4722527635 0.6598066046 -0.4502677238 -0.0554217444 0.0000421153 0.1890735712
0.2363588424 0.4363720567 0.2087974523 -0.0565827634 0.0012021269 0.1892904829
-0.4615803652 0.4679025007 -0.4317608098 -0.0577704046 0.0000061693 0.1891057389
-0.2746628975 0.2953541686 -0.3256409030 -0.0566470904 -0.0011999558 0.1892652852
0.3732461251 0.8311143069 -0.4984632238 -0.0565574093 -0.0000776069 0.1880911354
-0.2236902860 0.4363720567 -0.2221454388 -0.0565827634 0.0012021269 0.1892904829
0.2816730247 0.4948372894 -0.4048979623 -0.0566500560 0.0000543433 0.1904886945
-0.4645943774 0.2913551565 -0.2501859065 -0.0577848001 0.0000015339 0.1892764072
-0.0377851294 0.7214965367 -0.4233920364 -0.0566021176 0.0000780301 0.1904899146
0.3213768892 0.9554345059 -0.4338018721 -0.0566012352 0.0001571613 0.1904779174
0.4139871763 0.0144255225 0.3712689871 -0.0563004895 0.0011005460 0.1891600438
0.2947753193 0.0132233957 0.0766488227 -0.0564802376 -0.0011942325 0.1892910095
0.1519523524 0.3072490734 -0.1361271118 -0.0567727523 0.0011770517 0.1892878407
-0.4672838646 0.3875844442 -0.0627127750 -0.0577837975 -0.0000375088 0.1892761812
-0.1152695337 0.3481318794 -0.4072103544 -0.0566001425 0.0000089715 0.1904924042
-0.1514976383 0.7653110669 -0.4283104183 -0.0566026057 0.0000766536 0.1904899940
0.2925368496 0.5117434452 -0.0943067406 -0.0577790118 -0.0000896294 0.1892756319
-0.0814438003 0.0449620601 -0.4776518422 -0.0565685939 -0.0007033368 0.1886509406
-0.2589071952 0.3068966122 0.4955754843 -0.0567682455 0.0001604190 0.1904590572
0.4738495582 0.1338189753 -0.2050488083 -0.0553807471 -0.0000000998 0.1893064472
0.4588523582 0.6264640926 0.0430107401 -0.0558572930 0.0009061837 0.1893001312
-0.4635658845 0.2106958474 -0.3622319598 -0.0577759693 0.0001085941 0.1892770059
-0.2957881460 0.6695847443 -0.4242501579 -0.0565938746 0.0000756462 0.1904901647
0.4689914509 0.0584842083 0.1571512458 -0.0556870730 -0.0003612884 0.1892967905
-0.2646535263 0.3423375449 -0.1940621585 -0.0558808992 0.0008476305 0.1892996467
0.0913162805 0.0132233969 0.3914591648 -0.0565895001 -0.0011839760 0.1894761719
0.1949521423 0.7140897798 -0.4927688955 -0.0565685879 -0.0000770287 0.1880909118
-0.0719586081 0.0132233957 0.2068208516 -0.0565820277 -0.0011915926 0.1893840613
0.1643832567 0.3087879040 -0.1114537581 -0.0568029906 0.0011708355 0.1892874211
-0.0938040291 0.0132233957 -0.2865945249 -0.0565787783 -0.0011756945 0.1891215769
0.3494400652 0.2913389783 -0.4741223557 -0.0565681659 0.0000042712 0.1880884763
-0.2135526046 0.2101154197 -0.4825563204 -0.0565649466 0.0001413701 0.1881037024
-0.1116508997 0.0132233957 -0.4317414399 -0.0565748738 -0.0011715183 0.1890488350
0.0328078601 0.3017338463 0.0516789644 -0.0566079455 0.0012012181 0.1892901692
-0.3219810698 0.6306024204 0.2125812765 -0.0559087188 0.0009528827 0.1893000182
-0.2924086861 0.5862917471 0.3141016510 -0.0554415002 0.0003487478 0.1893066023
0.4688323074 0.0435900078 -0.4711667115 -0.0555023566 -0.0002168024 0.1892108601
0.2331576951 0.4363720567 -0.1803414838 -0.0565827634 0.0012021269 0.1892904829
0.4707178578 0.6204288050 -0.2445754061 -0.0556775378 0.0007576104 0.1893018887
0.2423034235 0.4363720567 0.3475818271 -0.0565827634 0.0012021269 0.1892904829
-0.1517958583 0.4363720567 0.3272158599 -0.0565827634 0.0012021269 0.1892904829
0.0025935166 0.2512790943 -0.4779725517 -0.0565681792 0.0000009112 0.1880884498
-0.2728370351 0.4363720567 0.1399766466 -0.0565827634 0.0012021269 0.1892904829
0.2973708543 0.2517818574 -0.4742835537 -0.0565701074 0.0000145722 0.1880885135
0.2570108605 0.9916547414 -0.5009632282 -0.0565779368 0.0011378960 0.1889309376
0.3278623505 0.9208277207 -0.5045700488 -0.0565682080 -0.0000740666 0.1880907315
0.3848559972 0.6908529401 -0.4890494488 -0.0565756900 -0.0000780866 0.1880909370
0.4428656624 0.0132233969 0.4158565474 -0.0565793637 -0.0012020499 0.1892914482
0.1803232139 0.0996223028 -0.4743949319 -0.0565702348 0.0000000000 0.1880884210
0.1657710509 0.7590462728 -0.4236424911 -0.0565949445 0.0000763315 0.1904901190
-0.1796572897 0.2921168313 0.2701575628 -0.0565907743 -0.0012020692 0.1892912739
0.2942200028 0.5129382716 -0.2472109286 -0.0577788784 -0.0000885679 0.1892763988
0.1707708396 0.7844814840 -0.4974986024 -0.0565690928 -0.0000766560 0.1880908817
0.4689702466 0.2962560210 0.4268157202 -0.0553806761 0.0000027998 0.1892940701
0.2220559428 0.4363720939 0.1588010820 -0.0565827634 0.0012021269 0.1892904829
-0.3041597264 0.6235174728 -0.3789254846 -0.0557447415 0.0008301624 0.1893049325
0.0588322397 0.0795046626 0.4629088019 -0.0565972249 -0.0001928873 0.1903568043
0.2855949781 0.0132233957 0.4093645381 -0.0565867905 -0.0011864211 0.1894691058
0.0862900137 0.0663773481 -0.4754856805 -0.0565735070 -0.0003791544 0.1883628906
0.0084077535 0.7530745248 -0.4243185408 -0.0565985088 0.0000766705 0.1904900565
0.2716241047 0.5031374237 0.4739002399 -0.0575214453 -0.0001007707 0.1885769942
0.1479766531 0.0132233957 0.0443569515 -0.0565485148 -0.0011994870 0.1892906464
-0.4680116779 0.2219010548 -0.0239743205 -0.0577826386 0.0000642116 0.1892745295
-0.0637087611 0.4363720567 0.0721265488 -0.0565827634 0.0012021269 0.1892904829
0.0978104548 0.0132233957 0.0221429908 -0.0565721366 -0.0012013251 0.1892906308
-0.4652670142 0.3569664181 -0.1934578661 -0.0577846618 -0.0000160640 0.1892764301
-0.2533776976 0.9570514051 -0.5143511229 -0.0565673617 -0.0000007910 0.1880921235
0.4139132179 0.0852876154 -0.4717624916 -0.0567301886 0.0000320908 0.1881031146
-0.4644736430 0.6157017403 -0.0348239844 -0.0575833825 0.0006574119 0.1892784557
-0.4407435971 0.4844701917 0.4733532144 -0.0567742694 -0.0001225232 0.1904697081
-0.4733030833 0.4454398824 0.2084361915 -0.0577792090 -0.0001145254 0.1892749070
-0.0150975644 0.2948335948 0.5002183183 -0.0565891406 -0.0011673229 0.1895612368
-0.2914123862 0.4970139433 0.4419088908 -0.0553936435 -0.0001421455 0.1892442503
-0.2858090588 0.2944777400 0.0484423785 -0.0566674388 -0.0011990506 0.1892878647
-0.1026041773 0.3034670765 0.4675336593 -0.0564851026 0.0008593380 0.1884588119
0.2938162372 0.5762763593 -0.0935486794 -0.0577508352 0.0002614854 0.1892760394
0.2932241981 0.5833098726 0.0262793374 -0.0577431752 0.0003104517 0.1892756006
-0.0160295349 0.8345093031 -0.5032342382 -0.0565641352 -0.0000782092 0.1880910488
0.3160330963 0.6075599430 -0.4845808006 -0.0565641436 -0.0000722238 0.1880906798
-0.4624796859 0.2250765944 -0.4095404297 -0.0577812334 0.0000737156 0.1892602879
-0.2818696602 0.5455800086 -0.0220573476 -0.0553879695 0.0000561922 0.1893049577
-0.1850111348 0.1955462346 -0.4882674496 -0.0565657629 0.0004321887 0.1882642501
-0.0653440961 0.0132233957 -0.2629160960 -0.0565789202 -0.0011853788 0.1891649148
-0.0198656299 0.0134388565 0.1606415046 -0.0565760964 -0.0011877434 0.1893843402
0.4850872879 0.5789865375 0.0034542623 -0.0554108856 0.0002552849 0.1893065674
-0.4411448682 0.6316583902 -0.3281417513 -0.0571457975 0.0010421118 0.1892835274
-0.4394672172 0.1135423478 -0.4881971601 -0.0566927640 0.0001777513 0.1882718643
0.3912108198 0.6054237899 0.4885684766 -0.0565042957 0.0002490362 0.1904617176
0.1951593445 0.8469132065 -0.5014847553 -0.0565698189 -0.0000772222 0.1880909106
-0.4890247583 0.3391109018 0.4679062790 -0.0576633492 -0.0000243058 0.1888423685
-0.3358727747 0.6407524825 -0.1209135001 -0.0561676173 0.0011182437 0.1892963361
-0.2939364379 0.3307380917 0.4689481611 -0.0566007436 -0.0000044431 0.1904923766
-0.4616995212 0.3069768073 -0.4463412937 -0.0577782232 0.0000001491 0.1891675402
0.0440451582 0.6476862097 -0.4897944681 -0.0565679183 -0.0000748096 0.1880907844
-0.3607970975 0.4963595751 0.4828987101 -0.0564710713 -0.0002021653 0.1904673279
-0.1335978957 0.4363720567 -0.2800526767 -0.0565827634 0.0012021269 0.1892904829
-0.4902520157 0.6035889765 0.4639514174 -0.0576122432 0.0004244133 0.1889188646
-0.4720498529 0.4028815532 0.2927722634 -0.0577825593 -0.0000590148 0.1892740463
0.4814663062 0.4384660932 -0.3486068157 -0.0553854558 -0.0001058869 0.1893037184
-0.2711853765 0.2936791779 0.4039161529 -0.0566411410 -0.0012002107 0.1892962748
-0.4772165629 0.0543658923 0.3833224488 -0.0577790503 0.0000773941 0.1892020328
-0.2355957731 0.4363720567 -0.1395343613 -0.0565827634 0.0012021269 0.1892904829
0.4703139083 0.1138253345 0.0861640620 -0.0553807230 -0.0000006936 0.1893017974
0.2393177888 0.0596733113 0.4655758190 -0.0565963762 -0.0004705930 0.1901581312
0.4748517461 0.3722154312 0.0166360367 -0.0553809382 -0.0000208341 0.1893070014
-0.2884864214 0.5253436067 0.4390926165 -0.0553855856 -0.0000420083 0.1892678024
-0.0152390018 0.4363720567 0.4553447359 -0.0565823270 0.0012018312 0.1892675163
-0.4735967545 0.4415879986 0.2855742678 -0.0577796742 -0.0001103144 0.1892744706
-0.3880797060 0.6446855892 -0.0670929731 -0.0566940587 0.0011939584 0.1892896390
-0.3901877197 0.6452062363 0.4387129896 -0.0566504215 0.0011859222 0.1891916224
-0.1102979156 0.0132233957 0.3892652508 -0.0565810563 -0.0011804658 0.1894876955
-0.4761256304 0.5840062094 -0.0648539156 -0.0577470461 0.0002898592 0.1892758687
0.0409424664 0.4363720567 0.2566382769 -0.0565827634 0.0012021269 0.1892904829
-0.0912159485 0.6061833743 -0.4900656511 -0.0565621433 -0.0000728212 0.1880907483
0.3339468340 0.0132233957 -0.3759333740 -0.0566175974 -0.0011943684 0.1891780925
-0.4760228365 0.5734068163 0.4687901909 -0.0567928591 0.0000557090 0.1904719897
0.4763296049 0.3442878467 -0.1079930585 -0.0553808432 -0.0000118097 0.1893059495
-0.3601896869 0.0825769503 0.4585669036 -0.0565992601 -0.0001056044 0.1904202442
-0.2924883138 0.3970563661 -0.3131927554 -0.0577837362 -0.0000351310 0.1892558821
-0.4718946715 0.6087666920 0.3514155515 -0.0576155382 0.0005821552 0.1892748108
-0.3014652491 0.3840867274 0.4374794788 -0.0554520729 0.0003627274 0.1892987680
-0.3258971171 0.9843637662 -0.5165361412 -0.0565728891 0.0002441508 0.1881978169
-0.3059805074 0.3023334059 -0.0246662551 -0.0574302736 -0.0007576705 0.1892774447
0.3057703336 0.6054305772 -0.1612875083 -0.0576029844 0.0005865994 0.1892777524
-0.4671582519 0.3275624788 -0.0339674762 -0.0577847472 -0.0000064650 0.1892762978
0.4764026834 0.3918447169 -0.0620557645 -0.0553820826 -0.0000433247 0.1893065253
-0.4852949661 0.5438514367 0.2464923500 -0.0577801286 0.0000448958 0.1892759793
0.2583937019 0.5920602539 -0.4116896053 -0.0566006883 0.0000794173 0.1904898257
-0.2539546777 0.6030068069 -0.4915699242 -0.0565691721 -0.0000725435 0.1880906293
0.4644824846 0.7937720663 -0.4488948600 -0.0554354955 0.0000799222 0.1894553727
0.2243237612 0.3163517501 0.1074452625 -0.0569387083 0.0011409783 0.1892861240
0.1864757137 0.3289507502 -0.4045250494 -0.0565656403 0.0001984219 0.1881115547
-0.2025037074 0.2927497379 -0.0678335349 -0.0565934226 -0.0012020548 0.1892861925
0.2196725448 0.7826400672 -0.4244527751 -0.0565981710 0.0000747002 0.1904901827
-0.2572611865 0.3251487595 0.4404463303 -0.0560983339 0.0010609359 0.1892798020
0.2619500800 0.0132233957 0.2021850716 -0.0565331083 -0.0011981551 0.1892898698
0.0125644149 0.2931930150 -0.0025416977 -0.0565831120 -0.0012021245 0.1892891197
0.3677772328 0.0132233957 0.1569969468 -0.0564435643 -0.0011912308 0.1892901632
0.3019504768 0.0424343299 -0.4730814268 -0.0565751551 -0.0007140345 0.1885955875
-0.3216845003 0.0391267018 -0.4814963149 -0.0565768477 -0.0007902458 0.1887285716
0.4699726918 0.4043417659 -0.4657963203 -0.0557496534 -0.0000002392 0.1885101812
0.0546006737 0.1637386102 -0.4754856805 -0.0565700533 -0.0000100221 0.1880885688
0.1745437930 0.4185815478 -0.4769790214 -0.0565670660 -0.0000334913 0.1880890268
0.0189801541 0.8160084058 -0.5013637661 -0.0565644393 -0.0000789581 0.1880910933
-0.4526122150 0.6085317544 -0.4673393343 -0.0576711173 0.0000182122 0.1888431799
0.1443980621 0.3186704520 0.5077547594 -0.0565281147 -0.0000369053 0.1904898101
0.2841269503 0.3498179682 -0.2513072877 -0.0573793515 0.0007568374 0.1892790098
-0.0205254533 0.4363720567 0.1887082123 -0.0565827634 0.0012021269 0.1892904829
0.2913608426 0.5932956184 0.4489071133 -0.0576755616 0.0004292278 0.1892001215
-0.2013576645 0.6788450979 -0.4960361513 -0.0565650873 -0.0000770371 0.1880909623
0.2980946681 0.5859945910 -0.2782386275 -0.0577261531 0.0003440319 0.1892771009
-0.2992015036 0.3869056067 0.2374952418 -0.0554492214 0.0003398882 0.1893038915
-0.4621276467 0.0916494439 -0.1539923869 -0.0577847580 0.0000002416 0.1892730569
0.4724037999 0.0202954251 -0.0885479734 -0.0562029934 -0.0010369090 0.1892951905
0.0164787048 0.4006096993 0.5146147121 -0.0565861077 0.0001484555 0.1904829387
-0.0731110306 0.4363720567 -0.3027550014 -0.0565827634 0.0012021269 0.1892904829
0.3356749274 0.6389681487 0.2189361050 -0.0570653632 0.0010968735 0.1892849447
0.2342296978 0.0132233957 0.0009892567 -0.0565100792 -0.0011966392 0.1892914939
0.4764334999 0.4329923587 0.0534449826 -0.0553843679 -0.0000900886 0.1893069665
-0.2542552827 0.4363720567 0.2279012331 -0.0565827634 0.0012021269 0.1892904829
0.1007209939 0.0132233969 -0.4212807566 -0.0565853768 -0.0011837127 0.1890965294
-0.2343383977 0.2941519877 -0.2783698169 -0.0566058490 -0.0012014657 0.1892727419
0.0751970754 0.4363720567 -0.0150862006 -0.0565827634 0.0012021269 0.1892904829
-0.4627811349 0.4442858875 -0.4178550184 -0.0577705428 -0.0000095689 0.1891138677
0.0331158390 0.2928642357 0.2348355108 -0.0565859827 -0.0012021161 0.1892904373
-0.2628906349 0.0753853020 -0.4805822465 -0.0565676731 -0.0002436074 0.1882570902
0.0953957269 0.3230734329 0.5100755158 -0.0565412118 -0.0000560888 0.1904899651
0.3727944103 0.1902508681 -0.4803991097 -0.0565741537 -0.0009750740 0.1886666668
0.4539432567 0.5870033089 -0.4794297194 -0.0561168021 -0.0000437658 0.1882467543
-0.0859154538 0.5188955279 -0.4116411067 -0.0565996280 0.0000614347 0.1904908703
0.1358530677 0.2923886743 0.0262468163 -0.0565808219 -0.0012020956 0.1892883047
0.2902193209 0.4787033727 0.3924404790 -0.0577754872 -0.0001457783 0.1892691356
0.3301671487 0.1910688553 0.4769713531 -0.0565825313 -0.0011993956 0.1893091772
-0.4653421844 0.4058715721 -0.2839187576 -0.0577826182 -0.0000602266 0.1892761440
-0.2211458546 0.4363720567 -0.1117092029 -0.0565827634 0.0012021269 0.1892904829
0.1449096308 0.2921168313 0.1945935587 -0.0565791798 -0.0012020896 0.1892905935
-0.4378331493 0.0132233969 -0.2309723836 -0.0569495154 -0.0011367648 0.1892860411
0.2982283891 0.5898051288 -0.1396744644 -0.0577019928 0.0003915808 0.1892767198
-0.4697217959 0.2832197244 0.1828978102 -0.0577847604 0.0000047929 0.1892744946
-0.4639214460 0.0816867922 -0.0180311326 -0.0577847135 0.0000001262 0.1892701393
-0.2964056630 0.3739273476 0.4894820498 -0.0573887437 0.0000106845 0.1900956507
-0.1991642266 0.0132233957 -0.3266041300 -0.0565809169 -0.0011851985 0.1891409780
0.4844699356 0.4800090640 -0.1129919107 -0.0553900792 -0.0001475394 0.1893066708
0.3947651423 0.0132233957 -0.1583452547 -0.0563092542 -0.0011584175 0.1892945365
0.4689064498 0.2898500035 0.4513461818 -0.0553824228 0.0000043613 0.1892674874
0.4534866637 0.0132233945 -0.1957930769 -0.0562500194 -0.0011480768 0.1892954237
0.4743636394 0.3206276132 0.0495969697 -0.0553807891 -0.0000041630 0.1893071120
0.3267199117 0.6333958386 0.2835812088 -0.0571912968 0.0010018537 0.1892829648
-0.4633328558 0.3409172104 -0.3617121926 -0.0577846246 -0.0000109886 0.1892710770
-0.3734850599 0.6452668416 0.1428029178 -0.0565428035 0.0011972691 0.1892918954
-0.4837395907 0.4868432262 0.4527295738 -0.0577518101 -0.0001445425 0.1890577908
-0.0891630548 0.2922076111 -0.2057863432 -0.0565817163 -0.0012020932 0.1892824924
-0.2467310564 0.3013808358 -0.4103087811 -0.0566536528 -0.0010857430 0.1888722137
-0.1213803244 0.0132233957 0.2851051462 -0.0565832142 -0.0011752461 0.1894717949
-0.2952321335 0.8077956577 -0.4331245025 -0.0565969148 0.0000753854 0.1904901575
0.3102122753 0.3040022153 0.4153761630 -0.0555226029 -0.0003665958 0.1893265347
0.3032396966 0.3306312623 0.1153082457 -0.0554002780 0.0001718681 0.1893056057
-0.0146524853 0.0132768795 -0.1903934848 -0.0565725477 -0.0011937372 0.1892211635
0.3803772596 0.6459233747 -0.1497754052 -0.0566250025 0.0011972691 0.1892915636
-0.2937672794 0.4739709526 0.4559831446 -0.0554352154 -0.0001406356 0.1890532588
0.0263670458 0.3017338463 0.2845310837 -0.0565990714 0.0012017109 0.1892902521
-0.1784441201 0.2400165839 0.4709675792 -0.0565963582 0.0000281334 0.1904916673
0.0151414865 0.0137214585 0.2860012104 -0.0565905315 -0.0011697368 0.1894941545
-0.2833369174 0.5191648032 0.0103453969 -0.0553849713 -0.0000639832 0.1893053737
0.4849141660 0.4989189730 0.0395476097 -0.0553901249 -0.0001391582 0.1893068427
0.0635771150 0.7022818765 -0.4935312315 -0.0565682513 -0.0000777608 0.1880909647
0.0892976979 0.4363720567 -0.2883318639 -0.0565827634 0.0012021269 0.1892904829
0.2382814280 0.0132233957 -0.0926674074 -0.0564413896 -0.0011793911 0.1892925794
-0.4595608738 0.0914717191 -0.3712717580 -0.0577818332 -0.0000040956 0.1892777127
-0.4527036367 0.0132233957 0.2138879150 -0.0567556184 -0.0011891595 0.1892848534
-0.1840918468 0.4363720567 0.4199062604 -0.0565821214 0.0012020271 0.1892797251
0.4225407370 0.6826514908 -0.4152664906 -0.0565982732 0.0000718992 0.1904903270
0.2988973955 0.3838107395 0.3913523173 -0.0553811510 -0.0000121920 0.1893155882
-0.1930021338 0.3132869288 0.4557021667 -0.0562981778 0.0011532869 0.1892303441
0.1403815879 0.0132233957 0.1811452282 -0.0565842095 -0.0011943936 0.1893632212
0.3291039877 0.6347529269 0.2505634922 -0.0571608782 0.0010248877 0.1892834373
-0.2915483263 0.0132233957 -0.4787770017 -0.0565787879 -0.0011618256 0.1889988470
0.4688983426 0.3584815872 0.4512248247 -0.0553824577 -0.0000164703 0.1892680296
0.1096021065 0.4363720567 0.2775452432 -0.0565827634 0.0012021269 0.1892904829
0.3761090636 0.9552185727 -0.4330932460 -0.0565845617 0.0001446147 0.1904803048
0.1379501131 0.4837249163 -0.4798586515 -0.0565705546 -0.0000502201 0.1880895245
-0.2966372431 0.2958925183 0.2453110152 -0.0568273854 -0.0011592314 0.1892861372
0.3003384211 0.4273269030 0.0704489338 -0.0577653376 0.0000063160 0.1892746149
-0.1467628692 0.2923062048 0.0432007471 -0.0565868265 -0.0012020860 0.1892882686
-0.4291382005 0.6361645316 -0.1841185641 -0.0569777017 0.0011277236 0.1892857454
0.2842381459 0.7780587184 -0.4960302813 -0.0565687393 -0.0000786467 0.1880910152
-0.4494124261 0.6356026479 -0.4773185129 -0.0576291006 0.0000103575 0.1887387981
-0.2993298306 0.3930493743 0.2677454123 -0.0554416637 0.0002884107 0.1893038842
0.0172130997 0.0132233957 0.0069895996 -0.0565827634 -0.0012021269 0.1892904829
0.2213946408 0.0132233957 -0.2659372981 -0.0565868049 -0.0011958951 0.1892091843
0.3966390634 0.6446408316 -0.0532884344 -0.0564668615 0.0011938514 0.1892927838
0.4889313567 0.5289122742 0.0402164599 -0.0553828075 -0.0000300412 0.1893069340
0.1406317120 0.0132233957 -0.2142343957 -0.0565818666 -0.0011926205 0.1892095317
0.2888616088 0.5757247117 0.3064275267 -0.0577513076 0.0002577408 0.1892740979
0.1390330095 0.4363720567 -0.3269051390 -0.0565827634 0.0012021269 0.1892904829
0.0856914002 0.1426698027 0.4632248146 -0.0565987492 0.0000000000 0.1904925028
0.0398573870 0.4821558186 -0.4802021797 -0.0565675432 -0.0000555070 0.1880897662
-0.3984130877 0.6304659477 -0.4957711316 -0.0565696674 -0.0000760754 0.1880908625
0.2270100940 0.4133548564 -0.4036368086 -0.0565636183 -0.0001841105 0.1881088752
0.3826264786 0.4002852116 -0.4738125050 -0.0565652400 -0.0000268291 0.1880888682
0.1765319365 0.1823281403 0.4645947993 -0.0566012172 -0.0000891317 0.1904890864
0.2732761492 0.2946743046 -0.2773866321 -0.0565342804 -0.0012006266 0.1892731988
0.0868122573 0.3017338463 0.0873551642 -0.0566551182 0.0011994329 0.1892895946
-0.4463179977 0.2304449852 -0.4795854140 -0.0571974301 0.0000522769 0.1883620479
-0.3626995415 0.3456341856 0.4681839186 -0.0565988695 -0.0000145193 0.1904922684
-0.2136267289 0.4363720567 0.1811105180 -0.0565827634 0.0012021269 0.1892904829
-0.1912700782 0.0132233957 -0.4357945826 -0.0565762995 -0.0011435208 0.1889493434
0.0246523140 0.2845703921 -0.4777099531 -0.0565681491 0.0000000000 0.1880884450
0.1519759225 0.4363720567 -0.2598607018 -0.0565827634 0.0012021269 0.1892904829
0.3059236817 0.3550546012 -0.1559170077 -0.0553808973 0.0000158777 0.1893040598
0.4588921618 0.6402024121 0.4810966390 -0.0560570264 0.0008252276 0.1897046217
-0.2799652532 0.0132233957 0.2225047497 -0.0566046757 -0.0012004884 0.1892895861
-0.1726604617 0.0765717459 0.4604305705 -0.0565929045 -0.0002277165 0.1903330575
-0.0662705187 0.2423838398 -0.4787923361 -0.0565654227 0.0000230941 0.1880888826
-0.2284885394 0.6730837089 -0.4961145853 -0.0565665431 -0.0000764997 0.1880909058
0.2930216181 0.4755686273 0.2389836336 -0.0577762950 -0.0001398218 0.1892749094
-0.1793568133 0.7576080338 -0.4283207638 -0.0566013975 0.0000765550 0.1904900204
0.2529670355 0.4367781712 0.4760889811 -0.0565867941 0.0011899061 0.1892041678
0.2348384092 0.4324257807 -0.4764667375 -0.0565672908 -0.0000400717 0.1880892156
0.1916016284 0.0132233957 -0.1942817967 -0.0565626157 -0.0012012529 0.1892854112
-0.4695784639 0.4640612197 -0.3127462866 -0.0577775693 -0.0001284184 0.1892749983
-0.2091377744 0.0132233957 -0.1462491836 -0.0567371537 -0.0011734453 0.1892886112
0.4563403206 0.0323042868 0.4944250849 -0.0555155175 -0.0001752172 0.1887679208
-0.2897234364 0.6019871929 -0.4017348588 -0.0555405686 0.0005438362 0.1893083958
0.4691650489 0.1106378338 0.1759757112 -0.0553808264 0.0000099236 0.1892978664
-0.2892899735 0.5851056158 0.1480903791 -0.0554340241 0.0003340638 0.1893058678
-0.3800963911 0.6449705654 -0.3940119786 -0.0566774369 0.0011930160 0.1892898230
-0.2129861179 0.4363720567 0.3576468880 -0.0565827634 0.0012021269 0.1892904829
-0.4002170125 0.8136850816 -0.5072808509 -0.0566238400 -0.0000720759 0.1880948788
0.1029106523 0.2979299851 -0.3955842307 -0.0565861882 -0.0011890922 0.1891171002
-0.4642608280 0.0644525531 0.0032016606 -0.0576223891 -0.0002372746 0.1892716312
0.0444127879 0.1876059534 -0.4761683335 -0.0565724912 -0.0003819674 0.1881946770
0.1392722940 0.9940918662 -0.4758113055 -0.0565901324 0.0012006206 0.1892713631
0.3775674419 0.0132233957 -0.2831960064 -0.0563802266 -0.0011760972 0.1892943177
-0.4602033926 0.1611892633 -0.3168616129 -0.0577846306 -0.0000107097 0.1892764998
0.0525793575 0.4363720567 0.3939161919 -0.0565828679 0.0012020968 0.1892869018
0.4361582512 0.5404906698 -0.4790238248 -0.0564683077 -0.0000632403 0.1881042289
-0.0145684783 0.3017338463 -0.3163772472 -0.0565656907 0.0012015703 0.1892906813
0.4734308971 0.1039614952 -0.1672261281 -0.0553807423 -0.0000009100 0.1893059964
-0.3706243225 0.7337021156 -0.5016702399 -0.0565569309 -0.0000778594 0.1880911762
-0.0296128160 0.8177532653 -0.4291420894 -0.0566001617 0.0000750824 0.1904901310
-0.4615367460 0.0151730231 -0.2091432597 -0.0569780684 -0.0011036775 0.1892854580
0.1430118631 0.9896900598 -0.5046953681 -0.0565833716 0.0008893347 0.1887094049
-0.1914263607 0.0132233957 0.0402990400 -0.0566385757 -0.0011979339 0.1892888973
-0.2853013610 0.5891310242 -0.3085227749 -0.0554593998 0.0003840976 0.1893041752
-0.2578720629 0.0132233957 0.2589812558 -0.0565792279 -0.0012012866 0.1893022986
0.1706805010 0.3101667111 0.3200777640 -0.0568108561 0.0011664285 0.1892874680
-0.4682581716 0.1983326469 -0.2484113677 -0.0576927628 0.0004595984 0.1892773557
0.4718721833 0.2165041038 0.2698324332 -0.0553833028 0.0000742181 0.1893060252
0.1027234620 0.0132233957 0.4182160447 -0.0565899509 -0.0011808036 0.1894973004
0.3128782465 0.2126920068 0.4774481058 -0.0566052912 0.0001022517 0.1904878770
-0.2913636303 0.4637022465 0.0586294565 -0.0553880620 -0.0001300569 0.1893063823
0.2435903689 0.9602410324 -0.5082535435 -0.0565678005 0.0000234884 0.1880931369
0.3467828983 0.3096615449 0.4771127593 -0.0566021957 -0.0000005650 0.1904924391
-0.4303827372 0.3758598194 0.4670112691 -0.0565883388 -0.0000201537 0.1904923153
-0.3329614109 0.7336389426 -0.5012483511 -0.0565691877 -0.0000762557 0.1880908553
-0.1037841827 0.4363720567 0.2172045314 -0.0565827634 0.0012021269 0.1892904829
-0.4724505001 0.2970745035 0.3740495294 -0.0577846366 0.0000012057 0.1892669621
-0.4603079115 0.0149897708 -0.3114601864 -0.0570079713 -0.0011034623 0.1892854064
0.0884581288 0.4363720567 0.2923921412 -0.0565827634 0.0012021269 0.1892904829
0.1049759640 0.4363720567 -0.0712204421 -0.0565827634 0.0012021269 0.1892904829
0.3312280702 0.0132233957 0.0561619108 -0.0564644897 -0.0011930989 0.1892915552
-0.3857850334 0.6446842680 -0.2137265512 -0.0567030133 0.0011928212 0.1892891666
0.2058992999 0.0132233957 0.1286514995 -0.0565186684 -0.0011969998 0.1892896919
0.0368170434 0.0132233957 -0.0187600470 -0.0565827634 -0.0012021269 0.1892904829
0.1623154134 0.3082705579 -0.2911305283 -0.0567852208 0.0011734682 0.1892874872
0.4229754297 0.1770909940 0.4672561664 -0.0565542609 -0.0000177650 0.1904905975
-0.0924425315 0.2936748130 -0.2919041991 -0.0565817548 -0.0012017674 0.1892652635
0.3515608827 0.0132233969 0.4497364919 -0.0565847457 -0.0011425507 0.1896392861
0.3157254107 0.0132233957 0.4240925001 -0.0565865140 -0.0011519273 0.1895998960
0.0290955204 0.0132626247 0.1784452849 -0.0565924056 -0.0011943407 0.1893659741
0.1216216875 0.8366428872 -0.5014017725 -0.0565698681 -0.0000761980 0.1880908433
-0.2811196520 0.5301061461 -0.0774824304 -0.0553824192 -0.0000249694 0.1893053941
0.2045614709 0.0132233957 0.2922612368 -0.0565855186 -0.0011904554 0.1894152421
-0.2844539505 0.5390709580 0.2559358861 -0.0553822642 0.0000125141 0.1893069449
-0.2070249270 0.4773675260 -0.4843734517 -0.0565674086 -0.0000526592 0.1880896399
-0.0827434473 0.0132233957 0.3160688644 -0.0565808544 -0.0011892016 0.1894301436
0.3499115910 0.8935572561 -0.4293173751 -0.0565932928 0.0000762016 0.1904901286
0.2495907131 0.4363720567 -0.0458489532 -0.0565827634 0.0012021269 0.1892904829
0.1561479098 0.2223500360 0.4754967413 -0.0566013915 0.0000580603 0.1904906443
0.3322487853 0.0132233957 -0.1781052153 -0.0563273679 -0.0011579223 0.1892943045
-0.4723182842 0.2550840013 0.3675069118 -0.0577846149 0.0000101688 0.1892682532
-0.4681591560 0.3097991163 0.0505942505 -0.0577847953 -0.0000006708 0.1892759095
-0.3045016581 0.8085615147 -0.5055315147 -0.0565684376 -0.0000744189 0.1880907483
0.1474394238 0.2770081786 0.4748791510 -0.0566007231 0.0000062066 0.1904924463
-0.4614613186 0.1460078987 -0.2103619687 -0.0577847893 -0.0000001719 0.1892750945
-0.0258236700 0.3987599542 0.5141499374 -0.0566139754 0.0001407991 0.1904830745
0.4361768505 0.2708308801 0.4786542321 -0.0566099194 0.0000027192 0.1904922973
0.4744124685 0.1429275676 -0.2490113672 -0.0553807567 0.0000003041 0.1893073175
0.4291392656 0.6387806097 -0.0940711429 -0.0562974614 0.0011643621 0.1892943382
-0.2887484694 0.6958551500 -0.4256903780 -0.0565946247 0.0000768195 0.1904900865
0.2597057765 0.0132233957 0.2413491151 -0.0565587605 -0.0012015823 0.1892972990
0.3342486123 0.6030790042 0.4847149423 -0.0567984333 0.0002148838 0.1904505173
0.4770268589 0.2058280919 -0.0193060627 -0.0554192716 0.0002402751 0.1893063654
-0.2966009064 0.3421645336 -0.0144936302 -0.0577831219 0.0000493413 0.1892735834
-0.4752132870 0.4628802971 0.1345649756 -0.0577772147 -0.0001321005 0.1892750320
0.4742545716 0.0686486010 -0.2301783523 -0.0555813556 -0.0002869429 0.1893045502
0.2867834572 0.9931711211 -0.4844416869 -0.0565806693 0.0011810428 0.1891476270
-0.4665719722 0.6012318281 -0.3225922600 -0.0576581007 0.0004895253 0.1892764217
0.0318140907 0.2952553189 0.5021283007 -0.0565795813 -0.0011467617 0.1896206795
-0.4676943068 0.1772007951 0.2888771451 -0.0577846017 0.0000036917 0.1892731062
0.0423605914 0.4363720567 0.2927344493 -0.0565827634 0.0012021269 0.1892904829
0.3527969816 0.1659743101 0.4678387038 -0.0565891695 -0.0000266091 0.1904917755
-0.4671560496 0.2511044505 -0.0341522094 -0.0577847568 0.0000095437 0.1892758951
0.4757827634 0.0700598066 -0.3210339850 -0.0555945742 -0.0003053931 0.1893079607
0.1241684293 0.4363720567 0.1902790460 -0.0565827634 0.0012021269 0.1892904829
-0.3039424347 0.8642319335 -0.5090011306 -0.0565685254 -0.0000761656 0.1880908601
0.2359849569 0.3231630935 -0.4747867387 -0.0565694618 -0.0000040115 0.1880884606
-0.4647192194 0.2473668072 -0.2396589680 -0.0577845945 0.0000077345 0.1892762630
-0.1313123857 0.8383528947 -0.5055175015 -0.0565669530 -0.0000770900 0.1880909370
0.2517306444 0.6850007893 -0.4180398790 -0.0565973211 0.0000741965 0.1904902272
0.0013911746 0.0135799693 0.1749797238 -0.0565915184 -0.0011809598 0.1894147865
0.3129492345 0.7944015251 -0.4236206629 -0.0565990185 0.0000742686 0.1904902020
0.2742591500 0.0574669517 0.4661386007 -0.0565983501 -0.0005020767 0.1901356611
-0.1751981239 0.3109034754 0.1398877565 -0.0563238709 0.0011624663 0.1892939342
-0.2568957760 0.9638721395 -0.4421429485 -0.0565994753 0.0001835792 0.1904742846
-0.2861158272 0.5842856102 -0.0478389120 -0.0554288526 0.0003239167 0.1893050443
0.0044064790 0.0132233957 -0.0529312597 -0.0565796703 -0.0012021125 0.1892895886
-0.2608005234 0.0132233957 -0.1722176258 -0.0567909657 -0.0011636071 0.1892879585
0.2892967787 0.5044732343 0.2207538627 -0.0577769658 -0.0001176714 0.1892741364
-0.4796827791 0.5393462498 -0.2784328432 -0.0577833359 0.0000171820 0.1892740174
-0.2398917587 0.3523533740 -0.4086045330 -0.0566649395 0.0000327039 0.1880987424
-0.2083824096 0.3156737192 -0.3521097786 -0.0562373562 0.0011437420 0.1892944656
-0.3104966456 0.2729424160 0.4687133894 -0.0565988478 0.0000088440 0.1904924475
0.3619335558 0.0085782692 0.3896620825 -0.0575425090 0.0002932024 0.1892566936
-0.1900239643 0.3127873020 0.0920025470 -0.0562909026 0.0011552632 0.1892944331
0.1738965606 0.0132233957 0.1546300395 -0.0565599386 -0.0012008286 0.1893052787
0.3092419305 0.3131051864 0.1912052222 -0.0557411808 0.0008534608 0.1893066155
0.4691758356 0.3832970623 0.4366553823 -0.0553814179 -0.0000325548 0.1892921527
-0.4674861513 0.0680319784 0.1472230674 -0.0577827252 -0.0000167060 0.1892493185
-0.0625737778 0.0132233957 0.0715202212 -0.0565829617 -0.0011994545 0.1893087589
0.4765501615 0.4726918583 0.4289193689 -0.0553892629 -0.0001411369 0.1892963337
-0.0346792627 0.2971973285 -0.3777642625 -0.0565799624 -0.0011946545 0.1891751220
-0.4688329673 0.2550518276 0.1076426421 -0.0577847328 0.0000111389 0.1892750596
0.0361111677 0.0132233957 0.1466022579 -0.0565852902 -0.0011975372 0.1893414327
0.4791693591 0.2928838436 -0.3520477068 -0.0553807302 0.0000038696 0.1893034118
-0.3616210461 0.6464324298 -0.2302211276 -0.0564856351 0.0011978100 0.1892935964
0.3652435509 0.0132233957 -0.3379869155 -0.0565752525 -0.0012018011 0.1892885920
0.1911080182 0.7037773440 -0.4196222194 -0.0565947594 0.0000763254 0.1904901190
0.1223622674 0.3477487676 -0.4032292996 -0.0565960529 0.0000112182 0.1904924271
-0.2265997612 0.2921168313 0.1625499219 -0.0565966335 -0.0012020427 0.1892889755
-0.2877556364 0.2950961561 -0.1206243417 -0.0567323957 -0.0011811846 0.1892855915
0.2445937854 0.0132233945 0.1614975127 -0.0564998010 -0.0011954899 0.1892894587
0.1143114145 0.0753897318 -0.4754263231 -0.0565734793 -0.0002539806 0.1882942395
-0.1002375730 0.2361064246 -0.4796617948 -0.0565632132 0.0000542664 0.1880909863
-0.4710628887 0.3726196379 0.2964432571 -0.0577845813 -0.0000210649 0.1892736580
-0.1651199657 0.7957851744 -0.4303990260 -0.0566025383 0.0000755441 0.1904900673
0.2598288586 0.5648990759 -0.4099004294 -0.0565975543 0.0000786107 0.1904899267
-0.2063745211 0.3152907541 -0.2501637477 -0.0562493451 0.0011458661 0.1892947385
-0.1978994028 0.4363720567 -0.0252331817 -0.0565827634 0.0012021269 0.1892904829
0.3610504879 0.3171170565 -0.4737077301 -0.0565645872 -0.0000019991 0.1880885171
0.4804662821 0.2212282520 -0.3969951382 -0.0553839940 0.0000802191 0.1893014884
-0.2817109205 0.0590653922 0.4593694832 -0.0565921087 -0.0004769967 0.1901584510
0.1416605896 0.0595041529 0.4640499377 -0.0565956814 -0.0004794815 0.1901318624
0.3964968686 0.0132233969 0.0612948050 -0.0564345231 -0.0011908173 0.1892918642
-0.2993418819 0.4028649350 0.1690784505 -0.0577823850 -0.0000491574 0.1892741965
-0.0355699005 0.0974610938 -0.4765596270 -0.0565648445 0.0000000000 0.1880884967
-0.2932809518 0.4698962377 0.2654799056 -0.0553886727 -0.0001348077 0.1893060733
0.1440139417 0.0132233957 0.1510306889 -0.0565864912 -0.0011993043 0.1893304248
0.2300481355 0.0132233957 0.0645897771 -0.0565102511 -0.0011965358 0.1892908147
-0.2172051000 0.4363720567 -0.3470272270 -0.0565827634 0.0012021269 0.1892904829
0.1516892405 0.0132233957 -0.3373162225 -0.0565813989 -0.0011611103 0.1890526169
0.0732359340 0.0132909528 -0.3440877984 -0.0565876644 -0.0011845927 0.1891295795
-0.4632014465 0.0176912108 -0.0711805459 -0.0569033742 -0.0010880883 0.1892860699
0.2980976037 0.4107553231 0.4560682011 -0.0553929066 -0.0001223489 0.1893438490
-0.2460432306 0.2927388238 0.3120733829 -0.0566164986 -0.0012011952 0.1892912162
-0.0268818410 0.3648141043 0.5165362518 -0.0566144695 -0.0000680801 0.1904892066
-0.2429042490 0.4315273772 -0.4207962454 -0.0566296403 -0.0010751955 0.1887600937
0.4700664974 0.3150241945 0.3224671690 -0.0553807783 -0.0000023610 0.1893074978
-0.3695182395 0.7809853817 -0.4318086484 -0.0565871716 0.0000771032 0.1904901118
0.1874297324 0.5827870965 -0.4845011921 -0.0565703466 -0.0000710084 0.1880905235
0.4786172715 0.0132927728 0.4160122432 -0.0563921962 -0.0011646169 0.1892784316
-0.2943697734 0.3607027041 -0.1473664187 -0.0577844202 0.0000173852 0.1892737722
-0.2581648722 0.3339781999 -0.0975338237 -0.0559874196 0.0009518909 0.1892982511
-0.4640288620 0.3291248614 -0.2983780310 -0.0577847376 -0.0000070000 0.1892760225
0.3052012611 0.3633678687 -0.3854073503 -0.0554120961 0.0000113204 0.1890340200
0.4706642225 0.1416790242 0.0717867628 -0.0553807507 0.0000002669 0.1893031437
-0.2598178520 0.3734404141 -0.4090196719 -0.0567545064 -0.0000027733 0.1881067726
0.0705238384 0.2923938843 -0.0379167984 -0.0565850738 -0.0012021161 0.1892873646
0.4774702826 0.1860080034 -0.3761427412 -0.0554568465 -0.0002982645 0.1893144966
-0.4654551411 0.2680233368 -0.1775968935 -0.0577847856 0.0000042255 0.1892762353
-0.1806501131 0.9532199190 -0.5130211090 -0.0565672223 -0.0000123014 0.1880922666
0.1368927488 0.2924902949 -0.1999920472 -0.0565800117 -0.0012020812 0.1892831307
-0.4714273651 0.3689023190 0.3234042582 -0.0577845753 -0.0000198579 0.1892727840
-0.3763781922 0.0132233957 0.0974690267 -0.0567222714 -0.0011916263 0.1892871446
0.4748677416 0.3962653426 0.0672264356 -0.0553822690 -0.0000475934 0.1893069953
0.2458440262 0.2929746607 0.0056046305 -0.0565533353 -0.0012013719 0.1892876050
-0.4028743260 0.0136358117 0.4568504575 -0.0565669818 -0.0011826392 0.1894630687
-0.3223924857 0.6361269651 -0.3937956414 -0.0560194094 0.0010411128 0.1892983208
-0.4082205028 0.4787824678 -0.4862965314 -0.0565702648 -0.0000521411 0.1880896207
0.1178179356 0.4363720567 0.0178387514 -0.0565827634 0.0012021269 0.1892904829
-0.3813595271 0.0132233957 -0.0000675030 -0.0567257984 -0.0011913113 0.1892887711
-0.2712101211 0.2944762181 -0.2334441403 -0.0566445827 -0.0012002179 0.1892815211
0.2875325854 0.6683072645 -0.4886018801 -0.0565666945 -0.0000758795 0.1880908649
0.1732858850 0.6970611645 -0.4920720814 -0.0565691565 -0.0000774134 0.1880909298
-0.0711169161 0.4363720567 -0.1455783066 -0.0565827634 0.0012021269 0.1892904829
0.3379651979 0.8038336422 -0.4236803882 -0.0565991712 0.0000736086 0.1904902392
0.1015598007 0.7295536623 -0.4221585064 -0.0565938530 0.0000778185 0.1904900337
-0.1881056811 0.3126254428 0.0550497931 -0.0562939632 0.0011559652 0.1892944259
-0.3827751661 0.6450943436 -0.1051957501 -0.0566525817 0.0011948949 0.1892904144
-0.4672305959 0.2853454766 -0.0278647793 -0.0577847832 0.0000043769 0.1892761067
-0.4659782093 0.6167613791 0.1270390025 -0.0575757117 0.0006728557 0.1892783763
0.3429531361 0.0132233957 0.2321318674 -0.0564518421 -0.0011916527 0.1892888673
-0.1734135893 0.4363720567 0.1365171070 -0.0565827634 0.0012021269 0.1892904829
0.2820747358 0.4636748429 -0.4036951394 -0.0566489849 0.0000433463 0.1904891958
0.3514807236 0.9817249414 -0.4349971757 -0.0566078013 0.0002663180 0.1904618197
-0.4397960711 0.6323778019 -0.3605871797 -0.0571251522 0.0010601280 0.1892835070
-0.0050170260 0.2931882089 -0.0768180833 -0.0565823474 -0.0012021221 0.1892881532
-0.4765219127 0.1980475962 0.3535308296 -0.0576558347 0.0005260014 0.1892733899
-0.4869110947 0.2451971233 0.4718234082 -0.0568382033 0.0000111690 0.1901575710
-0.0842684594 0.6334438239 -0.4915086578 -0.0565617514 -0.0000745547 0.1880908625
-0.1496861653 0.0132233957 0.2842571671 -0.0565846038 -0.0011653009 0.1895086918
-0.2942863674 0.3869487499 -0.1596042819 -0.0554495989 0.0003391813 0.1893060084
-0.3741830845 0.4190679307 0.4705136814 -0.0565742102 -0.0001094248 0.1904861953
-0.4076372693 0.5253633432 0.4861232267 -0.0567820243 -0.0000630059 0.1904694100
0.2092293248 0.4363720194 0.2604176688 -0.0565827634 0.0012021269 0.1892904829
0.2540989822 0.2934180471 0.4392927754 -0.0565425991 -0.0012009957 0.1893035585
0.2252983074 0.0132233957 -0.2066430354 -0.0564789597 -0.0011780411 0.1893219991
-0.3232615946 0.1269564825 -0.4814963149 -0.0565710727 0.0000000000 0.1880884222
0.2478747623 0.8697446661 -0.4293297017 -0.0566007664 0.0000756258 0.1904900877
-0.2252648486 0.8263835734 -0.4331592067 -0.0566017281 0.0000741231 0.1904901719
0.4821022578 0.4708188545 -0.0393037486 -0.0553888554 -0.0001361757 0.1893065758
-0.1932681080 0.2924879471 -0.0030936579 -0.0565924297 -0.0012020596 0.1892871050
-0.2895105481 0.4825694909 0.1349993521 -0.0553900347 -0.0001474769 0.1893062645
0.3783579521 0.8756878720 -0.5009679237 -0.0565597775 -0.0000746725 0.1880908998
-0.4116162335 0.8296439326 -0.4354280889 -0.0567399475 0.0000851394 0.1904715858
0.2130558581 0.3147628425 -0.0505192282 -0.0569102636 0.0011472738 0.1892863392
0.2403574698 0.2926476040 0.0370045175 -0.0565594313 -0.0012016376 0.1892877806
0.2422396820 0.4363720567 -0.2790731969 -0.0565827634 0.0012021269 0.1892904829
0.4847920383 0.5339279466 0.3675462393 -0.0553815405 -0.0000120333 0.1893008970
0.0582056154 0.4363720567 -0.3617292159 -0.0565827634 0.0012021269 0.1892904829
-0.4700418442 0.4463664241 -0.0805952550 -0.0577792270 -0.0001141984 0.1892760322
-0.0360904815 0.0136907069 -0.4129585380 -0.0565746682 -0.0011596401 0.1890157549
-0.2951286232 0.4615988178 0.3113261985 -0.0553877182 -0.0001260550 0.1893058197
0.1344186815 0.0132233957 0.2954014843 -0.0565867700 -0.0011693906 0.1894985038
0.0185172679 0.9699060327 -0.5107875188 -0.0565651245 0.0000731518 0.1880941912
-0.1601199943 0.2921168313 0.2896089206 -0.0565873218 -0.0012020752 0.1892911405
0.2954892660 0.4671260409 0.1272821255 -0.0577776354 -0.0001279604 0.1892753758
-0.2766028346 0.0132233957 -0.0501554129 -0.0566962610 -0.0011901369 0.1892891233
-0.3372794999 0.8624200854 -0.4369468897 -0.0565920402 0.0000749586 0.1904902200
0.2298650901 0.0132233957 -0.3831487403 -0.0565796294 -0.0011501469 0.1889960400
-0.4284617108 0.0358179798 -0.4991704567 -0.0560278315 0.0001324011 0.1882373392
-0.4601880582 0.0923592085 -0.3071862671 -0.0577848061 0.0000003979 0.1892763014
0.1803219673 0.4705123422 -0.4058078858 -0.0565972502 0.0000540813 0.1904912622
-0.4614745624 0.0132233957 0.3734096529 -0.0566516536 -0.0011969758 0.1892876615
-0.1464500013 0.0132233957 0.0841982336 -0.0566127877 -0.0011998813 0.1892892532
-0.2309957709 0.7119751244 -0.4986120952 -0.0565672271 -0.0000769445 0.1880909226
0.4773375161 0.4713059347 0.3291806702 -0.0553890490 -0.0001384838 0.1893050467
-0.2838797967 0.5761657143 -0.1256643007 -0.0554149007 0.0002621466 0.1893050683
-0.2837425174 0.3558300692 0.3475639983 -0.0557076474 0.0006772278 0.1892995470
-0.0115031293 0.4363720567 0.1117345618 -0.0565827634 0.0012021269 0.1892904829
0.4807129958 0.2064862756 -0.2992884306 -0.0554093889 0.0002066925 0.1893060913
0.4282937256 0.0132233957 0.1555828260 -0.0564160404 -0.0011891523 0.1892905478
-0.0045367283 0.3017338463 0.1604651826 -0.0565795958 0.0012020451 0.1892905274
-0.4699605852 0.2571863109 0.2031157126 -0.0577847147 0.0000117544 0.1892743324
0.2844251343 0.3545228007 0.0319448857 -0.0574408728 0.0006948738 0.1892792515
0.2912066518 0.5289927626 -0.1403237704 -0.0577829079 -0.0000297935 0.1892755092
0.1663451879 0.7103946185 -0.4202653621 -0.0565938926 0.0000768508 0.1904900950
-0.1733729863 0.2922920618 0.4291228289 -0.0565906601 -0.0012020055 0.1893003933
-0.4366896838 0.3007011532 -0.4837978481 -0.0568162741 0.0000014113 0.1881154640
0.2983040353 0.3880520439 0.4166961801 -0.0553816114 -0.0000180608 0.1893263640
0.2125319820 0.2936581383 -0.2431632159 -0.0565728759 -0.0012019261 0.1892766164
0.4078801674 0.1395265739 -0.4706771730 -0.0566045423 0.0000156096 0.1880900811
-0.3892971300 0.6444664270 -0.1499166455 -0.0567225010 0.0011926589 0.1892888925
0.3127873020 0.6232270666 0.2121492044 -0.0574233794 0.0008273266 0.1892792382
-0.2260586611 0.7537878477 -0.5010999930 -0.0565680205 -0.0000760802 0.1880908589
-0.0090277180 0.2849245771 0.4717902992 -0.0565970855 0.0000005398 0.1904925221
0.3143967540 0.3127396461 -0.0956421100 -0.0556839583 0.0007805530 0.1893009150
0.4748018903 0.3441383875 0.0208411150 -0.0553808565 -0.0000117604 0.1893070410
-0.3573629576 0.6437528108 0.1627016531 -0.0563749168 0.0011704172 0.1892938164
-0.3032143281 0.6119183129 0.2941748052 -0.0556030420 0.0006669797 0.1893042232
0.1528521492 0.2948908617 0.4977044101 -0.0565666320 -0.0011567478 0.1895807401
0.2665952245 0.3328074028 -0.0967584110 -0.0571647154 0.0009653572 0.1892827545
0.1332151061 0.3049577944 -0.1536461443 -0.0567288518 0.0011862263 0.1892884658
0.4527957930 0.0132233957 0.2805930796 -0.0563995833 -0.0011875535 0.1892886978
-0.0000511445 0.3091994474 0.4719233963 -0.0565946199 -0.0004200929 0.1904045312
0.4871229575 0.5879454794 -0.4088778799 -0.0560750655 0.0000585063 0.1885192596
0.0205084468 0.4363720567 0.0047423809 -0.0565827634 0.0012021269 0.1892904829
-0.4740555859 0.1985820017 0.2489493495 -0.0576983323 0.0004445489 0.1892750945
-0.4640702801 0.2446465407 -0.2946081780 -0.0577843950 0.0000117292 0.1892760334
-0.3023659463 0.4092042020 0.3773803248 -0.0577736155 -0.0001144064 0.1892805437
-0.1179377059 0.9428196582 -0.5119765124 -0.0565659288 -0.0000554866 0.1880910849
-0.0105977282 0.4363720567 -0.3732535350 -0.0565827634 0.0012021269 0.1892904829
-0.0845364135 0.3026802532 -0.4123989660 -0.0565723626 -0.0010741304 0.1888089169
0.1476752234 0.0871012606 -0.4749050148 -0.0565708310 -0.0000768712 0.1881405079
-0.3056098328 0.6146578771 0.4460926181 -0.0556229408 0.0006868713 0.1891681449
0.3372912760 0.3283661583 -0.4742835537 -0.0565696313 -0.0000043998 0.1880884546
0.1663862754 0.0132233957 0.2798693559 -0.0565860548 -0.0011706949 0.1894877375
-0.4667095448 0.4348996268 -0.2598106620 -0.0577807237 -0.0000964911 0.1892758110
0.3073207947 0.3414049866 -0.2924270846 -0.0553832667 0.0000527000 0.1892899276
0.0368389726 0.3437630162 0.5140856632 -0.0565731644 -0.0001510569 0.1904824819
-0.1581998310 0.5066466593 -0.4121113475 -0.0565984920 0.0000586373 0.1904909942
0.4688147719 0.1398018021 0.2179407680 -0.0553809238 0.0000178672 0.1892968338
0.4789804629 0.3757524755 -0.3327663514 -0.0553809526 -0.0000226180 0.1893037063
-0.2457715896 0.3227012905 -0.2741321429 -0.0561308262 0.0010918918 0.1892962580
-0.3414818807 0.0132233957 -0.0784074129 -0.0567601119 -0.0011787732 0.1892883492
0.1553388003 0.4914260777 -0.4073341338 -0.0565951573 0.0000594187 0.1904910398
-0.3517923714 0.6434591024 -0.0499884002 -0.0563430172 0.0011624747 0.1892951869
0.1531018718 0.3074950346 -0.0616216777 -0.0567808919 0.0011758015 0.1892878298
-0.2985706875 0.3522514973 -0.4822721508 -0.0565676815 -0.0000096122 0.1880885111
-0.4560032863 0.5172983293 -0.4638235676 -0.0576714443 0.0000184815 0.1888360117
0.2524079407 0.4363720194 -0.2237970794 -0.0565827634 0.0012021269 0.1892904829
0.3085996317 0.6453962698 -0.4147702021 -0.0566018832 0.0000790819 0.1904898473
0.4448303079 0.8451830947 -0.4952123302 -0.0560603635 -0.0000393276 0.1882950257
-0.4052783598 0.7576376037 -0.5038986946 -0.0566446729 -0.0000722106 0.1880976942
-0.1740718452 0.2921168313 0.2353050592 -0.0565901252 -0.0012020728 0.1892907943
0.4797664604 0.2230526094 -0.3298776958 -0.0553828087 0.0000633797 0.1893046524
0.2977836081 0.3750905496 0.4504466038 -0.0576977577 0.0004401780 0.1892328890
-0.0420767825 0.3048643723 -0.4785043510 -0.0565673833 0.0000000000 0.1880884546
-0.2361580968 0.2924392093 0.1375550774 -0.0566068143 -0.0012016148 0.1892886281
-0.2863360532 0.6623047012 -0.4961775395 -0.0565680457 -0.0000764637 0.1880908817
-0.0765378640 0.4363720567 -0.3610511478 -0.0565827634 0.0012021269 0.1892904829
0.1928971208 0.6785826460 -0.4906026604 -0.0565688307 -0.0000770010 0.1880909082
-0.2992248909 0.4223157782 0.0733103420 -0.0577498314 -0.0002834351 0.1892756823
0.4744807037 0.0132233957 -0.2969200567 -0.0562014451 -0.0011376183 0.1892964094
-0.0949913049 0.1902568655 -0.4853965507 -0.0565674302 -0.0011413942 0.1889588822
0.4754541668 0.3819850598 -0.0126755456 -0.0553814155 -0.0000306506 0.1893068307
0.2124692851 0.4363720939 0.1854470020 -0.0565827634 0.0012021269 0.1892904829
0.2482214256 0.3190924142 0.0023472621 -0.0569875050 0.0011302169 0.1892856227
-0.2866491123 0.5801156592 0.0617140708 -0.0554183845 0.0002887172 0.1893056514
-0.1071261038 0.0132233969 0.1636679431 -0.0565839883 -0.0011817280 0.1894062730
0.2062948850 0.3142368386 0.1536855633 -0.0569010216 0.0011492946 0.1892864919
-0.2840427197 0.3615096859 -0.0356925811 -0.0556372269 0.0006100313 0.1893026220
-0.1399116488 0.3884876538 -0.4074974595 -0.0565686612 -0.0000195418 0.1880887215
0.4694119465 0.1612216570 0.1720079556 -0.0553809647 0.0000086120 0.1892992813
-0.1776681291 0.0132233957 0.2795798393 -0.0565849140 -0.0011697139 0.1894911203
-0.0723920409 0.8419175266 -0.4316641792 -0.0566034003 0.0000760429 0.1904900192
0.0075138388 0.2932169349 0.2268012101 -0.0565834906 -0.0012021245 0.1892904721
0.4687889815 0.3318055443 0.4495846668 -0.0553811738 -0.0000078102 0.1892842174
-0.2447913585 0.0132233957 -0.1519504446 -0.0567638409 -0.0011694326 0.1892882891
0.0035328249 0.2933111804 -0.0514959382 -0.0565827129 -0.0012021233 0.1892885655
-0.4659858032 0.4428144482 -0.3746988907 -0.0577804003 -0.0001021856 0.1892774122
-0.4661728649 0.3017777047 -0.1170678169 -0.0577848013 0.0000011661 0.1892763147
-0.0940616125 0.7358412030 -0.4982583694 -0.0565621264 -0.0000778245 0.1880910596
-0.2879832724 0.3710397186 -0.3685313871 -0.0555142817 0.0004872076 0.1893066600
-0.4670373709 0.4187789551 -0.1815119142 -0.0577817587 -0.0000765346 0.1892759432
0.2876722124 0.3935988208 0.4793161388 -0.0560577873 -0.0001479746 0.1903552356
-0.4729684701 0.3582492906 0.3996881103 -0.0577844154 -0.0000164884 0.1892633846
