-0.4416023837 0.7848332750 0.4099275462 0.0007700789 0.0000485551 0.0017982261
-0.4999999411 0.3055478337 0.4037921207 -0.0018947423 0.0000015817 0.0001366559
0.5000000000 0.0273876010 -0.4070704988 0.0018779704 -0.0000056141 0.0002898935
-0.4316763957 0.9543725673 -0.1559845003 0.0000000295 0.0019010930 0.0000879468
0.5000000000 0.5738071354 -0.3931489141 0.0018807613 -0.0000046369 0.0002522737
-0.1871116287 0.9391634427 0.0383102145 0.0000018489 -0.0018806083 0.0002855893
0.4764097105 0.2254721369 -0.4269456212 0.0004202994 0.0000492414 -0.0017733649
0.2649119701 0.8929944112 0.3700458318 0.0000000295 -0.0009134733 -0.0015879048
-0.4778165640 0.5234413570 0.3754132992 -0.0003715447 -0.0000503061 -0.0017790436
0.4955329470 0.8431107051 0.3042611931 0.0000980656 -0.0002397547 -0.0013735931
-0.4018059545 0.7265845617 -0.3915562849 -0.0000022329 -0.0005608517 -0.0016538934
-0.3649260441 0.9429657239 0.2044959290 0.0000000295 -0.0019011406 0.0000787015
-0.1468535797 0.8105969541 0.3784056754 0.0000000295 0.0000000000 -0.0018224391
-0.3137732771 0.9543725673 -0.2740107918 0.0000000295 0.0019011406 0.0000787015
0.4862765179 0.9407372449 -0.1677180719 -0.0015835750 -0.0009361901 0.0000830152
0.4334812853 1.0885611355 0.1176644893 -0.0013700465 0.0013013783 0.0000031901
0.1627280294 0.9486691456 -0.0013336634 -0.0000008755 0.0019009467 0.0000712015
-0.0782511047 0.9072338781 -0.3618936365 0.0000009534 -0.0010438840 0.0016612547
-0.4315871637 0.9429656650 -0.1137510750 0.0000000295 -0.0019011406 0.0000787015
0.4464471077 1.0586672551 0.1940997775 -0.0004799040 -0.0018332280 0.0001897757
-0.4295590517 0.1212372799 -0.4161453576 0.0015227556 0.0000281217 -0.0010312718
0.2737560913 0.7608904951 -0.3915562564 0.0000027310 0.0000542662 -0.0018206482
0.1898731951 0.9543725673 0.2940566614 0.0000000295 0.0019011406 0.0000787015
-0.4705667242 0.2989674082 -0.3799416202 -0.0000938070 -0.0000515266 0.0019755303
-0.5000000000 0.0210947915 0.4062369513 -0.0018688373 -0.0000076198 -0.0002161312
-0.4773829937 1.0992707166 0.3013176400 -0.0003748412 0.0017860988 0.0005571216
0.3829282540 0.9383424276 -0.3437685748 0.0000000295 0.0016053744 -0.0009396615
-0.3448831612 0.9543725673 -0.1122343204 0.0000000295 0.0019010664 0.0000929487
0.4294895460 0.6560372085 0.3856144963 -0.0015780598 -0.0000280855 -0.0009674391
0.4774488454 0.9543725673 0.0125873072 0.0000000295 0.0018719866 0.0003578080
-0.0724452666 0.9543725673 -0.1683336745 0.0000000295 0.0019010987 0.0000866673
-0.3698840780 0.9429657239 -0.1114258946 0.0000000295 -0.0019011406 0.0000787015
0.1850581630 0.9410645833 0.0098558245 0.0000002785 -0.0017721558 -0.0005786502
-0.3526383965 0.9543725084 0.2217386067 0.0000000295 0.0019011178 0.0000758308
-0.2711902359 0.7931157213 -0.3782482724 0.0000009762 -0.0000456407 0.0019789314
0.0696397326 0.9429657239 -0.0949508328 0.0000000295 -0.0019011406 0.0000787015
0.4767416040 0.8538289896 0.3688999726 0.0002946074 0.0000000000 0.0019567546
0.4333688746 0.8693762434 0.3784968807 0.0012560997 0.0000250304 0.0014995075
-0.1059354282 0.7260977310 -0.3915562564 -0.0000001036 -0.0005906692 -0.0016449334
-0.2419052700 0.9429657239 -0.2262890475 0.0000000295 -0.0019011406 0.0000787015
0.3252224457 0.7690186714 0.3917136594 0.0000031549 0.0000813650 0.0019771273
-0.4149020278 0.9416543970 0.0457060791 -0.0000885922 -0.0016451881 0.0008787623
0.3031597759 0.9543725673 -0.2566731522 0.0000000295 0.0019011406 0.0000787015
-0.3148460927 0.8348726998 0.3898125189 0.0000000295 0.0000000000 0.0019798421
-0.4999111730 0.8951184568 -0.3169616980 -0.0018901510 0.0000114335 -0.0000979106
-0.4512802253 0.7532651628 -0.4129296125 0.0004418184 0.0000512148 -0.0017662109
-0.4481480259 0.8808217846 -0.4089189873 0.0005657975 0.0000505741 -0.0017292927
0.4830395961 0.8083472984 0.3554421273 -0.0011616321 0.0000000000 -0.0013589847
0.4878534247 0.6427802226 0.3758291452 0.0009574762 -0.0000441027 -0.0015454010
-0.5000000000 0.9046841520 -0.1793446891 -0.0019011111 0.0000000000 0.0000787015
-0.0063472496 0.8915233011 -0.3687983547 0.0000000295 -0.0007707965 0.0018165360
-0.4632203444 0.3265341214 -0.4266390528 -0.0000055504 0.0000505190 -0.0018153440
-0.4314590611 0.9662928727 -0.3912455682 0.0014854780 0.0003206255 -0.0010612395
-0.3174819746 0.9429657239 -0.0413802086 0.0000000295 -0.0019011406 0.0000787015
-0.2905863013 0.9543725673 0.0857010843 0.0000000295 0.0019008649 0.0000499411
-0.2299387973 0.9543725673 -0.1370429197 0.0000000295 0.0019010797 0.0000901711
0.2036076125 0.9429657239 -0.0676034010 0.0000000295 -0.0019011406 0.0000787015
-0.0167555703 0.9543725673 -0.2535100573 0.0000000295 0.0019011406 0.0000787015
-0.0597570107 0.9486691456 -0.0334736178 -0.0000037025 0.0019009276 0.0000640247
0.4427008133 0.9505702862 0.0368393628 0.0000000295 0.0016942261 0.0003881007
-0.2491679159 0.9543725673 0.2001405015 0.0000000295 0.0019011178 0.0000749239
-0.1593003262 0.9543725673 -0.0257601411 0.0000000295 0.0018752737 0.0001923137
-0.1834469521 0.9429657239 -0.1737050012 0.0000000295 -0.0019011406 0.0000787015
-0.2280312898 0.9486691456 0.0637321654 -0.0000023279 0.0019005721 0.0001205741
-0.4267309530 1.0672746044 0.0316124810 0.0018190465 -0.0004188232 0.0001018878
-0.3997067112 0.8740746158 -0.3863230723 -0.0000005865 0.0002931007 -0.0017969676
-0.3715086730 0.9447308112 0.3367166056 0.0000000295 0.0016467014 0.0010277471
-0.4307419547 0.0346742109 -0.4200396273 0.0014153583 0.0000315437 -0.0011716159
0.4285433844 0.6355869511 0.3875622243 -0.0016393887 -0.0000256901 -0.0008729638
0.0939194517 0.7748609315 0.3801697190 -0.0000015808 -0.0001264201 -0.0018182280
-0.4885930976 0.8584088886 0.3163136049 0.0018996358 0.0000032909 0.0000375703
0.4940362513 0.8688212416 -0.0274307018 -0.0001931587 -0.0009815931 0.0001180931
-0.0034805122 0.9495750999 -0.3232043707 0.0000000295 0.0017664638 -0.0006217167
0.3248834742 0.9354913536 0.3496283254 0.0000000295 0.0016118668 0.0010867737
0.3513613301 0.8989941314 0.3667126571 0.0000000295 -0.0009669087 -0.0015558231
0.4866920160 0.7990277191 -0.3460460804 -0.0018998202 0.0000000000 0.0000886616
0.4255432934 0.8803858949 -0.3675249993 -0.0009496093 -0.0002496045 0.0017046444
0.2508133132 0.8132733931 0.3898125189 0.0000000295 0.0000000000 0.0019798421
0.4996081445 1.0583433977 -0.2600307527 0.0018143469 0.0005059296 0.0000459734
0.1479604941 0.7393944602 -0.3801494130 -0.0000006721 -0.0000001046 0.0019798421
-0.4267773979 0.9429657239 -0.1726692009 0.0000000295 -0.0019011406 0.0000787015
0.3341966162 0.8886312100 0.3723029724 0.0000000295 -0.0007827794 -0.0016464201
-0.1358650766 0.9543725673 0.0067757544 0.0000000295 0.0018857965 0.0000425932
0.5000000000 0.9105645870 -0.3025215753 0.0019011700 0.0000000000 0.0000787015
0.4885931566 0.7268916530 0.3341619480 -0.0017781491 -0.0002939734 0.0000453061
0.2111547376 0.8049655913 -0.3896551158 -0.0000007025 0.0000001654 -0.0018224391
-0.4647958272 0.6571462274 0.4184865666 -0.0000917899 0.0000523270 0.0019718535
0.4735201137 1.0581210707 0.2104660028 0.0003632234 -0.0018625968 0.0001873802
0.3604501147 0.9543725673 0.1231361581 0.0000000295 0.0019011235 0.0000721673
0.3094267869 0.9429657239 0.1687500566 0.0000000295 -0.0019011406 0.0000787015
0.0304178147 0.7435319125 0.3803068160 -0.0000013051 0.0000000000 -0.0018224353
0.4280756715 1.0637325913 -0.1704373284 -0.0016594153 0.0009201273 0.0000217395
0.4613274129 0.3220132852 -0.3793277020 -0.0000338964 -0.0000516977 0.0019780094
-0.1199964578 0.9543725673 0.1275846750 0.0000000295 0.0019010227 0.0000644049
-0.1120066693 0.9429657239 0.1068090431 0.0000000295 -0.0019011406 0.0000787015
-0.4978649868 0.1654104427 -0.3974073340 -0.0015321472 -0.0000286008 0.0011546368
-0.4282114035 0.5727108237 0.4024855219 0.0016642651 0.0000239259 0.0009874524
0.2021257552 0.7263860237 -0.3915562564 0.0000019401 -0.0005720950 -0.0016508440
0.2728446826 0.9429656650 -0.1806653278 0.0000000295 -0.0019011406 0.0000787015
-0.3869619097 0.9429657239 -0.2797983675 0.0000000295 -0.0019011406 0.0000787015
0.4355914943 0.4471763082 0.3838758633 -0.0012275940 -0.0000382186 -0.0013607319
0.4508265542 0.7532782750 -0.4128385232 -0.0004274781 0.0000518821 -0.0017714999
-0.4811380486 0.1586554260 0.3855091351 -0.0005783032 -0.0000488954 -0.0017237356
0.4507102272 1.0310633518 -0.3665451001 -0.0004129705 0.0012428592 -0.0012860437
-0.4540015997 0.5229576004 0.4201491368 0.0003777481 0.0000501331 0.0019410056
0.4885931566 0.9225697726 -0.1359453304 -0.0019011111 0.0000000000 0.0000787015
-0.4555953581 0.1962552983 0.3829767265 0.0001195428 -0.0000500038 -0.0018171957
-0.3955884339 0.9543725673 0.2108415389 0.0000000295 0.0019010759 0.0000721160
0.4804910601 0.0852105634 -0.4298505925 0.0004844439 0.0000487547 -0.0017578288
0.1977828315 0.9486691456 0.0598185896 -0.0000001625 0.0019009086 0.0001009392
-0.4273695594 0.9505702862 0.0173336872 0.0000000295 0.0017004315 0.0007994733
0.4356205038 0.8469009197 -0.3768079702 0.0011372556 0.0000000000 -0.0014426976
-0.3316326164 0.9429657239 0.1288216236 0.0000000295 -0.0019011406 0.0000787015
-0.4984179012 0.1679702772 0.3984547370 -0.0016880902 -0.0000205304 -0.0007078251
-0.4848972214 1.0606865211 0.3637419805 -0.0007649020 0.0012233117 0.0013012376
-0.0019145712 0.9358555931 0.3488997627 0.0000000295 0.0016110379 0.0010880893
-0.1023416489 0.9244965558 0.3455440481 0.0000000295 -0.0014973060 -0.0010817908
-0.0165528023 0.9543726263 -0.0611335743 0.0000000295 0.0019010360 0.0000986711
0.1370265575 0.7186311364 -0.3811349110 -0.0000001264 -0.0010560874 0.0013854448
-0.4866919571 0.8463905908 -0.3382926131 0.0018937784 0.0000013194 0.0002352243
0.2094824791 0.9543726263 -0.2343858797 0.0000000295 0.0019011368 0.0000792700
-0.4308917588 0.4255509502 0.3894680075 0.0014980503 -0.0000308061 -0.0010824866
-0.4882359380 0.8892450997 -0.3670200088 -0.0010033640 0.0000275475 -0.0015259524
0.4095744483 0.9288519833 -0.3376318147 0.0000004059 -0.0015766444 0.0011408745
-0.4747816308 0.9391634427 -0.0181556928 -0.0000178089 -0.0018934866 0.0001548935
-0.0651867462 0.7186311364 -0.3806483407 -0.0000000504 -0.0010562262 0.0015206710
-0.4586355709 0.6581209897 -0.3703739839 0.0001385542 -0.0000526388 0.0019699181
-0.4675419164 0.7374932607 -0.4151349128 -0.0001202196 0.0000531730 -0.0018051083
0.4972488918 0.3125286432 0.3929650833 0.0015338241 -0.0000289182 -0.0010177319
-0.4885930976 0.9287456943 0.1347313571 0.0019006852 -0.0000058080 0.0000786255
0.0259306800 0.7982974434 -0.3782482724 0.0000004401 -0.0000198384 0.0019794467
-0.2382776086 0.9003653918 -0.3652503663 0.0000006492 -0.0007854467 0.0018098725
0.0697858067 0.7397038138 0.3917136879 0.0000020960 0.0000000000 0.0019798326
0.4884558847 0.9145008320 0.3691077938 0.0010447709 -0.0000429373 -0.0014885703
-0.2675108939 0.9534631320 0.0523189399 0.0000000295 0.0016212794 0.0008848079
-0.1348423466 0.9543725673 -0.0511818525 0.0000000295 0.0018748763 -0.0002316255
-0.2281926529 0.9543725673 0.2997238797 0.0000000295 0.0018962090 0.0001775760
-0.4999999411 0.8085722946 -0.3949766326 -0.0018074951 0.0000142148 -0.0004329467
-0.4440383056 0.5582807675 -0.4164056865 0.0006714914 0.0000486141 -0.0016924885
0.4657933366 0.3058125124 0.3801396069 0.0000261226 -0.0000509030 -0.0018209067
-0.4791146058 0.8409075227 0.4108923313 -0.0005409135 0.0000512072 0.0018942965
0.4661328005 0.2520839414 -0.3811905498 0.0000595979 -0.0000513726 0.0019751938
-0.4287849434 0.2560826712 0.3970080526 0.0016174780 -0.0000260608 -0.0009112737
0.1924713090 0.9287850308 -0.3377321873 0.0000004363 -0.0015762128 0.0011415056
-0.0967651644 0.9543726263 0.2083638870 0.0000000295 0.0019011349 0.0000767243
0.3670199508 0.9464686305 0.0666186215 0.0002906987 0.0000000000 0.0019389257
-0.0240201307 0.9505940733 0.3212760761 0.0000000295 0.0017818858 0.0007373992
0.4328631599 0.3009849043 0.4158197607 -0.0013739191 0.0000347738 0.0013843478
-0.4477049993 0.2021624368 -0.3842565211 0.0005810484 -0.0000476597 0.0018826425
0.4262696222 1.0756997750 0.2968728057 -0.0018592347 -0.0001781426 0.0000443745
0.2342912077 0.9543725673 -0.1939371388 0.0000000295 0.0019011140 0.0000838004
0.4866920160 0.8824119480 0.3360962464 -0.0018946833 -0.0000412681 -0.0000368460
-0.2074291979 0.8474469291 0.3898125474 0.0000000295 0.0000000000 0.0019798421
0.0408715632 0.9360367262 0.3485373806 0.0000000295 0.0016106254 0.0010887433
0.4933024947 0.3711901834 -0.3865292985 0.0012316130 -0.0000379240 0.0015123421
-0.4016619830 0.9411400073 -0.0456241760 0.0000032082 -0.0015981197 -0.0009438517
-0.4879788581 0.9123250907 -0.3699057177 -0.0009908944 -0.0000447643 0.0016927451
-0.4107653874 0.8663311581 0.3781432591 0.0000011226 -0.0002673935 -0.0018030341
0.4371771900 0.9429657239 0.1094248320 0.0000000295 -0.0019011406 0.0000787015
0.2858824480 0.9051248573 -0.3754775254 0.0000007215 0.0009160950 -0.0015869790
0.4374056083 0.9429656650 -0.1542891639 0.0000000295 -0.0019011406 0.0000787015
-0.4257037420 0.9429656650 -0.1350643666 0.0000000295 -0.0019011406 0.0000787015
0.1055198807 0.7854573187 -0.3784276640 -0.0000002766 -0.0001219468 0.0019756767
-0.4434758493 0.1703335337 0.3862531597 0.0006434933 -0.0000481407 -0.0016976957
0.4866920160 0.7553625791 -0.3469260993 -0.0018901415 0.0000000000 0.0001631616
-0.3299737591 0.9429657239 -0.1044942847 0.0000000295 -0.0019011406 0.0000787015
0.2307003448 0.9512021626 0.3188441276 0.0000000295 0.0017980988 0.0006802452
0.5000000000 1.0613370211 -0.1318545835 0.0018889153 0.0001088365 0.0000716445
0.3595002992 0.9429657239 0.2844839186 0.0000000295 -0.0019011406 0.0000787015
0.4601920556 0.9675151996 -0.4034797519 -0.0000523774 0.0004952357 -0.0017470170
0.3145782239 0.9429656650 -0.2931385531 0.0000000295 -0.0019011406 0.0000787015
0.3257091605 0.9512250219 -0.0195874038 0.0000000295 0.0015771539 0.0011003478
0.4291251335 0.0207151756 -0.4179554107 -0.0016693393 0.0000210209 -0.0007948688
-0.4437098075 0.2434410845 -0.3843876427 0.0007124515 -0.0000463517 0.0018382642
-0.2798831023 0.9304872265 0.3563870988 0.0000000295 0.0013832661 0.0013740398
0.3867402823 0.9543725673 -0.1163739988 0.0000000295 0.0019010683 0.0000924848
0.2244259383 0.9543725673 -0.0450259650 0.0000000295 0.0018754486 0.0001735209
0.0592027864 0.9300679870 -0.3567887299 0.0000000295 0.0013635760 -0.0012413897
0.2853751077 0.9429657239 0.0692242773 0.0000000295 -0.0019011406 0.0000787015
-0.4198895047 0.9543725673 0.2980853874 0.0000000295 0.0018978345 0.0001449696
0.4978750838 0.3287286023 -0.4115476773 0.0015486263 0.0000277148 -0.0009793992
-0.4999999411 0.5525550074 -0.4009277045 -0.0018405084 0.0000104125 -0.0003109563
-0.4611500802 1.0171328336 -0.3794968236 0.0000402804 0.0011471996 -0.0014257889
-0.0079660594 0.9486691456 -0.0339137299 -0.0000024971 0.0019008858 0.0000616559
-0.2106080456 0.9515924515 -0.0350207831 0.0000000295 0.0015094068 -0.0010362699
0.4049706463 0.9134599842 -0.3711379971 0.0000020542 0.0011773973 -0.0014091482
0.4868265597 1.0385818152 -0.1677638627 0.0008164705 -0.0016950969 0.0001849715
-0.4980988005 0.9401791100 -0.1027564806 -0.0018933449 0.0001530095 0.0000830627
0.2310642649 0.9543725673 0.0920469280 0.0000000295 0.0019011006 0.0000691046
0.4914360480 0.5182998402 0.4136718102 0.0011650997 0.0000409335 0.0015699638
0.4976066332 1.0492109838 -0.3179164737 0.0015686320 0.0009049296 -0.0003453707
0.0863897772 0.9403927316 -0.3137240214 0.0000000295 -0.0018193649 0.0006288726
0.4412146480 0.2433461092 0.4236939332 -0.0008031340 0.0000454392 0.0017842071
0.0127461732 0.9271607514 0.3593658990 0.0000005675 0.0013139695 0.0014513954
0.4500722007 0.9543725673 -0.1657757545 0.0000000295 0.0019010531 0.0000902509
-0.3117075396 0.7893068261 -0.3782482724 0.0000013698 -0.0000646065 0.0019785550
0.3584838772 0.9258956070 0.3441048181 0.0000000295 -0.0014947414 -0.0010946824
-0.4999999411 1.0834469457 0.1756327995 -0.0018620046 0.0003463498 0.0000587433
-0.2687539927 0.9543725673 0.2132726775 0.0000000295 0.0019011349 0.0000769582
-0.4861549989 0.3845691522 0.3816534186 -0.0008329648 -0.0000462662 -0.0016180360
-0.4755476744 0.9429657239 -0.2834937209 0.0000000295 -0.0019011406 0.0000787015
0.2518067884 0.9543725673 0.2557088614 0.0000000295 0.0019011406 0.0000787015
-0.4999999411 1.0517828144 -0.1983466081 -0.0018680750 -0.0002926274 0.0000978745
0.4646079660 0.4928371002 0.3752963638 0.0000107481 -0.0000519810 -0.0018214029
-0.4057316691 0.9543725673 0.1124659420 0.0000000295 0.0019008687 0.0000515114
-0.4999999411 0.8870424972 0.0134566304 -0.0018929115 -0.0000328023 0.0000814354
-0.4801808643 1.0299289811 -0.2671332257 -0.0005552100 -0.0018035132 0.0001942319
0.4328232435 0.3153044662 -0.3900703515 -0.0012976739 -0.0000368859 0.0014593326
-0.0945645980 0.7771289789 -0.3907598990 0.0000000941 0.0001143061 -0.0018188307
0.4097635586 0.7393315686 0.3800522324 -0.0000655086 0.0000000000 -0.0018148345
-0.0627964687 0.9429657239 0.0728373398 0.0000000295 -0.0019011406 0.0000787015
0.4409295187 0.0183805693 -0.3913120587 -0.0008387100 -0.0000440114 0.0017712090
0.5000000000 0.7789072374 0.3103584418 0.0013359990 -0.0000333574 -0.0010345113
0.1189471137 0.9486691456 0.0186189837 -0.0000029553 0.0019010664 0.0000831901
-0.4866919571 0.8212278052 -0.3441298257 0.0018999039 0.0000000000 0.0001037414
0.4302823653 0.0859091242 -0.4180913461 -0.0015847898 0.0000251673 -0.0009445589
-0.4991490457 0.9343283214 0.1591871617 -0.0018902024 0.0001875038 0.0000700836
0.4923977590 1.0594912284 0.1094922407 0.0012712708 -0.0014012851 0.0001637072
-0.0454237302 0.9429657239 0.1907565078 0.0000000295 -0.0019011406 0.0000787015
0.3463768132 0.9543726263 -0.0042016556 0.0000000295 0.0018766045 0.0003641198
-0.2993302248 0.9429657239 0.2319195110 0.0000000295 -0.0019011406 0.0000787015
-0.4423382867 0.2100498241 0.4251024997 0.0008172538 0.0000450133 0.0017805417
-0.4817696931 0.0027743782 -0.3894311082 -0.0005041454 0.0001018783 0.0018947756
-0.4791422218 0.7435728155 0.4133924528 -0.0005252367 0.0000507319 0.0018996083
-0.4470996951 0.3992139632 0.4219541995 0.0005472918 0.0000488080 0.0018945056
-0.4334026693 0.4654007558 -0.4119457970 0.0012770750 0.0000373251 -0.0013180532
-0.4925961221 0.5760825516 -0.4111441887 -0.0011406473 0.0000409715 -0.0014261501
0.4773494899 1.0306286807 -0.2466530596 0.0003704192 -0.0018560816 0.0001955646
-0.4999999411 0.8834026666 0.1757125030 -0.0013186891 -0.0011517167 0.0001484658
-0.4291400137 0.8731679067 -0.3665707731 0.0010275522 -0.0001844163 0.0016580969
0.1134531083 0.7926822099 0.3784056754 -0.0000005238 -0.0000907528 -0.0018194334
-0.4291654547 1.0537517212 -0.1036714996 0.0015975389 -0.0010169220 0.0001407091
-0.4374834390 1.0383360510 -0.1996183970 0.0010362157 -0.0015881957 0.0001789810
0.2075770876 0.7494527277 -0.3915562564 0.0000023070 0.0000000000 -0.0018224334
0.4399848077 1.0444143871 -0.0810616454 -0.0009457937 -0.0016282147 0.0001802186
0.3970728026 0.9543725673 -0.1361052581 0.0000000295 0.0019010797 0.0000902757
0.4607856392 0.1758362843 0.4304416819 -0.0000803622 0.0000494810 0.0019643744
-0.4320690059 0.9429657828 0.2855279851 0.0000000295 -0.0019011406 0.0000787015
-0.4912347819 0.2120434742 -0.3891240455 -0.0010778944 -0.0000406255 0.0016382223
-0.4306219452 1.0501024913 -0.1274501009 0.0015034990 -0.0011493573 0.0001495437
0.1012365045 0.8941618541 0.3834785553 0.0000007310 0.0007287243 0.0018255892
-0.4178749383 0.9429657239 -0.1951185341 0.0000000295 -0.0019011406 0.0000787015
-0.4310409223 1.0641211977 -0.2365790830 0.0015235655 0.0011266083 0.0000061027
-0.4751488874 1.0790142387 -0.1882761714 -0.0002266055 0.0018774372 -0.0000400418
0.4496291456 0.1111553908 0.3861346864 -0.0004506036 -0.0000493441 -0.0017558136
-0.3884262898 0.8313364339 -0.3782482724 0.0000021606 -0.0000058574 0.0019796178
-0.0665710179 0.7242719573 0.3917136594 -0.0000011036 0.0000000000 0.0019798364
0.0219377278 0.9286988730 0.3384983451 0.0000000295 -0.0016386596 -0.0008843840
-0.3626710499 0.9525015960 -0.3134585291 0.0000000295 0.0018534809 -0.0003431958
-0.4864858183 0.9378806596 0.3040054193 0.0016944381 -0.0007576235 -0.0000165627
-0.4910998313 0.7172401497 0.3758307402 -0.0011056302 -0.0000415722 -0.0014580779
0.5000000000 0.9929742837 0.3843072302 0.0018498849 0.0001149753 0.0003948821
-0.0416284966 0.9543725673 -0.1072680051 0.0000000295 0.0019010626 0.0000935038
0.3509713320 0.8347228405 -0.3896551158 0.0000033070 0.0000425722 -0.0018208155
0.4256530918 0.9045128231 -0.3618758247 -0.0003325085 -0.0008789847 0.0017225075
0.4652768290 0.5596508092 -0.4203062509 0.0000960371 0.0000525551 -0.0018127775
-0.4660342853 0.8915255634 0.3707373793 -0.0002167785 0.0000801635 0.0019644847
0.2995920042 0.9525670979 0.3132884777 0.0000000295 0.0018553269 0.0004901730
-0.1229006477 0.9429657239 0.1448906055 0.0000000295 -0.0019011406 0.0000787015
0.2632055672 0.9543725673 -0.0482278070 0.0000000295 0.0018752166 -0.0000366198
0.4299154281 0.5221763856 0.3884352832 -0.0015620883 -0.0000285133 -0.0009923212
0.4885931566 0.8870434249 0.0837523107 -0.0017843754 -0.0003162966 0.0000981882
-0.4306650516 0.4262428475 -0.3893104885 0.0015061282 -0.0000313460 0.0012246463
-0.2111574486 0.9429657239 -0.1451444515 0.0000000295 -0.0019011406 0.0000787015
-0.1205948874 0.9543725673 -0.0262292513 0.0000000295 0.0018752737 0.0001614658
0.4432097486 1.0865535900 0.3277341404 -0.0007033013 0.0015721330 0.0008596178
-0.4470537731 1.1046353113 0.2488661926 0.0004370941 0.0018397546 -0.0000242072
-0.4099275471 0.9543725673 -0.2206953083 0.0000000295 0.0019011292 0.0000808042
-0.4325645097 1.0402639957 -0.2477789607 0.0013629191 -0.0013098935 0.0001616331
0.3593639551 0.7622473676 0.3917136594 0.0000069591 0.0000170209 0.0019792603
0.5000000000 0.8169358492 -0.3933069844 0.0018803468 0.0000059335 -0.0001319182
0.4601369377 1.0849587840 -0.0968402186 -0.0000509401 0.0018956881 -0.0000382586
-0.4885930976 0.8932146489 0.3105868315 0.0019006092 -0.0000072452 0.0000434240
-0.0843070302 0.8614394701 0.3898125189 0.0000007804 0.0000734068 0.0019767375
-0.4436890946 0.0000000000 0.3944326821 0.0000000295 -0.0019011406 0.0000787015
-0.4925989073 1.0645688669 0.1889027969 -0.0011917632 -0.0014580227 0.0001649601
0.3984784090 0.9543725673 -0.1905614641 0.0000000295 0.0019011121 0.0000841768
0.4745820490 0.6570322217 0.3712838831 0.0002641720 -0.0000509354 -0.0017999296
0.4476233681 0.6850781060 -0.4140072418 -0.0004787062 0.0000508175 -0.0017591482
0.4264241545 0.1362100243 -0.4053921472 -0.0018322480 -0.0000126578 0.0004801521
-0.3355193139 0.9374882832 -0.3224371369 0.0000000295 -0.0017541007 0.0008100380
-0.3123159483 0.8773798551 -0.3856938366 -0.0000001454 0.0003604467 -0.0017874429
-0.4296948425 1.0858848714 0.2984150756 0.0015800408 0.0009988707 0.0003242338
-0.1409405383 0.9429657239 -0.0149462330 0.0000000295 -0.0019011406 0.0000787015
-0.1993172820 0.8922869379 0.3704388774 0.0000000295 -0.0009071539 -0.0015916995
-0.1235513492 0.9429657239 0.2243584906 0.0000000295 -0.0019011406 0.0000787015
0.4407539541 1.0517199228 0.3707320143 -0.0008695579 0.0010712262 0.0013608897
0.4874492688 0.9521980446 -0.0154037691 0.0002023279 0.0015041596 -0.0010168631
-0.2539436856 0.8925745919 0.3841134774 -0.0000008584 0.0006519239 0.0018572109
-0.4999999411 0.8483485888 -0.3041420828 -0.0018957043 -0.0000379411 0.0001356141
-0.4298256448 0.6443882548 0.3854112872 0.0015834685 -0.0000279316 -0.0009582091
-0.3828772826 0.7738015190 0.3917089883 -0.0000040827 0.0001264411 0.0019756273
-0.4978572701 0.4231354789 0.3910191519 -0.0016041415 -0.0000262072 -0.0009150950
0.4616557684 1.1013998685 0.1720203986 -0.0000368279 0.0018958478 -0.0000326920
-0.2505770337 0.9429656650 0.0746989614 0.0000000295 -0.0019011406 0.0000787015
0.2495378988 0.8505945316 -0.3771669283 -0.0000014192 -0.0001604525 0.0019730113
-0.4532087214 0.0000000000 0.4140439395 0.0000000295 -0.0019011406 0.0000787015
0.4940863197 1.0803613071 -0.0190249019 0.0013462803 0.0013283782 -0.0000054962
0.4997475628 0.9294828730 0.0999673629 0.0018937480 0.0001612604 0.0000754791
-0.4999999411 0.8668143919 -0.2117235046 -0.0017667670 -0.0004769829 0.0001106749
-0.4387219827 0.9322708804 -0.3539589506 0.0001059420 0.0014105094 -0.0011785475
-0.4770789785 0.0541067706 -0.4313581970 -0.0004846910 0.0000487357 -0.0017527946
0.4319312721 0.2244555267 0.4168617967 -0.0014185294 0.0000331008 0.0013403288
-0.3395410779 0.9543725673 0.2906395912 0.0000000295 0.0019011406 0.0000787015
0.4913400290 0.2754924590 -0.3873870684 0.0011022499 -0.0000400190 0.0016198535
-0.4701287755 0.4917399178 0.4216779447 -0.0002879306 0.0000507281 0.0019534352
0.4786689385 0.9515547975 0.0390859445 0.0000000295 0.0015081482 -0.0010427547
-0.4314654717 1.0897046734 0.1699039520 0.0014400826 0.0012366729 0.0000039468
-0.4999520760 1.0408579862 -0.3271178134 -0.0018149172 0.0004947889 -0.0001728726
0.1782999695 0.7545169631 -0.3915562564 0.0000012690 0.0000068745 -0.0018223041
0.4594770100 0.1527080081 0.4307753453 -0.0001430390 0.0000492376 0.0019598763
0.4810762026 1.0937266123 0.0716994349 0.0004986264 0.0018261805 -0.0000286179
-0.3387829240 0.9543725673 0.2528650402 0.0000000295 0.0019011406 0.0000787015
-0.4216249742 0.9429657239 0.2218797075 0.0000000295 -0.0019011406 0.0000787015
0.4645834241 1.0511861548 0.1216435746 -0.0000036321 -0.0018959771 0.0001888118
0.4999999411 1.0690047070 -0.0416016097 0.0018650997 0.0002818517 0.0000606236
0.4771375204 0.3215639050 0.3804824072 0.0003263717 -0.0000501483 -0.0017857166
-0.0748570612 0.9543725673 -0.2296769903 0.0000000295 0.0019011349 0.0000797985
0.3821970792 0.9543725673 -0.0668756862 0.0000000295 0.0019010379 0.0000980266
0.4728854237 0.9543725084 0.2781850558 0.0000000295 0.0019011406 0.0000787015
0.4071082697 0.9404911309 -0.3134285918 0.0000000295 -0.0018206292 0.0006247851
0.0730829529 0.7597374990 0.3803068160 0.0000006036 0.0000000000 -0.0018224296
-0.4999999411 0.7009742229 0.3903779941 -0.0018646719 -0.0000060304 -0.0001477852
0.4165936646 0.9543725673 -0.1551121087 0.0000000295 0.0019011045 0.0000868099
0.0295469023 0.9543725673 0.1038808000 0.0000000295 0.0019010398 0.0000646426
-0.0285716095 0.9402667164 0.3411807594 0.0000000295 0.0015492718 0.0011735265
0.2060204014 0.9429657239 -0.2760941092 0.0000000295 -0.0019011406 0.0000787015
0.3819055089 0.8080110246 -0.3896551158 0.0000013641 0.0000003688 -0.0018224372
-0.4848535921 1.0167343640 -0.3751456623 -0.0006467595 0.0010501387 -0.0013580455
0.3653393958 0.8854004668 -0.3843570382 0.0000029496 0.0004640266 -0.0017635588
0.1277454725 0.9414432107 -0.0649387053 -0.0000168222 -0.0015723421 -0.0008849657
-0.4298570897 0.1498420824 0.3981456438 0.0015406530 -0.0000286103 -0.0010176939
0.1851857600 0.8638630632 -0.3763471318 0.0000000295 -0.0001516939 0.0019732546
-0.4428573171 0.9442124196 -0.0664612185 0.0000184952 -0.0002069639 -0.0017865018
0.4738113647 0.8119479084 -0.3664470792 0.0002846207 -0.0000526692 0.0019555398
0.4913611469 0.2133561947 -0.4213019010 0.0010851435 0.0000415095 -0.0014750303
-0.3471270166 0.9543725673 -0.0608701922 0.0000000295 0.0019010360 0.0000986996
-0.4943973558 0.9533716377 -0.0802349572 -0.0009526283 0.0015751444 0.0001086464
0.2407582358 0.9429657239 0.1058161135 0.0000000295 -0.0019011406 0.0000787015
-0.4738931118 1.0910351467 0.0041930473 -0.0002165123 0.0018828991 -0.0000348726
0.4345261065 0.1895669014 -0.3916724085 -0.0011894553 -0.0000384943 0.0015485588
-0.4421266365 1.0491680503 0.0131615239 0.0007906682 -0.0017133820 0.0001831521
0.4967164603 0.9323139869 -0.3752615235 0.0014001301 -0.0000357262 0.0013420684
-0.3188068795 0.9543725673 0.2506713141 0.0000000295 0.0019011406 0.0000787015
-0.3134081118 0.9429657239 -0.1371138893 0.0000000295 -0.0019011406 0.0000787015
-0.1049179834 0.9543726263 -0.0795766398 0.0000000295 0.0019010455 0.0000966046
-0.2478067221 0.8145634862 -0.3782482724 0.0000010903 -0.0000006141 0.0019798421
-0.4849827994 0.4554291081 0.4190140095 -0.0007365693 0.0000476521 0.0018182946
0.3268989113 0.9543725673 -0.1150147841 0.0000000295 0.0019010664 0.0000926369
0.5000000000 0.8844309232 0.2665062809 0.0013041435 -0.0012001254 -0.0003365019
-0.4594054720 1.0614293861 -0.3223652529 0.0001237728 0.0017431748 -0.0006508498
0.4816164669 0.9543725673 0.1527422534 0.0000000295 0.0019011159 0.0000717243
-0.4856229134 0.4678319496 0.3792354510 -0.0007843374 -0.0000469810 -0.0016404258
0.4982987320 0.7560171399 0.3080634742 0.0006952443 0.0000000000 -0.0015023554
-0.4584354074 1.0335660265 -0.3655947636 0.0001458222 0.0013017090 -0.0012887908
0.4593595803 0.7758905797 -0.3672366780 -0.0001357595 -0.0000525836 0.0019670341
-0.0985460408 0.7720332397 0.3917136594 -0.0000018337 0.0001100133 0.0019761748
0.1201242885 0.9312173862 -0.3552561216 0.0000000295 0.0014175589 -0.0011735303
-0.2066170306 0.8552519439 -0.3877974886 -0.0000000466 0.0001575855 -0.0018158953
0.4836978698 0.4022576569 -0.3803078616 0.0006930028 -0.0000468441 0.0018464181
0.5000000000 0.8945792952 -0.1879315726 0.0019011700 0.0000000000 0.0000787015
0.4945161771 1.0708724293 0.3415704685 0.0012963222 0.0011277072 0.0008596768
-0.1880958359 0.9111480166 -0.3722939800 -0.0000013850 0.0009984543 -0.0015373573
0.4490654117 0.9047625912 0.4093332078 -0.0005379458 0.0000515285 0.0018946767
-0.0476634506 0.7400994393 -0.3915562564 0.0000000580 0.0000000000 -0.0018224372
-0.2867376932 0.9543725673 0.1206668959 0.0000000295 0.0019009372 0.0000572738
0.4075053743 0.9429657239 -0.1084556381 0.0000000295 -0.0019011406 0.0000787015
0.3442408438 0.7807917258 0.3908352051 0.0000019344 0.0001222604 0.0019759010
0.4308379470 0.0696296005 0.4194015437 -0.0014717176 0.0000308650 0.0012707642
-0.4970384603 0.9507897691 0.1347672696 -0.0015610465 0.0009680399 0.0000748631
-0.0655773241 0.9242053638 -0.3443266812 -0.0000006625 -0.0015129752 0.0012276026
-0.4700244295 0.3271568895 0.4259356403 -0.0002802006 0.0000500437 0.0019538801
0.4282379491 1.0621410363 0.0099427903 -0.0016674419 -0.0009008973 0.0001330970
0.4274996374 0.9543725673 -0.2552188101 0.0000000295 0.0019011406 0.0000787015
-0.0361803277 0.7267452728 -0.3801494130 0.0000000295 -0.0005557243 0.0018111197
-0.4913661944 0.1571627911 -0.4230783306 -0.0011274134 0.0000400171 -0.0014465665
-0.2479459654 0.9429657239 0.1350247259 0.0000000295 -0.0019011406 0.0000787015
0.0526167621 0.9543725673 0.2375945754 0.0000000295 0.0019011387 0.0000782890
-0.4444508740 0.3678286951 0.3806614224 0.0006130979 -0.0000488460 -0.0017151539
-0.4632609280 0.9479252369 0.3266615872 -0.0000367671 0.0017670588 0.0007781463
-0.4786949879 1.0399907296 -0.0995604751 -0.0004391815 -0.0018368915 0.0001941825
0.4745998608 0.7912736435 -0.4122965175 0.0003918431 0.0000516787 -0.0017801976
0.4980988594 0.7516503416 0.3412755312 0.0018897670 0.0000076046 0.0002764410
-0.4801789784 0.6406819356 0.4158337721 -0.0005416150 0.0000502053 0.0018956140
-0.4870444171 0.2404404858 0.3858231294 -0.0009172119 -0.0000442509 -0.0015661919
-0.4995268023 0.8747185017 0.3221672643 -0.0018977366 0.0000315589 0.0001644981
-0.0943172673 0.9256855823 -0.3423531053 -0.0000003203 -0.0015418345 0.0011904752
-0.4164467616 0.9543725673 0.0730346231 0.0000000295 0.0019009048 0.0000503593
-0.4572912611 0.0866728466 -0.3855970039 0.0002476968 -0.0000502719 0.0019553687
-0.4885930976 0.8956883122 -0.0757211857 0.0019011700 0.0000000000 0.0000787015
0.2148070986 0.7343740290 0.3917136594 0.0000027861 0.0000000000 0.0019798345
-0.2063152055 0.9429657239 -0.2906470760 0.0000000295 -0.0019011406 0.0000787015
0.4163137559 0.9429657239 -0.0808362367 0.0000000295 -0.0019011406 0.0000787015
0.0414367114 0.9527950522 0.0593376809 0.0000000295 0.0014390303 -0.0010432376
-0.4634676181 0.4185950894 -0.3767548257 0.0000108793 -0.0000520437 0.0019784086
-0.4803246628 0.6862840147 0.3717099401 -0.0004551606 -0.0000500627 -0.0017621064
0.0025794019 0.7693544223 -0.3801494130 -0.0000010409 -0.0001017300 0.0019770151
-0.3745313933 0.9323777492 -0.3537089792 0.0000000295 0.0014720531 -0.0011050266
-0.4999999411 0.8906020882 -0.2556326541 -0.0019011111 0.0000000000 0.0000787015
0.4427861593 0.7988544187 -0.4093970291 -0.0006520789 0.0000494392 -0.0016971957
0.3791450604 0.9543725673 0.2120877423 0.0000000295 0.0019011368 0.0000769239
-0.4301865174 0.9543725673 -0.0494336074 0.0000000295 0.0018687014 -0.0001662757
0.1224567941 0.9543725084 -0.2096111626 0.0000000295 0.0019011235 0.0000820437
0.4403404009 0.4698553925 0.3800798198 -0.0009018469 -0.0000451236 -0.0015806425
0.4333461902 0.2367597085 0.3915593305 -0.0013831073 -0.0000338080 -0.0012108345
0.4740529825 0.7185658075 -0.4143348425 0.0003832519 0.0000513403 -0.0017822908
-0.1878516667 0.9321488101 -0.3540142130 0.0000000295 0.0014613022 -0.0011185418
0.2452964789 0.7877675448 -0.3782482724 -0.0000007937 -0.0001243213 0.0019753782
-0.3022891828 0.9543725084 -0.0807155238 0.0000000295 0.0019010474 0.0000964772
0.0447539679 0.9543725673 -0.1004389998 0.0000000295 0.0019010588 0.0000942700
-0.4885930976 0.9020367225 -0.0071855205 0.0019011700 0.0000000000 0.0000787015
0.4493076361 0.0473707272 -0.4312628719 -0.0005304610 0.0000483612 -0.0017394771
-0.2650246412 0.9543725673 0.0100003853 0.0000000295 0.0018816501 0.0002179582
-0.0003792937 0.7281088753 -0.3915562564 0.0000005162 -0.0004674886 -0.0016819505
-0.4309694451 1.0651672661 0.1255959850 0.0015153640 -0.0011400265 0.0001453992
-0.4910557971 0.9486691456 0.0252977247 -0.0000059952 0.0019005797 0.0001118669
0.4379759561 0.1671176708 -0.4237523001 -0.0010205598 0.0000421160 -0.0015180417
0.0166526254 0.7836524291 -0.3900350778 0.0000007861 0.0001166331 -0.0018188212
-0.1246228453 0.9429657239 -0.2825234548 0.0000000295 -0.0019011406 0.0000787015
-0.4740469464 0.0219753694 0.3876234334 -0.0002815865 -0.0000499030 -0.0017979277
0.4280932799 0.4758333579 0.4048070332 -0.0016777860 0.0000234259 0.0009627072
-0.3325880023 0.9543725673 0.2137677022 0.0000000295 0.0019011102 0.0000748745
-0.2797956689 0.9542960997 -0.0606812930 0.0000000295 0.0018786311 0.0001520038
0.3751241956 0.9543725673 -0.1388437903 0.0000000295 0.0019010816 0.0000899696
0.0646039040 0.9429657239 0.2105904077 0.0000000295 -0.0019011406 0.0000787015
-0.1600750428 0.9429657239 -0.0430914518 0.0000000295 -0.0019011406 0.0000787015
0.4663743594 0.9429657239 -0.0825875103 0.0000000295 -0.0019011406 0.0000787015
-0.3754172735 0.9533451225 0.0408763645 0.0000000295 0.0015883269 -0.0007914372
-0.0825921063 0.9273628883 0.3592142678 0.0000005238 0.0013164258 0.0014490969
0.2688854053 0.7290054875 -0.3915562564 0.0000022766 -0.0004118783 -0.0016989105
-0.2062963500 0.9407723457 0.0120701020 -0.0000009648 -0.0018091406 -0.0004913593
-0.1854978664 0.9543725673 0.2809079378 0.0000000295 0.0019011406 0.0000787015
0.2624718410 0.9429656650 -0.0836264133 0.0000000295 -0.0019011406 0.0000787015
-0.3445431175 0.9543725673 -0.2943018458 0.0000000295 0.0019011406 0.0000787015
-0.0931247103 0.9429657239 -0.2211290231 0.0000000295 -0.0019011406 0.0000787015
0.3068715494 0.9429657239 -0.2040509595 0.0000000295 -0.0019011406 0.0000787015
0.4397988876 0.9543725673 0.2393528604 0.0000000295 0.0019011387 0.0000782072
-0.0304492007 0.7816912980 0.3907227659 0.0000004059 0.0001220076 0.0019759181
0.4087575529 0.8069780114 0.3784056754 0.0000000295 0.0000000000 -0.0018224391
-0.4434339026 0.9429657239 0.1841916317 0.0000000295 -0.0019011406 0.0000787015
0.0120065421 0.9543725673 -0.1743540943 0.0000000295 0.0019011025 0.0000859924
0.2312728847 0.7414015989 -0.3915562564 0.0000021454 0.0000000000 -0.0018224353
-0.4703966443 0.8229276796 0.4130987931 -0.0002957063 0.0000520399 0.0019523193
-0.4619729224 0.8205583319 -0.4132828274 0.0001739914 0.0000545285 -0.0018110113
0.4167088319 0.9429657239 0.0212384474 0.0000000295 -0.0019011406 0.0000787015
-0.0483923612 0.9543725673 0.2999381991 0.0000000295 0.0018959961 0.0001818403
0.2004612705 0.7755717128 0.3914877374 0.0000009306 0.0001254468 0.0019756957
-0.4935464605 0.4257020586 -0.3861817681 -0.0012250731 -0.0000390380 0.0015223497
0.4590466013 1.0939973253 0.0509674419 -0.0000799496 0.0018938668 -0.0000351806
-0.0807633802 0.9429657239 -0.2682064747 0.0000000295 -0.0019011406 0.0000787015
0.3503811134 0.9514226321 0.3179620763 0.0000000295 0.0018023839 0.0006637718
-0.3383344734 0.9049109448 0.3634255489 0.0000000295 -0.0010199011 -0.0015239885
0.4649345515 0.5305883299 0.4217167584 0.0000444116 0.0000514734 0.0019714105
-0.4885930976 0.9133285735 0.2937231139 0.0019011700 0.0000000000 0.0000787015
-0.0999424228 0.9429657239 -0.0518360692 0.0000000295 -0.0019011406 0.0000787015
-0.4261724701 0.6797678155 -0.3939158285 0.0018707309 0.0000009677 0.0000148707
0.4002700116 0.9429657239 0.1576685363 0.0000000295 -0.0019011406 0.0000787015
-0.4999999411 1.0663167223 -0.0268923026 -0.0019009495 0.0000014221 0.0000786198
-0.4720961727 0.9206900408 0.3642165109 -0.0001137614 -0.0000532414 -0.0018177356
-0.2622398543 0.9478788225 -0.3265970416 0.0000000295 0.0017806216 -0.0005838783
-0.2674107552 0.7560954060 -0.3801494130 0.0000040295 -0.0000206920 0.0019792794
0.3121491175 0.9543725673 -0.1608735342 0.0000000295 0.0019010949 0.0000875019
0.4410521689 0.9275185499 0.3609986479 -0.0000211245 0.0012506406 0.0014963820
0.4979860724 0.3494824680 -0.4108728959 0.0015621035 0.0000273023 -0.0009605342
-0.3039769906 0.8967854357 -0.3666823434 0.0000003812 -0.0007796977 0.0018125075
0.4814824460 0.9044820151 -0.3567012109 -0.0013536092 -0.0003470646 0.0013559581
0.5000000000 0.0034165853 0.4118591183 0.0018921681 0.0000000000 0.0001607072
-0.2591892271 0.9429657828 0.2478021679 0.0000000295 -0.0019011406 0.0000787015
-0.4999999411 1.0174696872 0.3661105735 -0.0018466529 -0.0001603612 -0.0002242015
0.5000000000 0.8849948604 -0.0726521098 0.0019011700 0.0000000000 0.0000787015
-0.3670088101 0.9543726263 -0.1286409544 0.0000000295 0.0019010759 0.0000911103
-0.4272374225 0.8463904748 0.3931865681 0.0017332385 0.0000190875 0.0007884828
-0.0027216947 0.9429656650 0.0815127804 0.0000000295 -0.0019011406 0.0000787015
0.1806559447 0.9429657239 -0.1346262715 0.0000000295 -0.0019011406 0.0000787015
-0.4830329801 0.9429657239 0.1803779647 0.0004707024 -0.0017863364 0.0000787015
0.5000000000 0.8611923124 0.3892727470 0.0018962404 0.0000011502 0.0001232547
-0.4093108704 0.7542467141 0.3917136594 -0.0000043108 0.0000000000 0.0019798364
-0.1774611844 0.9429657239 0.2171046773 0.0000000295 -0.0019011406 0.0000787015
-0.2665533046 0.9543725673 0.1057628455 0.0000000295 0.0019009162 0.0000548954
-0.4270531868 0.8234933583 0.3932245110 0.0017571149 0.0000170475 0.0007157186
0.4838183165 0.9824570923 0.3616116973 0.0006747728 -0.0004399886 -0.0016312242
-0.2950858448 0.9429657239 -0.1008041956 0.0000000295 -0.0019011406 0.0000787015
0.4981962130 0.4270698969 -0.3909566100 0.0016347917 -0.0000253612 0.0010099885
-0.1972653220 0.9542084343 0.3050817729 0.0000000295 0.0018888744 0.0002859372
-0.2854904765 0.7265179572 -0.3915562564 -0.0000014040 -0.0005649296 -0.0016526691
-0.1931084059 0.9525085579 -0.3134234872 0.0000000295 0.0018549543 -0.0003363460
-0.4494859840 0.7466673895 -0.3594537393 0.0003989211 0.0000000000 0.0019360056
0.0262171667 0.9543725673 0.0745285698 0.0000000295 0.0019009771 0.0000584848
-0.0574883949 0.7427135076 0.3803068160 0.0000002177 0.0000000000 -0.0018224334
0.3501539138 0.9429657239 -0.1464276530 0.0000000295 -0.0019011406 0.0000787015
-0.4272279092 1.0787387691 0.1077165203 0.0017478659 0.0006758155 0.0000373479
0.0063905823 0.9471399024 0.3282323134 0.0000000295 0.0017776672 0.0007523707
-0.2275266624 0.9518679211 -0.0012189334 0.0000000295 0.0013443098 0.0014230113
-0.4264204986 1.0617193614 -0.0737000565 0.0018445332 -0.0003388973 0.0000977566
-0.3448101745 0.9527830997 0.3122086147 0.0000000295 0.0018642927 0.0004428422
-0.4370216425 1.0606862892 0.1561689395 0.0011747918 -0.0014887090 0.0001689658
-0.4449849025 0.2219905801 -0.3843129735 0.0006687386 -0.0000467034 0.0018573079
-0.4640403443 0.9358313403 0.3508493481 -0.0001422006 0.0016060683 0.0010824942
-0.0363550197 0.9429657239 0.0800291303 0.0000000295 -0.0019011406 0.0000787015
0.2535472769 0.9543725673 0.0929370287 0.0000000295 0.0019011140 0.0000700570
0.4652478481 0.6974316319 0.3699981113 0.0000196835 -0.0000531388 -0.0018210873
0.3383883441 0.9429657239 -0.0810942158 0.0000000295 -0.0019011406 0.0000787015
0.3130352867 0.9486691456 0.0036852108 0.0000021873 0.0019008630 0.0000675342
0.4882074513 0.8093869276 -0.4074991376 0.0009578602 0.0000454144 -0.0015499049
0.4941389433 0.9427911479 0.3730404989 0.0013859705 -0.0000351407 -0.0012046539
-0.3367576826 0.8292673884 -0.3782482724 0.0000018907 -0.0000000913 0.0019798402
-0.0265220355 0.9429657239 0.2345278341 0.0000000295 -0.0019011406 0.0000787015
0.4743993513 0.3641972789 0.3788307172 0.0002171892 -0.0000501312 -0.0018052565
-0.2884440372 0.9429657239 0.1458955389 0.0000000295 -0.0019011406 0.0000787015
0.4516090447 1.0250785422 -0.2862119907 -0.0004549002 -0.0017908174 0.0004903916
-0.4695816919 0.8330357855 -0.3522846313 -0.0012980351 -0.0012267832 0.0000787015
0.0037623505 0.7791921651 0.3910351367 0.0000001416 0.0001234106 0.0019758269
-0.4885930976 0.7583128051 -0.3140751469 0.0017544191 0.0000000000 0.0004100247
-0.4906903390 0.9543725673 0.1580786371 -0.0002617272 0.0018751634 0.0000630513
-0.2774472089 0.8367769735 0.3898125189 0.0000000295 0.0000000000 0.0019798421
0.1540406002 0.9429657239 -0.2398998129 0.0000000295 -0.0019011406 0.0000787015
-0.4244821090 0.9529673659 -0.3111298524 0.0000000295 0.0018652166 -0.0002754791
-0.0823077604 0.8859617919 -0.3715791378 0.0000000295 -0.0006497053 0.0018622984
-0.4607140441 0.0867048580 -0.4325006323 0.0000615466 0.0000485741 -0.0018067375
-0.2601138639 0.8518482483 -0.3883647908 -0.0000010428 0.0001537357 -0.0018162014
0.4265674017 0.1074901857 -0.4099974017 -0.0018431225 0.0000025913 -0.0000980741
0.4666072738 0.7807950909 0.4149412474 0.0000661682 0.0000524772 0.0019657166
-0.0400893826 0.8676264736 -0.3758256052 0.0000000295 -0.0002622966 0.0019598611
-0.4999999411 1.0524979475 -0.1695768455 -0.0018514153 -0.0003945380 0.0001041996
-0.4422554654 0.9429657239 -0.2057565924 0.0000000295 -0.0019011406 0.0000787015
0.2100568593 0.9543725673 -0.2135667707 0.0000000295 0.0019011254 0.0000816008
-0.4691677908 0.0000000000 -0.4074734931 0.0000000295 -0.0019011406 0.0000787015
-0.1794883706 0.9429657239 -0.1261769793 0.0000000295 -0.0019011406 0.0000787015
0.2782976994 0.7786637336 0.3911011899 0.0000016797 0.0001236027 0.0019758136
-0.2582933964 0.9429657239 -0.0721420566 0.0000000295 -0.0019011406 0.0000787015
-0.2512937029 0.9328356294 0.3532558860 0.0000000295 0.0014935569 0.0012353992
0.4885931566 0.8828900772 0.1909287188 -0.0013815522 -0.0012950836 0.0001527091
0.3577705445 0.9271834948 -0.3401345465 0.0000011835 -0.0015658782 0.0011566292
0.4803668129 0.5909596952 -0.4164575534 0.0005406340 0.0000499677 -0.0017388212
0.3074564011 0.9543725673 -0.1003658040 0.0000000295 0.0019010588 0.0000942776
-0.3210667463 0.7474176233 -0.3801494130 0.0000034211 -0.0000006065 0.0019798345
0.2681675175 0.9529968393 -0.3109824284 0.0000000295 0.0018679790 -0.0002619087
-0.4642308766 0.0419631971 0.3869723536 -0.0000048584 -0.0000493726 -0.0018216273
0.5000000000 0.9150644214 0.1472073449 0.0019011700 0.0000000000 0.0000787015
-0.0081847875 0.9429657239 -0.2017155661 0.0000000295 -0.0019011406 0.0000787015
-0.1530577125 0.9429657239 -0.0768101723 0.0000000295 -0.0019011406 0.0000787015
-0.4269927020 1.0624449355 -0.0340508136 0.0017869362 -0.0005647148 0.0001112738
-0.3040935496 0.9398942393 -0.3152193521 0.0000000295 -0.0018129638 0.0006495608
-0.2028407704 0.9543725084 -0.0066523437 0.0000000295 0.0018773440 0.0002209487
0.3505837997 0.9429657239 0.2615441291 0.0000000295 -0.0019011406 0.0000787015
-0.0610229384 0.7946551756 0.3898125189 -0.0000004819 0.0000738289 0.0019775512
0.4356671217 0.4491293176 -0.3841487530 -0.0011441530 -0.0000406198 0.0015874581
0.4963885401 0.3387190181 0.4132559928 0.0014883203 0.0000312224 0.0012547889
-0.4301442798 1.0349380398 -0.2995182048 0.0015361872 -0.0010352091 0.0004192148
-0.2109351083 0.9429656650 -0.0883900328 0.0000000295 -0.0019011406 0.0000787015
0.3402139448 0.9543725673 0.2500573940 0.0000000295 0.0019011406 0.0000787015
0.4546023791 0.7823421459 0.3593942697 -0.0000655257 0.0000000000 -0.0018159486
-0.2284730692 0.9486691456 0.0197990140 -0.0000048375 0.0019008022 0.0000981844
-0.3750799560 0.9535276491 0.0600702949 0.0000000295 0.0016534638 -0.0005398327
-0.1865792542 0.9429657239 0.0653663060 0.0000000295 -0.0019011406 0.0000787015
-0.4847322176 0.2697595069 0.4239188686 -0.0006884363 0.0000469373 0.0018363630
0.4201044629 0.9540476662 0.0517344095 0.0000000295 0.0017893649 0.0005366863
-0.4535231814 0.0463599992 -0.4321328548 0.0003861017 0.0000483821 -0.0017816805
0.3497019233 0.7992513198 -0.3896551158 0.0000002291 0.0000220361 -0.0018217965
0.4846135142 0.0205440938 -0.4302245792 0.0006376492 0.0000471559 -0.0016970950
0.1055321297 0.9429657239 0.1774706131 0.0000000295 -0.0019011406 0.0000787015
0.4305576030 1.0606570478 0.0423410127 -0.0015193811 -0.0011292243 0.0001464125
0.4494795448 0.4908679635 -0.4195310114 -0.0004495675 0.0000504068 -0.0017662242
0.0155947472 0.9429657239 0.0601052398 0.0000000295 -0.0019011406 0.0000787015
0.4288571468 0.8066881521 0.3677994840 -0.0011385788 0.0000000000 -0.0014398630
0.2243327596 0.8775930719 -0.3856583005 -0.0000001854 0.0003503004 -0.0017891558
-0.4940531905 0.2821068541 -0.4173499032 -0.0013008811 0.0000357110 -0.0012862090
0.4315689185 1.0706890909 -0.1423831475 -0.0014392822 0.0012386482 0.0000022890
0.4961618633 0.5276888700 0.3857916826 0.0014623088 -0.0000323308 -0.0011338383
0.2641483922 0.9543725673 -0.0678914104 0.0000000295 0.0019010398 0.0000979144
0.2578754648 0.7584447386 -0.3801494130 -0.0000023983 -0.0000347985 0.0019788820
-0.1041932648 0.9429657239 -0.1275184469 0.0000000295 -0.0019011406 0.0000787015
0.0813128935 0.9429657239 0.1488980102 0.0000000295 -0.0019011406 0.0000787015
0.4885931566 0.8617162154 -0.2902900038 -0.0018810503 -0.0000587757 0.0001132471
0.4984301427 0.3708088013 0.4093658428 0.0016639381 0.0000226502 0.0009397243
-0.3974176619 0.9543725673 -0.1662405092 0.0000000295 0.0019010968 0.0000869011
-0.3823994746 0.9429657239 -0.1526078826 0.0000000295 -0.0019011406 0.0000787015
0.4755205243 0.0169603374 -0.3879044752 0.0004418146 -0.0000488840 0.0019223174
0.4327706504 1.0325806445 0.3774074721 -0.0013333412 0.0006869809 0.0012193041
-0.4947568349 1.0575090955 0.3123169055 -0.0012988849 -0.0012392186 -0.0004904144
0.4744804597 0.9543725673 -0.1092223548 0.0000000295 0.0019010645 0.0000932852
0.3112653837 0.9060230949 -0.3624990566 -0.0000012367 -0.0009837205 0.0016947109
-0.1341698124 0.9429657239 -0.0347823573 0.0000000295 -0.0019011406 0.0000787015
0.0650212804 0.7235657596 0.3803068160 -0.0000001644 -0.0000017738 -0.0018224372
-0.0403172571 0.9543725673 -0.2577133612 0.0000000295 0.0019011406 0.0000787015
-0.4885930976 0.8380560438 0.3262513116 0.0018940788 0.0000000000 -0.0000805741
-0.0800737396 0.9543725673 -0.1114126227 0.0000000295 0.0019010645 0.0000930399
-0.2311545406 0.8986465440 0.3814230574 0.0000000295 0.0008548384 0.0017744695
-0.4594079378 0.6945805009 -0.4161120857 0.0002410675 0.0000530418 -0.0018021900
0.4353725342 1.0918739756 0.1408272712 -0.0012690845 0.0014020722 -0.0000011350
0.4800619860 0.0407563208 -0.3882276368 0.0005886378 -0.0000472662 0.0018798630
-0.3999272378 0.8957457495 -0.3670982179 0.0000005238 -0.0007824486 0.0018113022
-0.4314086124 0.4899682164 0.3870278194 0.0014706549 -0.0000319544 -0.0011222034
0.1450906236 0.9543726263 0.0076418741 0.0000000295 0.0018680873 0.0000004639
-0.1922813128 0.9391634427 -0.0153112824 0.0000003260 -0.0018237527 0.0005568650
-0.1720041087 0.9543725673 -0.1850928427 0.0000000295 0.0019011083 0.0000847890
-0.3138464387 0.7759538193 0.3914399579 -0.0000030732 0.0001252319 0.0019757071
0.4968015135 0.0027410474 -0.4000664821 0.0015333203 0.0000000000 0.0011891083
-0.4864835274 0.9543725673 -0.2163801755 0.0000000295 0.0019011330 0.0000806445
