-0.2097623657 2.2830067191 -0.4652908175 0.0786544485 0.0004814850 0.1524671344
0.3853615286 1.5960026615 0.1415949601 0.0802454591 0.0000648166 0.1507747041
-0.4312169330 1.8593112242 -0.3894556061 0.0767206003 -0.0000040988 0.1507498170
-0.3959435654 1.2953356306 -0.3977976694 0.0802458524 0.0000033580 0.1507565666
0.1198461318 2.0471836742 -0.4460967139 0.0784194080 0.0003563439 0.1525053849
-0.3800705499 1.5530188425 -0.0297136244 0.0767210817 -0.0000490723 0.1507811186
0.0195389333 2.2356623835 -0.4925426916 0.0784851082 -0.0014137319 0.1509146001
-0.1619311500 2.0245612692 -0.4358099223 0.0786166443 0.0003586226 0.1525008804
-0.4516169907 1.9307686438 -0.3603683723 0.0785557854 -0.0017477654 0.1509690057
0.3577669914 1.5870267252 0.3983168722 0.0785211152 -0.0003815943 0.1491503902
-0.3800705499 1.5148886636 0.4439535412 0.0767205791 -0.0000023933 0.1507533884
0.0960711571 2.1028068297 -0.4599404455 0.0785386443 -0.0003523298 0.1490521504
0.3375884946 2.1639177664 -0.4498199131 0.0781000023 0.0003676525 0.1524610356
0.2130046037 1.5746654381 -0.1589809967 0.0784888965 -0.0017604779 0.1508836600
0.3153288285 1.5733842388 -0.1794811108 0.0784941734 -0.0017605220 0.1508825066
-0.2601159111 1.5264718873 -0.3664832452 0.0784163657 -0.0012937284 0.1507626495
0.0281994728 2.2598202489 -0.4731018649 0.0785036231 -0.0002008518 0.1523587729
0.3715837036 1.5562426167 0.1547536458 0.0785019459 -0.0017610000 0.1508677606
0.3500881609 1.2708963808 0.4873361344 0.0767205632 0.0000020282 0.1507987976
0.2190092596 1.9361141163 -0.4219469227 0.0786450570 -0.0003578765 0.1490600005
0.3853615286 1.5577017560 0.0450657351 0.0802453727 -0.0000472081 0.1507793320
0.1113996523 1.6079717952 0.2626133996 0.0784897431 0.0017613192 0.1506914995
0.3994708757 1.5685494365 -0.3480265702 0.0785678083 0.0013827725 0.1510582632
0.3625757162 1.6068848958 0.2618298476 0.0784554009 0.0017574656 0.1506641874
0.1301092161 2.1012110890 -0.4583579447 0.0785378260 -0.0003530229 0.1490523126
-0.3981616605 2.0789385323 -0.3878036203 0.0785715561 0.0003425943 0.1525070339
-0.4889125929 1.8492394555 0.3211656238 0.0783487731 -0.0002532257 0.1490438382
-0.3959435654 1.3276409896 -0.3634526403 0.0802458453 -0.0000060018 0.1508300992
0.1520705947 2.3614131033 -0.5043995501 0.0783872563 0.0011773016 0.1518465753
0.3994708757 1.5943112224 -0.3529686406 0.0771493040 0.0004652645 0.1508038840
0.0816582157 1.5771326796 -0.1195072640 0.0784827678 -0.0017603421 0.1508858770
0.1654375697 1.5685705352 -0.2565008565 0.0784824821 -0.0017608077 0.1508781838
0.3734404319 2.3478521037 -0.5096117581 0.0788846337 -0.0004437002 0.1491922527
-0.3800705499 1.2146694388 0.5009981587 0.0767205738 0.0000033422 0.1508174925
0.0725673887 1.5371729523 0.4360891022 0.0784840429 -0.0016770599 0.1504706477
-0.0719007574 1.6013807513 0.1617430795 0.0784802510 0.0017604867 0.1506757835
-0.3959435654 1.2295133608 -0.3941294790 0.0802458277 -0.0000011146 0.1507868893
-0.4787210129 1.9875526511 0.2111500412 0.0784109618 -0.0017440070 0.1505802174
-0.2516073999 1.5982115521 0.2177572315 0.0784763216 -0.0017591393 0.1509048135
-0.0702098703 2.1765665756 -0.4747412564 0.0784230535 -0.0003445167 0.1490507853
0.2901631308 1.5834988505 -0.1119260949 0.0784972528 0.0017601234 0.1506707447
-0.1364507080 1.5780493904 -0.1048407142 0.0784710094 -0.0017602081 0.1508866953
0.4787231399 1.9269973811 0.3177920859 0.0785635050 0.0007498518 0.1523631715
0.0408950210 1.8654872928 -0.4072313146 0.0785020253 -0.0010415679 0.1516071274
0.4785090870 1.8243650999 0.3415405068 0.0785581716 0.0001585168 0.1525252843
0.3500881609 1.5276546986 0.4746535774 0.0767205773 0.0000051534 0.1508300921
0.4316435609 1.7661049462 -0.3404224716 0.0785547731 0.0001429471 0.1525350004
-0.4312169330 1.1364828676 -0.4264341907 0.0767206232 0.0000062575 0.1507407376
0.3330498263 1.5498946380 -0.3915282180 0.0784801223 0.0004066173 0.1492240781
-0.4003553201 1.5666751085 0.3499692791 0.0787656337 -0.0007648448 0.1493204996
-0.1056801498 2.3481855904 -0.5404554487 0.0783729988 0.0001499718 0.1492098946
0.3624925610 1.9300650706 -0.3924369111 0.0779172475 0.0003518607 0.1524121327
-0.2555557119 1.8793886681 -0.3812182836 0.0786618947 -0.0003050264 0.1518881468
-0.3576344517 2.2930509305 -0.4900481625 0.0781603586 -0.0005177072 0.1491246812
0.0683213183 2.1825611539 -0.4973827690 0.0784854309 -0.0015014021 0.1499721856
-0.1150973788 1.5979535256 0.1092926347 0.0784779071 0.0017601675 0.1506698911
-0.3800705499 1.4027846296 0.4807800481 0.0767205756 0.0000035979 0.1508141503
-0.0353086613 2.0589702401 -0.4516828849 0.0784475350 -0.0003519312 0.1490516072
0.0202250603 2.1665133219 -0.4731088614 0.0785022457 0.0003620212 0.1525049580
0.0729126621 1.8946584366 -0.4183982720 0.0785335597 -0.0003626596 0.1490541151
-0.2979195997 1.8888548230 -0.3907338459 0.0787719477 0.0003542363 0.1524827041
-0.1223125797 2.2340220785 -0.4979546896 0.0784277237 -0.0015946578 0.1503743232
0.3235579712 1.8903028742 -0.4190752032 0.0786985367 0.0010407231 0.1494063726
-0.3483245190 2.0903718054 -0.4255362648 0.0796943656 -0.0000812275 0.1499986089
0.3425724398 1.6030379576 0.2095441805 0.0782469776 0.0014292028 0.1506530304
-0.0514122270 1.5712866533 -0.3852699078 0.0785475879 0.0014823157 0.1503586318
-0.2553003504 1.5735313905 -0.1771271673 0.0784616672 -0.0017603897 0.1508826336
-0.4147768929 1.0509483955 -0.3981063978 0.0784762281 -0.0002860547 0.1525172014
-0.1102554054 2.1705575740 -0.4716236180 0.0783965861 -0.0003490741 0.1490527800
-0.1595428132 1.5994734833 0.3988147346 0.0784673180 0.0003814533 0.1491353920
-0.0818735067 2.1228760920 -0.4609221756 0.0785620411 0.0003595626 0.1525041397
0.4358140264 0.9027405617 -0.4785374909 0.0795889212 0.0001355362 0.1500631063
-0.3447971822 1.5625354825 0.1420973675 0.0802453621 -0.0000543474 0.1507806248
0.4071499478 1.0895793433 -0.4445473154 0.0784216708 0.0002811464 0.1490410058
-0.4015567539 1.5834472879 -0.3899991105 0.0785188965 0.0000720388 0.1490184978
-0.1515768911 1.6000817901 0.1418655597 0.0784762122 0.0017602257 0.1506707800
0.0603606730 1.5879989827 -0.0430558340 0.0784860729 0.0017599082 0.1506659440
0.1654499965 1.6067018975 0.4489634828 0.0785115544 0.0015395220 0.1516069634
-0.3660496332 1.5735824134 -0.2825376777 0.0784669918 0.0017526225 0.1506106830
0.1145262518 1.5266196845 -0.3712170210 0.0783245614 -0.0015914726 0.1503192756
-0.4265821907 1.3598285831 -0.3536266794 0.0784077713 -0.0001908695 0.1525302261
-0.2503705498 1.5750118419 -0.1534411414 0.0784628101 -0.0017603157 0.1508839634
0.0809229264 1.5895343336 -0.0195572596 0.0784871840 0.0017600529 0.1506686371
-0.3800705499 1.4919783044 0.4508203717 0.0767205773 -0.0000013245 0.1507642262
0.2639665353 1.5895438063 0.0790698524 0.0785014891 -0.0017595008 0.1508970163
0.1533817887 2.0676858889 -0.4509171459 0.0784953868 -0.0003541622 0.1490517782
-0.2331701270 1.5890477745 0.0711364523 0.0784719918 -0.0017596119 0.1508965789
0.4297978661 1.5030953147 -0.3416114187 0.0785480993 -0.0001530353 0.1525343125
0.4365079117 1.9171680304 -0.3620602947 0.0802458541 0.0000082116 0.1508365348
0.4365079117 0.9682413483 -0.4171521644 0.0802458894 -0.0000092928 0.1508291309
-0.3151340701 2.3685269814 -0.4811665243 0.0787109406 0.0011374374 0.1518802685
-0.3729621603 2.2598637374 -0.4768102070 0.0782448083 -0.0010032081 0.1496028770
0.3994708757 1.1180047165 -0.4231442666 0.0767206285 0.0000041058 0.1507555189
-0.4282513987 2.1037213888 -0.4399825959 0.0783990323 -0.0003273668 0.1490487641
-0.3055464655 2.1190178522 -0.4387409029 0.0787640111 0.0003738995 0.1524797200
0.4365079117 1.4094250826 -0.3664219947 0.0802458559 -0.0000020406 0.1508034696
-0.0453048639 1.5877540885 -0.0468030102 0.0784813604 0.0017596384 0.1506619563
0.3513674237 1.5765025209 -0.2269657092 0.0779305314 0.0012924867 0.1506639775
0.3051555766 1.5647900150 -0.3169894934 0.0784881470 -0.0017610564 0.1508747888
-0.3959435654 1.7851788082 -0.3873644263 0.0802458894 -0.0000041411 0.1507350621
0.3056284637 2.0939682497 -0.4420078446 0.0781280658 0.0003594885 0.1524669422
0.3500881609 1.5733187891 0.0617853238 0.0767203586 0.0000380794 0.1507770269
-0.3800705499 1.5796870058 0.1539466317 0.0767210641 0.0000052434 0.1507783285
-0.4700932054 1.9916462048 -0.0077612882 0.0784581928 0.0017437901 0.1505765595
-0.5000000000 1.8124200790 0.3351410608 0.0768380341 0.0000265767 0.1513320639
-0.1991421402 1.5262901801 -0.3620775186 0.0786016831 -0.0015677548 0.1503157659
0.0731934945 2.2350591366 -0.4944387638 0.0784868189 -0.0014449135 0.1508152685
0.4033308385 1.2882493098 -0.4159231186 0.0784067872 0.0002168078 0.1490314290
-0.0036474364 2.2994851332 -0.5258361298 0.0784401082 -0.0005738007 0.1491123461
0.3853615286 1.3543384333 0.4902390179 0.0802459141 0.0000046067 0.1508245507
-0.2970156438 1.5555733839 -0.3913010858 0.0784894503 -0.0001001517 0.1491307412
-0.3666458571 2.0802212395 -0.4180062262 0.0789066584 0.0003687407 0.1524511274
-0.0239123583 2.2812848162 -0.5195267967 0.0784431963 -0.0005138324 0.1490928982
0.3853615286 1.3855692720 0.4731906180 0.0802458912 0.0000014638 0.1507931256
-0.3959435654 1.9515472923 -0.4130828859 0.0802458312 -0.0000067831 0.1507236918
-0.3773063137 1.5385116365 -0.1350808351 0.0783991452 -0.0017604761 0.1508144008
0.1025430158 1.5865834395 -0.0647200309 0.0784880923 0.0017599100 0.1506661362
-0.4378381163 1.9691254170 -0.1776126223 0.0788256531 0.0015957037 0.1505425242
-0.3959435654 1.1655079374 -0.4090895509 0.0802458242 0.0000012504 0.1507724378
-0.4159149793 1.8662089506 -0.4051113923 0.0784697854 -0.0002659171 0.1490382738
-0.0440859503 1.5748697502 0.4752943393 0.0784719582 0.0003933580 0.1524901344
-0.2301512029 1.5774809142 -0.2040280078 0.0784739829 0.0017584744 0.1506458435
0.3879191652 2.2085042167 -0.4665297663 0.0788607395 0.0003002593 0.1496108241
-0.2516053011 1.5405041585 0.4694022936 0.0784585067 -0.0017408730 0.1509445807
-0.4312169330 0.8843734475 -0.4535757279 0.0767417237 -0.0001959541 0.1507338964
-0.2971364498 1.9344126684 -0.4030416340 0.0781488595 -0.0003750194 0.1490892033
-0.3746253966 2.2649347161 -0.4357750458 0.0786678612 -0.0006483580 0.1522550815
-0.3800705499 1.5401947847 -0.1640999295 0.0767210888 -0.0000659030 0.1507817870
-0.3483245190 2.1517118126 -0.4238541378 0.0795657660 0.0003026508 0.1514617006
0.3862026732 1.8755739169 -0.3651688907 0.0782031558 -0.0011736278 0.1518136918
0.0127108947 2.3402264760 -0.5420891347 0.0784443145 -0.0002041781 0.1491782227
-0.4721424575 1.9686435934 -0.0710730695 0.0784309424 -0.0017433227 0.1509945225
0.0657309339 2.2583218203 -0.5134880825 0.0784892616 -0.0005882504 0.1491797006
0.2061509319 1.5940049702 0.1504495630 0.0785009089 -0.0017592345 0.1509010233
-0.4781976937 1.9495450807 -0.3277483114 0.0784177184 0.0017361763 0.1505141821
0.3853615286 1.3555959518 0.4680154665 0.0802458876 -0.0000004268 0.1507742032
-0.1954640998 2.2606542894 -0.4607546783 0.0786123357 -0.0003606384 0.1523273919
0.1077349610 1.6139192236 0.4257489984 0.0785069230 0.0016070423 0.1514655030
0.1860889342 1.9366794726 -0.4238375593 0.0785005773 -0.0003629647 0.1490539017
-0.2228478662 1.5922502365 0.0220072102 0.0784734627 0.0017595132 0.1506605666
0.2989107760 2.0509885207 -0.4342319982 0.0782126514 0.0003563668 0.1524850903
-0.2578921105 1.9624037982 -0.4155267677 0.0782400782 -0.0003710229 0.1490728153
-0.3602123000 1.5807187906 -0.1658848043 0.0785013745 0.0017530176 0.1506169369
0.4686819426 1.9389376665 -0.2983001411 0.0784885297 -0.0017472451 0.1509726124
0.3853615286 1.3381833861 0.4578523327 0.0802458806 -0.0000032063 0.1507461962
-0.1382974664 2.2021834726 -0.4767489036 0.0783841858 -0.0003515979 0.1490539476
0.3994708757 1.8159261019 -0.3850084369 0.0767205597 -0.0000032840 0.1507475542
-0.0613561809 1.5958791906 0.1804389644 0.0784861646 -0.0017592169 0.1509027147
0.3796073506 2.3081506197 -0.4489807597 0.0780453851 0.0004925891 0.1524147041
0.3646399048 1.4886592622 0.4305529066 0.0784618365 -0.0001725432 0.1490268382
0.3566129209 0.9157744749 0.4856791432 0.0783834979 -0.0002482275 0.1490393938
-0.4312169330 2.1234225029 -0.4104949195 0.0767210041 0.0000069806 0.1508114837
0.0480340208 1.5970748131 0.1995677998 0.0784934538 -0.0017590987 0.1509037852
0.3156460613 2.2551380885 -0.4922781519 0.0787766514 -0.0009354109 0.1495349423
0.3853615286 0.8645513404 0.5217973680 0.0802458541 -0.0000070723 0.1507904202
0.4024007521 2.3865315982 -0.4799604608 0.0782984732 0.0015658007 0.1513164960
0.0030299056 1.6080425183 0.4474987739 0.0784855032 0.0015198518 0.1516473902
-0.4209157711 1.4679103245 -0.3980901967 0.0784362246 0.0001525873 0.1490245366
-0.3776998674 1.4214125162 0.4369914426 0.0783857378 -0.0001733986 0.1490272562
-0.1161854352 1.6074602626 0.4480809767 0.0784598083 0.0015127636 0.1516619493
0.3853615286 1.5771077061 0.0533505656 0.0802454079 0.0000192063 0.1507772350
-0.1768898763 1.5721118649 -0.1998385970 0.0784652563 -0.0017604920 0.1508813584
0.0596722004 1.9730392018 -0.4323434057 0.0784290835 0.0003499330 0.1525070568
0.4182169299 0.9813871575 -0.4639663978 0.0784854062 0.0003298571 0.1490492879
0.4729404628 1.9565054562 -0.2758355721 0.0785161205 0.0017338236 0.1505024572
-0.0467976416 1.5732424681 -0.1817495040 0.0784732510 -0.0017604867 0.1508823778
0.3997826711 2.1514704704 -0.4041130854 0.0770173586 0.0000818677 0.1511400904
-0.3605968908 1.5907808715 0.4665240873 0.0784136567 0.0009847513 0.1522395118
0.1825151354 1.6032718729 0.2971638325 0.0785052016 -0.0017101287 0.1509064325
0.0724402282 1.5803705561 -0.1598044870 0.0784868454 0.0017594162 0.1506585613
0.0931585452 2.3099599283 -0.4869321926 0.0784560041 0.0005392381 0.1524569175
-0.4039329814 2.3394044937 -0.4934097780 0.0768745244 -0.0001145573 0.1503413814
-0.2942820883 1.5639614648 0.4766075914 0.0784157007 0.0002746490 0.1525160427
-0.0298756315 2.1868628945 -0.4734317450 0.0785059283 -0.0015335749 0.1512325330
-0.4312169330 1.9087245104 -0.3759801849 0.0767206091 0.0000030335 0.1508013408
0.3756087952 1.2983388404 0.5035507089 0.0785327607 0.0001731340 0.1525317764
0.3853615286 1.4116480755 0.4617770169 0.0802458824 -0.0000005679 0.1507726142
0.3994708757 1.9571980488 -0.3973963660 0.0767206179 -0.0000016279 0.1507635789
0.1541465506 2.2350882019 -0.4941558714 0.0785085738 -0.0014739559 0.1507504978
0.3500881609 0.8154804740 0.5309766200 0.0767206408 -0.0000047743 0.1508017606
0.0595472215 1.5488506892 0.4240979808 0.0785336126 -0.0008335785 0.1494255366
-0.4312169330 1.0777005235 -0.3987654595 0.0767206496 -0.0000083880 0.1508324872
-0.1489057412 1.8655701799 -0.4084104134 0.0784844274 -0.0013620635 0.1509485842
0.3695638659 2.2162982006 -0.4662032778 0.0786449230 0.0011899700 0.1499353814
-0.2381691974 1.5933204517 0.0383859646 0.0784727431 0.0017595502 0.1506611151
-0.3243999218 1.5733623869 -0.1798302342 0.0784576725 -0.0017603703 0.1508824801
0.3500881609 1.5816813585 0.1179674369 0.0767205456 0.0000469753 0.1507764114
-0.1240546925 2.3077725668 -0.5234297084 0.0783327642 -0.0006221711 0.1491362297
-0.2844438822 1.5943562188 0.2970271218 0.0784395261 -0.0014119400 0.1512231680
0.1896202005 2.2772545588 -0.4736316427 0.0783384327 0.0004757672 0.1524713037
0.3784961778 0.9047238826 0.5401949460 0.0785507343 0.0000785326 0.1525379034
-0.0487375939 1.5482058920 -0.3915957119 0.0784579847 -0.0002025132 0.1494880287
-0.1583288380 2.3447981919 -0.5342156534 0.0783622263 -0.0001030811 0.1491946530
0.0618512585 1.5952355768 0.0676958721 0.0784865579 0.0017603809 0.1506744590
0.3170177914 1.5497615886 -0.3375853606 0.0785462986 0.0003322363 0.1519154713
-0.4068838755 1.3845625683 -0.4048733888 0.0785221152 0.0001744391 0.1490268700
-0.0588229394 2.0930480945 -0.4558302604 0.0785422281 0.0003574903 0.1525053231
0.4364056754 1.9841777412 0.2378648217 0.0775284221 -0.0011016049 0.1504465842
0.0354299788 1.5716610448 -0.2930975945 0.0784857448 0.0017587231 0.1506488117
-0.2832668029 1.5944879772 0.0562548213 0.0784707360 0.0017595202 0.1506607870
0.2779809918 2.2495788294 -0.4979944110 0.0786792245 -0.0010963950 0.1496808311
-0.4627318493 1.9046998508 0.3263381245 0.0785115791 0.0005695291 0.1524366688
-0.3558889227 1.6121667510 0.3481673426 0.0785226214 0.0017578165 0.1506693884
-0.4250816616 1.5824330498 0.3492530040 0.0789042581 -0.0000484392 0.1492720322
-0.2774125138 1.5403443049 0.4253131942 0.0784574221 -0.0012194127 0.1496167306
0.0427610597 1.5789727766 -0.0900628609 0.0784816531 -0.0017602328 0.1508875295
0.1848591547 1.8744793755 -0.3958457823 0.0784399935 -0.0004225697 0.1520365171
-0.4312169330 1.7531957420 -0.3730173967 0.0767206091 -0.0000015661 0.1507617764
-0.3541608046 1.2560841061 0.5078439733 0.0785356514 0.0001709912 0.1525320145
0.1548542067 1.9248694394 -0.4196327552 0.0784788559 0.0003483633 0.1525082014
-0.1697295202 1.5709678068 -0.3763861179 0.0784053233 0.0012673792 0.1501946742
0.4118996302 1.6048555572 -0.3359931172 0.0784512193 0.0000000000 0.1525408240
-0.3693101163 0.9110209442 0.4861384942 0.0784171664 -0.0002582416 0.1490417412
-0.2717330960 1.5393927159 0.4582878142 0.0784554062 -0.0016642821 0.1506485930
-0.4827403990 1.5877071538 0.3480113374 0.0784099230 -0.0003027019 0.1490548029
-0.4284663687 2.0272629622 -0.4272855081 0.0783972475 -0.0002604621 0.1490374414
0.3569637128 1.6102852096 0.3174114510 0.0784242263 0.0017578553 0.1506684360
0.3500881609 1.5532936608 -0.2253590954 0.0767202669 0.0000336138 0.1507761133
0.3221931581 2.1856779298 -0.4812382157 0.0787288789 -0.0015032416 0.1499785031
0.2312699119 2.3072836391 -0.5209842658 0.0786588771 -0.0005847125 0.1491251451
0.4365079117 1.6091668781 -0.3419307502 0.0802458418 0.0000000741 0.1508300939
0.3994708492 1.4500926883 -0.3928793344 0.0767206056 0.0000039612 0.1507313461
-0.0900623230 1.8884315603 -0.4285178908 0.0784450041 0.0011119929 0.1496639581
0.0760195809 1.5722776392 -0.2836599934 0.0784874574 0.0017588659 0.1506507429
-0.3800705499 0.8992413748 0.5198325374 0.0767206197 -0.0000033439 0.1507937306
0.0490697121 1.9484948885 -0.4278216368 0.0784272863 0.0003486702 0.1525072737
-0.0595094632 1.5943562188 0.2972427902 0.0783120623 -0.0014521640 0.1511847835
-0.1424174468 1.5629111650 -0.3236474385 0.0789763074 0.0004752628 0.1516254307
0.4365079117 1.2207659571 -0.4094897766 0.0802458365 0.0000037019 0.1507524607
0.3313105935 2.2454226267 -0.4859053073 0.0787565879 -0.0013536049 0.1499173232
-0.0442916487 1.5846346212 0.0005241279 0.0784800570 -0.0017599118 0.1508926159
-0.3613707303 2.1742580042 -0.4397260228 0.0788885438 0.0003746261 0.1524543866
0.4365079117 1.4337611014 -0.3571969667 0.0802458559 -0.0000034074 0.1508212844
0.3626524675 2.3510959008 -0.4694376551 0.0780902052 0.0006263210 0.1523804801
-0.2741488296 2.3157314643 -0.4682626481 0.0786916919 0.0005624832 0.1524370815
-0.0287482841 2.0772028516 -0.4531052076 0.0785304362 0.0003563439 0.1525059774
0.1881352534 1.5981466420 0.2167175877 0.0785024944 -0.0017589753 0.1509047429
0.1807331601 1.6033000758 0.1911176396 0.0784929283 0.0017611675 0.1506890798
-0.4312169330 1.2933951016 -0.4042463517 0.0767206091 0.0000047090 0.1507414995
0.2435557387 1.5983507390 0.2199830427 0.0785059283 -0.0017589418 0.1509049246
0.3624834110 1.1958995680 0.4586082216 0.0784419424 -0.0001758042 0.1490292791
-0.3744597829 1.3315060106 0.4455995252 0.0783930341 -0.0001703845 0.1490276442
0.4999999735 1.6274297383 0.3501698770 0.0801342069 -0.0000490547 0.1503042473
-0.2776114168 1.5709727574 -0.3752311867 0.0785478718 0.0016320723 0.1511012985
0.4328216896 1.3407210280 -0.4093641541 0.0785615455 0.0002033527 0.1490297800
0.4365078853 0.8748370015 -0.4410886030 0.0801788100 -0.0003015062 0.1507361292
-0.3069957000 2.1705188209 -0.4495573117 0.0787680235 0.0003767460 0.1524782861
-0.2927883406 1.9969981376 -0.4146608118 0.0787587025 0.0003616473 0.1524833337
0.4717616604 1.6396966198 0.3427054098 0.0785563921 -0.0001828025 0.1490289440
-0.0246830073 1.5736492617 -0.2626683678 0.0784830447 0.0017587142 0.1506487976
-0.0839383144 1.5706427151 -0.3663068131 0.0784417466 0.0012070300 0.1505630216
0.4744562229 1.7573739041 0.3300251950 0.0785464344 -0.0001813386 0.1490328611
0.0135019829 1.5679705176 0.4752943393 0.0784933568 0.0003271376 0.1525066212
-0.0957395468 1.5853145119 0.0114037907 0.0784775561 -0.0017598553 0.1508932262
0.0477749308 1.5262769402 -0.3606349032 0.0784618947 -0.0011556419 0.1511572226
0.4388076559 2.0017894497 0.1883769818 0.0779087889 0.0014870511 0.1508800039
-0.3800705499 1.4232940558 0.4717554840 0.0767205756 0.0000019612 0.1507975524
-0.2079660007 1.5390859258 0.4552184015 0.0784608295 -0.0016730158 0.1506413549
-0.3959435654 1.2132199891 -0.3781342854 0.0802458136 -0.0000077919 0.1508324096
0.4365079117 1.8413184486 -0.3939507876 0.0802458594 -0.0000065397 0.1507330763
-0.4211175524 1.4729780721 -0.3444130076 0.0784393709 -0.0001513862 0.1525340780
-0.0089798102 2.3178574695 -0.4898810955 0.0785404715 0.0005937848 0.1524386424
-0.3505341644 1.9356109805 -0.3898360276 0.0788817960 0.0003637372 0.1524583937
-0.3037387689 1.6099495712 0.2928836351 0.0784692016 0.0017605308 0.1506756442
0.2528221300 1.5929321730 0.0324429559 0.0784959283 0.0017606525 0.1506801256
-0.4370386860 1.9426544583 -0.2830882862 0.0791455085 -0.0013626349 0.1509370427
-0.3999623042 2.2351334135 -0.4696324946 0.0785597201 -0.0004873580 0.1490867694
-0.0490403206 1.9483183488 -0.4262434429 0.0785370253 0.0003486014 0.1525073549
-0.3511077270 1.5710754523 0.3972132884 0.0784838154 -0.0017603439 0.1508863443
-0.3510738999 1.5682212248 0.4752303446 0.0785495014 0.0003993192 0.1524820674
-0.3676939224 1.5334854391 0.4262610425 0.0784550729 -0.0001741658 0.1490266495
-0.3959435654 1.4644525256 -0.3754034195 0.0799776125 -0.0002922257 0.1507518981
0.4179616212 2.2689025379 -0.4326702716 0.0784879724 0.0004391376 0.1524847006
0.3994708757 2.2427450465 -0.4537329977 0.0767205086 -0.0000127813 0.1507360375
-0.3130258550 1.5895167869 -0.0198265347 0.0784697343 0.0017591040 0.1506549405
-0.2495963893 1.5912816404 0.0071829601 0.0784723656 0.0017593809 0.1506587429
0.3648331023 1.5657251332 -0.3363083042 0.0785674873 0.0013320053 0.1516109263
0.0088258102 2.3653387293 -0.5086402555 0.0785082598 0.0013701799 0.1516476177
0.3811287086 1.4711419576 0.4322300812 0.0785650694 -0.0001698360 0.1490268700
-0.4372717389 1.9259687180 0.3156994387 0.0793647677 0.0004128906 0.1517805701
-0.2896250091 2.1864196088 -0.4762486197 0.0782906020 -0.0015659241 0.1500133461
0.3641975080 1.9551413698 -0.3892287437 0.0772182951 -0.0000821922 0.1507490322
-0.4226960708 1.7172914625 -0.3370001966 0.0784300729 0.0000719788 0.1525388240
-0.0038730008 1.5682374788 -0.2618308299 0.0784727431 -0.0017607583 0.1508778805
-0.2256210919 2.3775834362 -0.5028763632 0.0785600023 0.0015919400 0.1510138382
-0.4982213687 1.9409403084 -0.3564816599 0.0768299195 0.0005886825 0.1506723708
-0.3599102189 2.1253448415 -0.4394165942 0.0791324891 -0.0001910282 0.1494372438
0.0443958092 1.5736173993 -0.1757509169 0.0784786108 -0.0017605044 0.1508827165
0.0283568167 2.2034853403 -0.4694591313 0.0784608418 0.0003671534 0.1521029140
0.1445893956 2.2815901001 -0.5192156997 0.0785455808 -0.0005175802 0.1490947906
0.3500881609 1.5464254300 -0.3292410892 0.0767202475 0.0000326720 0.1507756636
0.4247635417 1.7683520520 -0.3936812409 0.0785186866 -0.0001509100 0.1490243814
-0.1561305488 2.0639514410 -0.4468609996 0.0783696831 -0.0003551534 0.1490556266
-0.3382295792 1.5482344176 -0.3915945814 0.0784035226 -0.0000541817 0.1496323955
-0.0889105259 1.5373349593 -0.3920305478 0.0784600817 -0.0005780635 0.1494473479
-0.3800705499 1.1544362464 0.4891906546 0.0767205791 -0.0000010265 0.1507763390
-0.0456030420 1.6002015996 0.2495970613 0.0784898806 -0.0017589329 0.1509065948
-0.2813563603 2.1284855134 -0.4478513418 0.0782297096 -0.0003562081 0.1490708964
0.3178903399 1.5983352381 0.2197349263 0.0785103498 -0.0017589135 0.1509049087
0.3803815922 1.5428096082 -0.0648236799 0.0785171011 -0.0017615149 0.1508513373
-0.3960128352 1.7314947831 -0.3392863781 0.0801802421 0.0000050388 0.1509068523
-0.4421389433 1.7883384271 0.3442406126 0.0785810464 0.0001684550 0.1525310621
0.4982363052 1.9615874137 -0.1668629541 0.0801301240 -0.0005076137 0.1508425807
0.4365079117 2.1268695363 -0.4031947063 0.0802455261 0.0000115168 0.1508349405
0.3500881609 1.1475950331 0.5008419382 0.0767205809 0.0000013827 0.1508026353
0.4467023700 1.9700404047 0.2629098229 0.0783527678 -0.0014990829 0.1499006054
-0.1984502214 2.3683050149 -0.5296622920 0.0784431575 0.0010966208 0.1497279422
-0.3537796846 1.3134158153 0.5020188289 0.0785373656 0.0001742381 0.1525316476
0.0651990979 2.1999756561 -0.4801496478 0.0785316602 -0.0003441323 0.1490503109
0.2113272934 1.5379994567 0.4443550597 0.0785017378 -0.0017403262 0.1507535154
-0.3959435654 1.6211599095 -0.3556136581 0.0802458488 0.0000003139 0.1507962526
0.3853615286 1.2030924585 0.4706290784 0.0802459088 -0.0000036702 0.1507436918
0.4365079117 1.4806047756 -0.3480920181 0.0802458471 -0.0000046578 0.1508336777
0.3853615286 0.9790895667 0.5204275480 0.0802458453 -0.0000030758 0.1508128293
-0.0622585354 1.5708484276 -0.3055334002 0.0784815843 0.0017584285 0.1506448241
-0.2675849127 1.8853522447 -0.4163172650 0.0783199865 0.0004610141 0.1495554749
-0.3447971822 1.2516469475 0.4721028579 0.0802458965 -0.0000019630 0.1507587976
-0.4726249267 1.9781978030 0.2477925076 0.0784562704 -0.0016361287 0.1501544996
-0.3447971558 1.4576559879 0.4485256874 0.0802458771 -0.0000026314 0.1507514431
0.4649113801 1.9141481345 0.3053282944 0.0784495279 -0.0006821111 0.1491670763
0.1785688074 1.5998286067 0.2436284671 0.0785030041 -0.0017588712 0.1509062526
0.3194863505 2.3237704518 -0.4689094911 0.0781460658 0.0005724462 0.1524124942
-0.1073919063 2.1377499399 -0.4627293326 0.0785818189 0.0003629136 0.1525023531
-0.1550354694 1.8923182180 -0.3959385195 0.0785479671 0.0012127090 0.1516467993
-0.2199536212 1.5968372382 0.1957672303 0.0784773251 -0.0017592151 0.1509035789
0.2346544832 1.5862707288 0.0267021536 0.0784976408 -0.0017597231 0.1508940780
0.0174366988 2.1364349400 -0.4668915635 0.0785062457 0.0003602628 0.1525053302
-0.0221297851 1.5856441238 -0.0790960976 0.0784824768 0.0017595502 0.1506606442
0.1833114775 1.5272438150 -0.3885384650 0.0782427078 -0.0016192963 0.1504091063
0.3500881609 1.5212737799 0.4495438550 0.0767205791 -0.0000009206 0.1507683514
0.3176087121 1.5968795433 0.1964431385 0.0785093992 -0.0017590070 0.1509036018
-0.2106507925 1.5274476950 -0.3393704505 0.0784945491 -0.0003558818 0.1524494413
0.4400930809 1.6423438437 0.3585725858 0.0782191099 0.0002693880 0.1524994272
-0.3447971822 1.5688024029 -0.0212360091 0.0802453568 0.0000047002 0.1507777200
0.0278976809 1.5692582830 -0.2454969820 0.0784751311 -0.0017607195 0.1508787994
0.3042447318 1.9800019459 -0.4197168804 0.0788772140 -0.0003594973 0.1491008453
-0.4580152956 1.9251331713 0.2999381464 0.0785479565 -0.0007650423 0.1492074149
0.4052815669 0.8672626137 -0.4314583422 0.0784178083 -0.0003540652 0.1525047711
0.1853789960 1.5857732984 -0.0771177837 0.0784921681 0.0017600388 0.1506688152
-0.3959435654 1.5728217891 -0.3665370670 0.0792917007 0.0010269312 0.1508370533
-0.3983463801 2.1602957012 -0.4291827109 0.0780355491 -0.0003615291 0.1491126530
0.0128049900 1.5750684645 -0.1525343055 0.0784776796 -0.0017604179 0.1508840198
0.2126460341 1.6084655659 0.4455179027 0.0785191752 0.0015364021 0.1516135471
0.0888789791 2.1884560515 -0.4983620759 0.0784891822 -0.0009804515 0.1498009528
0.4982363052 1.9575888036 -0.1969888634 0.0801327942 -0.0004944550 0.1508372967
0.2452735376 1.6031685325 0.1891048513 0.0784961311 0.0017613015 0.1506917500
-0.3565643724 1.6076569310 0.2744494575 0.0785183022 0.0017574197 0.1506643073
-0.3800705499 0.9958029719 0.5102528428 0.0767205950 -0.0000008695 0.1507922897
0.4029982124 1.9625379252 -0.3783261108 0.0797447377 0.0000083686 0.1514231327
0.1898971317 1.5720075563 -0.2015077522 0.0784858718 -0.0017606437 0.1508812738
-0.3665307019 1.9978575803 -0.4000199638 0.0789123797 0.0003642416 0.1524506282
-0.1291423008 1.5867695594 -0.0618714948 0.0784778066 0.0017593650 0.1506582526
-0.4373909029 1.8738522309 0.3221020347 0.0797859318 -0.0001904638 0.1499366019
0.4074402952 1.9416014689 -0.3757388446 0.0785438789 0.0000016878 0.1508407782
0.3391226903 1.6045524267 0.2289375363 0.0779062916 0.0015128694 0.1503174572
-0.1115288410 1.5658199692 -0.3005084409 0.0784652598 -0.0017608377 0.1508757059
-0.0359337336 1.5799861540 -0.1656872469 0.0784822016 0.0017591252 0.1506546442
0.3994708492 0.9975564145 -0.4122797942 0.0767206267 -0.0000088201 0.1508304995
0.1386729143 2.2093755006 -0.4960099613 0.0784813886 0.0013985379 0.1500908946
-0.1893834333 1.5827227253 0.4717669761 0.0784471311 0.0005587760 0.1524476776
0.1029979064 1.5675446711 -0.3264999446 0.0782619494 0.0013872927 0.1512777147
-0.3659687919 0.8998474206 0.5406401153 0.0784599512 -0.0000486437 0.1525299192
0.3695394832 1.5585243856 0.1920512110 0.0784992634 -0.0017609135 0.1508705595
0.4365079117 2.2351392266 -0.4455173648 0.0802453374 -0.0000008078 0.1507811327
0.3677116049 1.6053554637 0.2368307565 0.0784841963 0.0017572574 0.1506620974
0.3994708757 1.1206431150 -0.4032454611 0.0767206479 -0.0000037972 0.1508046636
0.0056354117 1.8887945409 -0.4174576106 0.0784587554 -0.0003632257 0.1490536707
0.4737011418 1.9673275159 -0.1951216112 0.0785218313 0.0017388395 0.1505328805
-0.1935879693 1.9469686857 -0.4197379774 0.0783209759 -0.0003701587 0.1490627165
-0.3769050103 1.6125893683 0.3550755100 0.0784037925 0.0017581269 0.1506713091
-0.3447971822 1.0937933520 0.5069992767 0.0802458453 0.0000009224 0.1508060480
0.0123018612 2.1930945081 -0.4786032634 0.0785209547 0.0003635873 0.1525044748
-0.2309118272 1.6077580104 0.2593430205 0.0784727007 0.0017605502 0.1506762720
-0.3959435654 1.4741453825 -0.3544345612 0.0797427871 -0.0005530053 0.1507839158
0.4178973020 1.3031300467 -0.3607120866 0.0784826443 -0.0002193104 0.1525270039
0.0423638340 1.5779610129 0.4737917661 0.0784910006 0.0007534250 0.1523686900
-0.2138384802 1.5272643741 -0.3899967966 0.0783856778 -0.0014106331 0.1498572914
-0.0563004227 1.5923171924 0.0230310549 0.0784806284 0.0017599276 0.1506660727
0.0335474391 1.6030796172 0.1877445656 0.0784855932 0.0017608289 0.1506823814
-0.4312169330 2.0902518883 -0.3927310522 0.0767209495 0.0000130617 0.1508449934
-0.4303020512 0.8856637984 -0.4823568717 0.0775844433 0.0000263686 0.1498380093
-0.3447971822 1.0483209776 0.5162115745 0.0802458418 -0.0000006614 0.1508181627
0.1623923987 1.5697410749 -0.3382808597 0.0785508101 0.0014038271 0.1516967711
-0.4559487119 1.9979917073 0.0430036258 0.0785479424 0.0017439400 0.1505917817
0.3853615286 1.5617165125 -0.1435403392 0.0802453921 0.0000071711 0.1507763179
-0.3959435654 0.8363052495 -0.4770275985 0.0802160940 -0.0002601481 0.1506826812
0.0603602621 1.5943562188 0.2975518819 0.0786129247 -0.0013868695 0.1511848046
-0.0337758659 1.5725135986 -0.2800496884 0.0784827166 0.0017586119 0.1506473867
0.3502412879 1.5231466017 0.4287093652 0.0768627978 -0.0000198395 0.1505728435
0.4268855910 1.2904573398 -0.4156471151 0.0785321293 0.0002251764 0.1490325419
-0.2612907294 1.8991022707 -0.3836773435 0.0786813304 0.0016077654 0.1514085824
-0.3800705499 1.5576065972 0.1303103643 0.0767210800 -0.0000656226 0.1507825189
-0.1693405696 1.5449332448 -0.3917266096 0.0784435985 -0.0003433386 0.1495391398
0.1292525777 1.5852995489 0.0111626514 0.0784907325 -0.0017598254 0.1508932103
-0.3559277816 2.3241267586 -0.5002657372 0.0781676337 -0.0005800123 0.1491444467
-0.0160422209 1.9325766614 -0.4262629808 0.0784582898 -0.0003608624 0.1490531980
-0.1341864735 1.5980875450 0.2157713673 0.0784832422 -0.0017591022 0.1509046988
-0.4312169330 1.3380884426 -0.3750829574 0.0767206056 -0.0000020741 0.1507985736
0.0461341531 1.5773296708 -0.1163540490 0.0784808806 -0.0017603174 0.1508860533
-0.0741171577 1.5871397534 0.3983213942 0.0784729653 -0.0000170705 0.1490419017
-0.0832189846 1.5387160545 0.4515204739 0.0784717043 -0.0017041957 0.1506841398
-0.1287844578 2.2760695941 -0.4711906128 0.0786052475 0.0004700335 0.1524748205
-0.3549833795 2.2734779152 -0.4841365242 0.0781649336 -0.0004863192 0.1491143444
-0.3037749382 2.0156277456 -0.4169084008 0.0787680711 0.0003657372 0.1524808540
0.3225696220 1.5725097238 -0.2801092704 0.0784982422 0.0017594797 0.1506593285
0.4194789951 0.9533487702 -0.4695389514 0.0784934979 0.0002912716 0.1490451557
-0.3520477711 1.5525084933 0.0937150672 0.0784798295 -0.0017612857 0.1508657711
0.4365079117 1.9588245760 -0.4030171983 0.0802458277 -0.0000025961 0.1507512579
0.1275098599 1.9648247523 -0.4285861377 0.0784213868 0.0003527284 0.1525062332
0.3584737674 1.5394055272 0.4584156695 0.0785323268 -0.0017133650 0.1509953479
0.0838025048 1.5816292580 -0.1405407908 0.0784872651 0.0017595326 0.1506601680
-0.4807555190 1.7026270925 0.3359855811 0.0783748260 -0.0001810476 0.1490331239
0.3533115594 1.6007324003 0.1612586509 0.0784019688 0.0017570123 0.1506578293
-0.3800705499 1.5928741519 0.4177051151 0.0767218225 0.0000222222 0.1507788382
-0.3492965878 1.2551706246 0.4529082164 0.0785858648 -0.0001688730 0.1490282139
0.1873487261 1.6077386347 0.4478024688 0.0785188171 0.0015341605 0.1516180851
-0.4038164011 1.0827479273 -0.3929389711 0.0785395473 -0.0002752046 0.1525189580
0.3850819995 1.1564212340 0.5156018955 0.0799820005 0.0000126684 0.1511097588
0.3500881609 1.1302318784 0.5152618426 0.0767205844 0.0000041076 0.1508332579
-0.3783068815 1.5947768978 0.4391611780 0.0783047343 0.0011311957 0.1506060498
-0.2096226691 2.0290440698 -0.4353291763 0.0783113057 -0.0003632469 0.1490622421
0.3103045429 1.9196763919 -0.4045534117 0.0789569794 -0.0003625697 0.1491199193
0.2544289042 1.5546174897 0.4779585456 0.0785381716 0.0003221605 0.1525091132
-0.2516184616 1.6010735308 0.2635471262 0.0784781593 -0.0017589541 0.1509073831
-0.4312169330 1.4576523283 -0.3509293990 0.0767206179 -0.0000046384 0.1508321098
0.3500881609 1.5821684573 0.3504453161 0.0767200218 0.0000219453 0.1507780145
-0.0300894163 1.5835543955 -0.0167605154 0.0784802263 -0.0017599717 0.1508916459
-0.3437522105 2.1170526706 -0.4312949366 0.0788573074 0.0003719242 0.1524620762
0.2626030804 1.5704199973 -0.3593526810 0.0783897537 0.0016825925 0.1510311556
-0.3306878352 1.5934119508 0.2606495178 0.0796758101 -0.0010040582 0.1502576107
-0.3707204920 1.6139416134 0.3771802749 0.0784389247 0.0017581693 0.1506724237
-0.2329650088 1.5825616865 -0.0326415362 0.0784682087 -0.0017599418 0.1508907482
0.3484339687 1.5583787401 0.4770580077 0.0785583604 0.0002234621 0.1525254960
-0.1477100922 2.2869616238 -0.4723128737 0.0786142104 0.0004884515 0.1524688364
-0.3421309301 1.5473492465 -0.3377783694 0.0783985614 -0.0000366014 0.1519194977
-0.4255979314 1.5677878421 -0.3908124826 0.0784047660 0.0000880529 0.1490200657
0.2135761892 2.2129954141 -0.4814281575 0.0784815350 0.0013667636 0.1506189281
-0.3800705499 1.5890491749 0.4629448934 0.0767215015 0.0000400582 0.1508411186
0.4800637607 1.9471816099 -0.2366183579 0.0785452651 -0.0017457795 0.1509908170
0.3847130436 1.5485948162 0.0251969967 0.0796164785 -0.0006944021 0.1507997729
-0.3959435654 0.8178734934 -0.4577453874 0.0802341910 -0.0001197460 0.1507741680
0.3604164234 0.9484078285 0.4825254714 0.0784150958 -0.0002398236 0.1490382403
0.1225864844 1.5726591365 -0.1910831193 0.0784824591 -0.0017605837 0.1508818576
-0.1327776182 2.2887093610 -0.5150992183 0.0783569406 -0.0005273227 0.1491016407
0.2320255044 2.3390574425 -0.4901157093 0.0783127501 0.0006089735 0.1524250533
-0.3483245190 2.0405595827 -0.3902393750 0.0795986901 0.0002073880 0.1518909263
-0.3015902398 1.5714285299 0.4023279144 0.0784468630 -0.0008339806 0.1496586424
-0.1822692306 2.3258596404 -0.4824957888 0.0786121187 0.0006214197 0.1524247940
0.1230153856 1.8613099913 -0.4250078856 0.0784902951 -0.0015854021 0.1501726812
0.2112842616 1.5887746775 -0.0311848202 0.0784936267 0.0017602910 0.1506734537
-0.0929346351 1.5952791730 0.0683605299 0.0784788842 0.0017600423 0.1506677800
-0.3959435654 1.2460037254 -0.3779699098 0.0802458206 -0.0000059083 0.1508206530
-0.1216587525 2.2146912642 -0.4764371611 0.0785167589 0.0014240617 0.1508553302
-0.2682407187 2.0576360796 -0.4344500882 0.0782401575 -0.0003623122 0.1490707959
-0.3959436200 1.1073261488 -0.3927292233 0.0802457995 -0.0000089224 0.1508358382
0.2014894118 1.5672037557 -0.3292267188 0.0783012140 0.0014047548 0.1510279263
-0.0018313571 2.3688103059 -0.5283161809 0.0784870746 0.0013605167 0.1504725948
-0.2547504139 1.5451133365 -0.3917194508 0.0784270958 -0.0002889876 0.1495822050
0.2890395506 1.9034877592 -0.4070281876 0.0787372351 -0.0003660600 0.1490731468
-0.3785874600 1.5306304586 -0.2682133095 0.0781220517 -0.0014921516 0.1507940992
0.3853615286 1.4521791856 0.4708178897 0.0802458859 0.0000025044 0.1508035595
0.3853615286 1.1193732173 0.4790874538 0.0802458982 -0.0000042293 0.1507450357
-0.3800705499 1.5875004748 0.0001426852 0.0767210659 0.0000667302 0.1507732085
0.2155689264 2.2998662002 -0.4778146496 0.0783167537 0.0005270547 0.1524539986
0.4668844453 1.8468398153 0.3392649020 0.0784881434 0.0002207654 0.1525178099
-0.2108752616 1.5699135228 -0.3434519459 0.0785141858 0.0011206684 0.1519432544
0.3994708757 1.8661725662 -0.3767815553 0.0767206003 0.0000007266 0.1507827341
-0.4257019173 1.6568961537 -0.3359931172 0.0784124415 0.0000042451 0.1525405595
0.1987336535 1.6017712910 0.1677194109 0.0784937378 0.0017611075 0.1506880816
0.3938212480 1.8872664016 -0.3961135512 0.0788401434 0.0002550741 0.1496661398
0.3853615286 1.5788300376 0.0963481359 0.0802454079 0.0000159806 0.1507775436
0.3500881609 1.4511026212 0.4487196645 0.0767205738 -0.0000027848 0.1507495718
-0.3770260579 1.2990808422 0.4487040560 0.0783748101 -0.0001700917 0.1490278170
-0.3267814243 1.5934517797 0.0403971250 0.0784689212 0.0017593421 0.1506583496
-0.3800705499 0.8259973591 0.5342031402 0.0767206302 -0.0000024974 0.1508120921
0.3805335887 0.8132029062 0.4955914887 0.0785756390 -0.0005409259 0.1491084484
-0.1346471966 1.5854549898 0.4700861683 0.0784595879 0.0008627654 0.1523014942
-0.4544207331 1.9064729919 0.3077070104 0.0785888348 -0.0005970317 0.1491338788
0.3034263544 1.5953039331 0.1712336083 0.0785075420 -0.0017591146 0.1509021874
-0.3043072203 1.5674317504 -0.2747233481 0.0784553357 -0.0017606790 0.1508771503
-0.3658022099 1.5971184092 0.1021840511 0.0784648824 0.0017565873 0.1506529599
0.4365079117 1.8097620897 -0.3698789311 0.0802458365 0.0000000247 0.1507825789
0.1817088744 1.6115985958 0.3992997328 0.0784875367 0.0004131764 0.1490954802
0.3998670661 2.0347854647 -0.4270479331 0.0770970994 -0.0000663245 0.1503384008
-0.3447971822 1.2214940735 0.5092626364 0.0802458312 0.0000053792 0.1508402191
0.2902362895 2.1890009544 -0.4636973907 0.0784219142 -0.0012719259 0.1514862403
0.2813726954 1.8689433685 -0.3896122322 0.0783974856 -0.0011912363 0.1519404713
0.3994708757 2.3432233348 -0.4818563726 0.0767204045 -0.0000141093 0.1507398382
0.2645298863 1.5991460247 0.2327079718 0.0785076902 -0.0017588818 0.1509056371
0.1248107013 2.1939830160 -0.4991186103 0.0784900217 -0.0002553386 0.1498211521
-0.1658547302 2.2123376981 -0.4845786265 0.0784662510 0.0012543650 0.1501719563
-0.3800705499 0.9484133188 0.5335729815 0.0767206020 0.0000029824 0.1508376442
0.4291853070 1.0802549591 -0.4462209379 0.0785478348 0.0002986190 0.1490438400
0.4348200264 1.9939356139 0.0636958616 0.0768851117 0.0006802769 0.1507259616
-0.0036963006 1.5714285299 0.4041254382 0.0784756302 -0.0013052204 0.1499658029
-0.3800705499 0.9200163637 0.5079290121 0.0767206302 -0.0000071340 0.1507693338
0.4365079117 1.1535956397 -0.4201990779 0.0802458294 0.0000047584 0.1507490516
-0.2838749475 1.5663367769 -0.2922411378 0.0784558471 -0.0017607425 0.1508761662
-0.4075187150 1.6082907493 -0.3359931172 0.0785186284 0.0000000000 0.1525405877
0.2109664115 1.5991494692 0.1275957188 0.0784941981 0.0017609647 0.1506855542
0.2525757543 2.2746140086 -0.4664474718 0.0782680588 0.0003481887 0.1524406459
0.3641975080 2.0051460616 -0.3907800805 0.0773274786 0.0000837654 0.1513326353
-0.3453371875 0.8024691692 0.5159998356 0.0787176178 -0.0017346913 0.1508342808
0.3587785663 1.5350651410 -0.1914180858 0.0784956549 -0.0017608430 0.1508745895
0.3665944021 0.8024691692 0.5234766960 0.0785381276 -0.0017495026 0.1507757006
0.3500881609 0.8420020253 0.5223335514 0.0767206444 -0.0000066402 0.1507866794
0.3462790605 2.2081524301 -0.4445044177 0.0781806038 0.0003442875 0.1517797094
-0.3800705499 1.5662527064 0.1887285938 0.0767210747 -0.0000477866 0.1507815983
0.3500881609 1.5635551033 -0.0200692631 0.0767201787 0.0000294938 0.1507775524
0.4248476669 1.6751947511 -0.3889031687 0.0785192757 -0.0000151217 0.1490179934
0.0746416409 1.5764523586 -0.2197706106 0.0784871628 0.0017591516 0.1506547923
-0.3008435820 2.1894255100 -0.4573803609 0.0781949829 -0.0003530247 0.1490762615
-0.1599121995 1.6090158516 0.4447617722 0.0784506408 0.0015487601 0.1515882103
0.3853615286 1.4458646849 0.4417480139 0.0802458753 -0.0000045079 0.1507324431
0.2997614057 1.6075722132 0.2564991334 0.0784990923 0.0017617072 0.1506992756
-0.3959435654 2.2710276807 -0.4549095127 0.0802462933 -0.0000083245 0.1507492597
0.0634736465 2.3209514236 -0.5347310079 0.0784979424 -0.0006282628 0.1491318629
0.0091517608 1.5908583777 0.0007054435 0.0784836884 0.0017599806 0.1506670410
-0.3699998835 1.5535453363 0.1106621620 0.0784420447 -0.0017606913 0.1508607535
-0.0226068768 2.1923351748 -0.5002203104 0.0784827889 -0.0006265467 0.1496659017
0.3853615551 1.2748778746 0.5000046420 0.0802459300 0.0000049453 0.1508279069
-0.3800705499 1.5789567378 0.0892802155 0.0767210641 0.0000160265 0.1507774484
-0.1971841456 1.6064652926 0.2395605995 0.0784743057 0.0017605396 0.1506762385
0.1672681058 1.9908001078 -0.4350245925 0.0784832298 -0.0003613474 0.1490531186
0.1356610802 1.9447946717 -0.4239531713 0.0784288030 0.0003526173 0.1525065083
0.1612635310 1.5848059933 0.0032684893 0.0784923251 -0.0017598448 0.1508927658
-0.4155666372 1.6733991127 -0.3889031687 0.0784716302 -0.0000174621 0.1490182932
0.4590216219 1.8976453925 0.3288278917 0.0784328912 0.0005061905 0.1524574413
-0.0412258957 1.6155202394 0.4203678134 0.0784276090 0.0017565661 0.1507793567
-0.4215941537 1.3214170180 -0.3584262277 0.0784366955 -0.0002120917 0.1525276406
0.2932002347 2.3056807944 -0.5117109591 0.0788062598 -0.0005539965 0.1491376389
0.3822958849 1.5699927504 0.3795132536 0.0784903304 -0.0017604850 0.1508842720
-0.0955750636 2.0978755759 -0.4572625955 0.0784010588 -0.0003517513 0.1490531080
0.1288302867 2.1365137354 -0.4640900821 0.0784172175 0.0003605926 0.1525044113
0.2198268963 2.3629022744 -0.5439003286 0.0786011170 0.0008865150 0.1492704308
-0.1967848863 1.5632100980 -0.3909955867 0.0783922422 0.0007980458 0.1496030816
0.2035060202 1.6020709770 0.3989186394 0.0784908859 0.0001430529 0.1490553797
0.4125335297 0.8476815243 -0.4353314920 0.0784551734 -0.0003547072 0.1525046900
-0.3076387758 2.3194857199 -0.5064830351 0.0781995050 -0.0006113263 0.1491495860
-0.3223071546 2.1532604051 -0.4454189238 0.0781337184 -0.0003592134 0.1490884608
-0.1378885457 1.8722726365 -0.3916817754 0.0785658806 -0.0008146649 0.1520873884
-0.4305067937 0.8594025346 -0.4873633689 0.0773911011 0.0000177725 0.1500343849
-0.3800705499 1.2402698649 0.4574290964 0.0767205244 -0.0000055732 0.1507240745
-0.4909134588 1.8278065354 0.3235632869 0.0783360147 -0.0001732469 0.1490341345
0.0171551574 1.5755946373 0.3978595653 0.0784931470 -0.0003969947 0.1491080304
0.3336212637 1.5706392706 -0.3658703104 0.0783894732 0.0017226825 0.1509309757
0.3500881609 1.0856532870 0.4985237055 0.0767205862 -0.0000009136 0.1507837323
0.1272465443 1.5710251807 -0.3775602643 0.0785497060 0.0014009929 0.1503444237
0.0685217098 1.5777109530 -0.2005062954 0.0784868277 0.0017592239 0.1506558258
0.1475259987 2.2550872790 -0.5113030896 0.0785481346 -0.0007023792 0.1492948135
-0.4123265526 2.1824216442 -0.4303952858 0.0780417960 -0.0003003757 0.1494055401
0.3377424822 1.5725590254 -0.1510647253 0.0777291893 0.0002599559 0.1511750886
0.1640442964 2.0303284983 -0.4414315077 0.0784638030 0.0003555361 0.1525064730
-0.3959435654 2.3388378464 -0.4615804296 0.0802466989 -0.0000027654 0.1507696759
0.3325688386 1.5863241221 0.0275576421 0.0785035120 -0.0017596825 0.1508941239
0.3783678903 2.3800450799 -0.4956813722 0.0783985367 0.0013574303 0.1505467729
0.3042203632 1.9598997436 -0.4135815543 0.0780884327 0.0003513457 0.1524609598
0.3499358699 1.6108920085 0.3992714753 0.0784995173 0.0002523739 0.1490589405
0.4737921030 1.9421676841 -0.3827718267 0.0785156231 0.0017246860 0.1504491521
0.2823578558 1.5742288278 -0.1659674762 0.0784927501 -0.0017604797 0.1508832650
-0.3447971822 0.8229888759 0.5144790702 0.0802458647 -0.0000085256 0.1507633461
-0.3957974895 1.5619657135 -0.3366090661 0.0785060112 0.0003906173 0.1524375542
-0.0576876942 1.9717138667 -0.4328105344 0.0784127466 -0.0003609383 0.1490545366
0.2660053325 1.5601350892 -0.3911186272 0.0785293815 0.0004696296 0.1493750869
-0.3447971822 1.2776276858 0.4770908401 0.0802459018 -0.0000002099 0.1507763426
-0.3751065183 2.2242799200 -0.4345661834 0.0777536091 0.0011962839 0.1513395789
0.4365079117 1.4722198147 -0.3675250405 0.0802458541 -0.0000007143 0.1507883920
-0.0200471079 1.5996319383 0.2404820880 0.0784910376 -0.0017589594 0.1509060815
-0.1105324177 1.5271274499 -0.3859354827 0.0783604503 -0.0014666525 0.1500020322
0.1797601231 1.5819181804 -0.1361180026 0.0784916708 0.0017597760 0.1506640674
-0.0821092509 1.5419889169 0.4788216760 0.0784828753 -0.0015432698 0.1512899563
-0.0010124488 1.5269447744 -0.3805808585 0.0783371134 -0.0015265379 0.1501558205
0.1314851879 2.3270148943 -0.4919293794 0.0784081187 0.0006056243 0.1524336371
0.2171288893 1.8740005677 -0.3946414966 0.0784381505 -0.0006229083 0.1520358469
0.0547867349 1.5918111501 0.4664759974 0.0784898436 0.0005132451 0.1524624007
0.3807817933 0.8623537514 0.4908416193 0.0785788912 -0.0004952698 0.1490985983
-0.4312169877 1.0408482088 -0.4251730126 0.0767206197 -0.0000005097 0.1507808646
-0.3959436200 0.9697493571 -0.4175051891 0.0802458876 -0.0000090229 0.1508277835
0.3853615286 1.0250972639 0.4945763882 0.0802458718 -0.0000035220 0.1507608082
0.3994708757 1.6515230145 -0.3465574203 0.0767206302 -0.0000000494 0.1508191644
-0.4791243621 1.6434185791 0.3585913565 0.0784094397 0.0001833845 0.1525246194
0.1776848674 1.5392513773 0.4568742639 0.0785066902 -0.0017283756 0.1509159246
0.4626541562 1.8798724282 0.3156848003 0.0784253727 -0.0003980123 0.1490731098
0.1465349388 2.1844079246 -0.4834239105 0.0784857484 -0.0013707195 0.1508646565
0.2342239806 2.2601390954 -0.5064476189 0.0786602722 -0.0005808589 0.1491912156
0.0721256498 2.0344478862 -0.4465498497 0.0785344327 -0.0003541164 0.1490523938
0.3853615286 1.5514240701 0.0025369285 0.0802453691 -0.0000606702 0.1507790745
-0.4737636568 2.0048379787 0.1468660587 0.0784333798 0.0017520035 0.1507764360
-0.1105472466 2.0284119728 -0.4421079539 0.0783930270 -0.0003590988 0.1490550163
0.2345535643 1.5836302861 -0.0155457059 0.0784959388 -0.0017598924 0.1508917076
-0.3194925127 1.8874227032 -0.3869171035 0.0787955596 0.0003590670 0.1524775189
-0.3583903142 1.9478546116 -0.3712365590 0.0792541593 0.0001014286 0.1520686900
0.2355347830 1.9463563965 -0.4222290620 0.0786477872 -0.0003613721 0.1490610287
0.2529691600 2.2956546659 -0.4719557591 0.0782532493 0.0005102734 0.1524513390
-0.0285247038 2.2359147063 -0.4906826263 0.0784540023 -0.0014036278 0.1509794413
-0.3483245190 1.9818174996 -0.4083209601 0.0794434132 -0.0003820758 0.1494048752
0.4999999735 1.8200159959 0.3321315406 0.0801622175 -0.0000047249 0.1507076248
-0.3787776170 1.4886816537 0.4309764128 0.0779426761 -0.0001295644 0.1494788065
0.0913378380 1.5998585326 0.1384473358 0.0784882863 0.0017607477 0.1506811486
-0.0342409629 1.5958673511 0.1802471496 0.0784877731 -0.0017592063 0.1509027024
-0.4312169330 1.4121828603 -0.3738312538 0.0767206056 -0.0000007989 0.1507849440
-0.4028802583 1.9430521020 -0.3621752611 0.0785478842 0.0002400212 0.1525240409
