0.3431657514 0.0000000000 -0.2192522288 0.0000017700 -0.0019999939 0.0002612120
0.1804445232 0.0000000000 -0.3678027279 0.0000020940 -0.0019999919 0.0002597880
0.0499528290 0.9607001384 -0.0317955841 0.0016509459 0.0000006000 -0.0008645839
0.1075405815 1.3059999216 -0.4036035678 0.0000073620 0.0019999419 0.0002633820
0.1046940397 1.1519999309 -0.0025579418 -0.0000029180 0.0019996379 0.0002607480
-0.0437672394 0.7300472582 0.0400543256 -0.0014617479 0.0000590200 0.0016181659
-0.3664432160 0.0000000000 0.2402899336 -0.0000027860 -0.0019999899 0.0002668980
-0.2440918134 0.0000000000 0.1229769366 -0.0000004600 -0.0019999999 0.0002637520
0.2715850357 0.0000000000 0.2912432845 0.0000026880 -0.0019999939 0.0002656800
-0.1586835845 1.1499999310 -0.3490915771 -0.0000069940 -0.0019999519 0.0002633820
0.3717464677 1.3059999216 0.1141424712 0.0000068680 0.0019999759 0.0002633820
0.3840109330 0.0232405866 -0.3133058432 0.0015238779 0.0001328540 -0.0010082339
-0.1320708541 0.0000000000 0.3019117099 -0.0000001860 -0.0019999999 0.0002643600
-0.0643465081 1.1499999310 -0.0329089840 0.0000012500 -0.0019999879 0.0002633820
0.0456401753 1.1299999322 -0.1712818037 -0.0000014680 -0.0019995759 0.0002335660
-0.4448431733 1.1358160939 0.2362321798 -0.0006170800 -0.0018317759 0.0004143200
-0.4298969162 0.0000000000 0.1192615588 -0.0000010560 -0.0019999979 0.0002640020
-0.0680859639 1.1519999309 0.2583016365 0.0000060020 0.0019997639 0.0002763000
0.1063840876 1.3059999216 -0.1329382540 -0.0000005360 0.0019999879 0.0002633820
-0.1691034899 1.3059999216 0.3123474693 -0.0000048400 0.0019999799 0.0002633820
-0.1019973699 0.0000000000 0.0341954179 -0.0000001960 -0.0019999999 0.0002634800
-0.4125362912 1.1499999310 0.2020321239 -0.0000105280 -0.0019999599 0.0002633820
-0.2348507239 0.0221067927 -0.4366213578 -0.0009570799 0.0001132340 -0.0014733439
0.4812700511 1.1580875765 0.3579490905 0.0015403759 -0.0012623679 0.0003448300
-0.4148714951 1.1299999322 0.2488710331 -0.0000072760 -0.0019999639 0.0002646420
0.4907589126 1.1719315697 0.3237615006 0.0018035059 -0.0008499079 0.0002713280
0.0330134980 0.0628635062 0.0272498804 0.0015443259 0.0000123160 0.0015164179
-0.4555743747 0.0000000000 -0.0758194535 -0.0000168160 -0.0019997639 0.0002585620
0.1699952758 1.3059999216 0.1082064835 0.0000005420 0.0019999899 0.0002633820
0.0747510095 1.3059999216 -0.2923668505 0.0000026880 0.0019999659 0.0002633820
0.2649397421 0.0000000000 -0.1266838304 0.0000005020 -0.0019999999 0.0002630000
-0.2423714155 0.0399999976 -0.0409570975 -0.0000004640 0.0019999999 0.0002632280
0.1248444445 1.1499999310 0.1112330333 0.0000043500 -0.0019999839 0.0002633820
0.2917270945 1.1299999322 0.1365013198 0.0000099480 -0.0019985459 0.0002939380
0.0718047437 1.3019999219 -0.4376880697 -0.0000005880 0.0009765439 0.0012876439
0.4728074976 1.2514490209 0.3400851996 0.0018822799 0.0006606200 0.0002633820
0.2516213829 1.3059999216 -0.3967595442 0.0000119600 0.0019999319 0.0002633820
0.1089990395 1.3059999216 0.4205940748 0.0000079420 0.0019999399 0.0002633820
0.4039622258 0.0399999976 -0.2534128428 0.0000351900 0.0019994519 0.0002466560
0.0001174920 1.1519999309 0.1893707006 0.0000030260 0.0019997379 0.0002740500
0.1547252107 1.1299999322 -0.2288510443 0.0000005660 -0.0019994879 0.0002268660
0.2558979026 1.3059999216 0.2303982702 0.0000067340 0.0019999639 0.0002633820
0.3585719385 1.3059999216 0.0498304830 0.0000043580 0.0019999899 0.0002633820
0.4999999700 1.2232540766 0.2445499893 0.0019999959 0.0000000000 0.0002665840
-0.2839933610 1.3059999216 0.0316628221 -0.0000071600 0.0019999799 0.0002633820
0.0725066636 1.3059999216 -0.3189038049 0.0000034660 0.0019999599 0.0002633820
0.3197027388 0.0000000000 0.2416572435 0.0000031680 -0.0019999919 0.0002657740
-0.4550811487 1.2827025590 0.3800647512 -0.0014459699 0.0013741159 0.0002633820
0.3939018324 1.1749309595 0.4442633553 0.0000003880 -0.0000406520 0.0022598239
0.1054947517 0.0000000000 0.2705379018 0.0000002860 -0.0019999999 0.0002642900
0.3593640224 1.1499999310 -0.4128521332 0.0000076300 -0.0019999759 0.0002633820
0.1681773579 0.0399999976 -0.2527317648 0.0000003200 0.0019999999 0.0002625880
-0.5000000000 1.2212614007 -0.1884115327 -0.0019940239 -0.0001185660 0.0002885420
-0.2308932041 1.3060000436 0.3248646205 -0.0000062600 0.0019999819 0.0002633820
0.3044511237 0.0273765124 -0.3899021826 0.0012231199 0.0003477520 -0.0012648599
-0.2986630681 1.1299999322 -0.1675596679 -0.0000106860 -0.0019998319 0.0002519020
0.3823856271 1.1299999322 -0.1371037518 0.0000081140 -0.0019988179 0.0002559760
-0.0426354794 0.3108510553 0.0109924193 -0.0018869619 -0.0000105380 0.0008779059
0.1522327189 1.1299999322 -0.0412010315 0.0000034340 -0.0019992799 0.0002478820
-0.0287387823 0.0399999976 -0.0973546082 -0.0000000560 0.0019999999 0.0002630680
0.1156472551 1.2124358413 -0.4437365914 0.0000000840 -0.0000001820 -0.0017366179
0.0216718747 0.0000000000 0.1252753825 0.0000000780 -0.0019999999 0.0002637980
-0.4143366151 0.0286529763 -0.2692871698 -0.0016156099 0.0004481560 -0.0008081740
-0.1031577998 0.0000000000 -0.2274209604 -0.0000002700 -0.0019999999 0.0002626160
0.4174532830 1.3059999216 -0.2880034467 0.0000140060 0.0019999399 0.0002633820
-0.0581681065 0.8907136926 -0.0088960655 -0.0019326459 0.0001035600 -0.0000706840
0.1598017184 1.1519999309 -0.2123432953 -0.0000077940 0.0019994819 0.0002380720
-0.2078441655 1.1519999309 -0.4134865312 -0.0000008300 0.0019995859 0.0002260060
-0.1944861183 0.0000000000 -0.0290496843 -0.0000004000 -0.0019999999 0.0002632580
-0.2611127763 0.0000000000 -0.3477443491 -0.0000038360 -0.0019999899 0.0002601680
0.0393226376 0.0399999976 0.0151467391 0.0000000760 0.0019999999 0.0002634340
-0.2220715807 0.0399999976 -0.0616199563 -0.0000004240 0.0019999999 0.0002631640
-0.2574551546 0.0000000000 -0.0696332818 -0.0000005380 -0.0019999999 0.0002631140
0.0091807274 1.1499999310 0.3827211530 -0.0000026440 -0.0019999579 0.0002633820
-0.4025097418 0.0000000000 -0.2113728653 -0.0000055040 -0.0019999859 0.0002597040
0.3143777271 0.0399999976 -0.1477737791 0.0000006000 0.0019999999 0.0002629380
0.0688395259 1.3059999216 0.4104459134 0.0000062720 0.0019999439 0.0002633820
-0.0688961139 1.1299999322 0.4278879603 0.0000048180 -0.0019989959 0.0003058820
-0.3662250140 0.0000000000 0.2053144557 -0.0000018920 -0.0019999939 0.0002655960
0.0632682422 0.0399999976 -0.3666259080 0.0000001180 0.0019999999 0.0002622160
0.2633904262 1.3059999216 -0.0068330816 0.0000021280 0.0019999919 0.0002633820
0.1137152032 0.0399999976 0.4253453565 0.0000012100 0.0019999959 0.0002656280
0.1580926425 0.0023751499 -0.4641810781 0.0004733500 -0.0012991559 -0.0011286219
-0.2151836871 1.3059999216 -0.1768089494 -0.0000059920 0.0019999819 0.0002633820
-0.0384046997 1.1299999322 -0.1520374369 -0.0000034300 -0.0019996399 0.0002383300
-0.1641548662 0.0000000000 -0.0533207668 -0.0000003460 -0.0019999999 0.0002631820
0.2078870875 0.0399999976 -0.3251110485 0.0000017240 0.0019999939 0.0002610960
-0.4114263673 1.1299999322 -0.1931034584 -0.0000141260 -0.0019999139 0.0002574860
-0.2706489398 0.0000000000 -0.1443773113 -0.0000005860 -0.0019999999 0.0002628660
0.3114623533 0.0399999976 -0.1993019740 0.0000010500 0.0019999979 0.0002623380
0.0015289759 0.0000000000 -0.1615820523 -0.0000000400 -0.0019999999 0.0002628480
0.4700603358 1.2476460431 0.4380656637 0.0010745239 0.0003624600 0.0018875859
0.3174006150 1.1519999309 -0.1008731479 -0.0000103760 0.0019994519 0.0002458200
0.4141387072 0.0000000000 -0.2232905606 0.0000287360 -0.0019995019 0.0002448740
0.1624032183 0.0000000000 -0.1646747801 0.0000002840 -0.0019999999 0.0002628600
0.2569222866 1.3059999216 -0.3048643777 0.0000091820 0.0019999499 0.0002633820
0.2641689301 0.0399999976 0.0718289597 0.0000005060 0.0019999999 0.0002636340
0.3396545216 1.1519999309 0.1607227844 -0.0000068140 0.0019995919 0.0002720020
-0.3310342201 1.1499999310 -0.1981634701 -0.0000078100 -0.0019999659 0.0002633820
-0.2462011572 1.1299998102 0.1789799853 -0.0000038300 -0.0019998299 0.0002545860
0.2590257725 1.1519999309 -0.3062082796 -0.0000120400 0.0019993679 0.0002262100
0.4658212001 1.1750947775 0.0734873536 -0.0015684479 0.0012360719 0.0002607920
-0.0438191194 1.1519999309 0.3309927321 0.0000064880 0.0019997719 0.0002809740
-0.3924487685 1.1519999309 0.2761706834 0.0000152360 0.0019998299 0.0002695460
-0.0048540957 0.0399999976 -0.1513969029 -0.0000000100 0.0019999999 0.0002628980
-0.3812125931 1.1299999322 -0.3639135682 -0.0000159940 -0.0019998719 0.0002531860
0.1510014409 1.1299999322 -0.1917096285 0.0000010500 -0.0019994939 0.0002276500
-0.0282682443 0.6628134362 -0.0519756669 -0.0010143819 -0.0000043900 -0.0014495739
0.2220664227 1.2048171877 -0.4437365914 0.0000002440 -0.0000002580 -0.0017366179
-0.1616421403 1.1299999322 0.3178740809 0.0000006140 -0.0019994699 0.0002766800
0.3747005695 1.2912499225 0.4426383854 0.0000009220 0.0007538880 0.0020904579
-0.1314026261 1.1626442182 -0.4419513435 0.0000001120 -0.0006068700 -0.0016407639
0.2619288783 1.1499999310 0.4354137459 0.0000045520 -0.0016266459 0.0012464559
-0.3392892256 0.0000000000 0.0138215552 -0.0000006820 -0.0019999999 0.0002633780
0.2535859228 1.3059999216 -0.2683981619 0.0000078960 0.0019999559 0.0002633820
-0.0515250209 1.3059999216 0.3221681487 -0.0000005940 0.0019999699 0.0002633820
-0.4107450614 0.0000000000 0.0558632466 -0.0000008140 -0.0019999999 0.0002635060
-0.0153944451 0.2231948106 -0.0400393916 -0.0008740199 -0.0000012900 -0.0015338379
0.2720475917 1.2553127907 -0.4437365614 0.0000007620 0.0000005960 -0.0017366179
-0.0445763333 0.0399999976 0.2434136974 -0.0000000840 0.0019999999 0.0002641540
-0.4807420052 1.1585699985 -0.0243433665 -0.0016353839 -0.0011437519 0.0002694100
-0.2693429398 1.1519999309 0.3764639514 0.0000134340 0.0019998259 0.0002781380
0.1196086968 1.1299999322 -0.0474251372 0.0000024620 -0.0019993839 0.0002432760
-0.0465761192 0.0399999976 0.2987777081 -0.0000000860 0.0019999999 0.0002643320
-0.4746745935 1.1513395309 -0.3946847443 -0.0013695779 -0.0013067299 -0.0000709800
0.2251404125 0.0399999976 0.2878296787 0.0000010100 0.0019999979 0.0002648340
0.4866105368 1.1650175081 -0.1151401071 0.0016494819 -0.0011265619 0.0002617060
-0.0672953300 0.0372493838 -0.4868636028 -0.0002187960 0.0012328159 -0.0012395579
0.0528890808 1.1519999309 0.3436588074 0.0000040200 0.0019997559 0.0002840000
0.3590654385 1.1519999309 -0.2805487652 -0.0000143980 0.0019993239 0.0002265260
0.2033063238 0.0000000000 0.2049843177 0.0000004660 -0.0019999999 0.0002640880
0.4096791434 0.0000000000 0.1636661882 0.0000044680 -0.0019999879 0.0002662480
0.0569379386 1.1519999309 0.2066303136 0.0000017320 0.0019997299 0.0002763800
0.0317248361 1.3059999216 -0.0574794926 -0.0000018040 0.0019999859 0.0002633820
0.1748622335 1.3059999216 -0.1130085372 0.0000006260 0.0019999899 0.0002633820
0.0568730626 0.8479671131 -0.0164982110 0.0019406919 0.0000087300 -0.0002072980
0.4779999713 1.2192949708 0.1153954251 0.0019898399 -0.0000779300 0.0002633820
-0.4999999700 1.2267057364 0.0618343783 -0.0019899439 -0.0000503480 0.0004009540
0.4627157622 1.2735409396 0.3170332610 0.0016659279 0.0010956259 0.0002633820
0.1410366575 1.1500000530 0.2769795214 0.0000046300 -0.0019999839 0.0002633820
0.2061629816 0.0000000000 0.1352124399 0.0000004520 -0.0019999999 0.0002638580
0.0388469337 1.0670068940 -0.0442590693 0.0013651299 0.0000835620 -0.0011840739
-0.4812326991 1.1593878704 0.2460305332 -0.0016101699 -0.0011683839 0.0002726360
-0.2511769249 1.1617073283 0.4425558974 0.0000106380 0.0019140919 0.0004643400
-0.1673000840 0.0399999976 -0.1806747032 -0.0000003200 0.0019999999 0.0002627900
0.1549540167 1.2214606207 -0.4437365914 0.0000002400 -0.0000000140 -0.0017366179
-0.3061769536 0.0058679996 -0.3867458728 -0.0010550819 -0.0009116939 -0.0011293839
0.3508693029 0.0399999976 0.1936326024 0.0000023960 0.0019999939 0.0002655620
0.2829600670 1.3060000436 0.0244292405 0.0000024600 0.0019999919 0.0002633820
-0.3758680194 0.0399999976 0.1211178827 -0.0000007180 0.0019999999 0.0002637340
-0.0559442566 1.0474146092 0.0223562827 -0.0019064219 0.0000157140 0.0008598559
0.2461935272 0.0399999976 0.2664912720 0.0000010960 0.0019999979 0.0002648080
-0.0904025746 1.3019999219 0.4368809398 -0.0000007360 0.0003108280 -0.0014278259
0.4172125610 1.3059999216 0.0178878649 0.0000052920 0.0019999919 0.0002633820
-0.3700796898 1.1299999322 0.0161388550 -0.0000097240 -0.0019999039 0.0002585920
0.4512911109 1.1379818657 0.0093258354 0.0007718280 -0.0018428619 0.0002590620
-0.0346192759 0.0399999976 -0.0590829505 -0.0000000660 0.0019999999 0.0002631900
0.3602592564 1.1299999322 -0.0160966090 0.0000094060 -0.0019986479 0.0002747040
-0.2980227481 1.3059997996 -0.1758006935 -0.0000073980 0.0019999799 0.0002633820
0.0988832341 0.0399999976 -0.0032546018 0.0000001880 0.0019999999 0.0002633800
0.0028193818 0.0399999976 -0.1154767691 0.0000000040 0.0019999999 0.0002630120
0.0274466384 0.0000000000 -0.3364623678 -0.0000000360 -0.0019999999 0.0002622740
0.4999999700 1.2315514401 -0.4232506306 0.0019999999 0.0000000000 0.0002632840
-0.1398324956 0.0000000000 0.4150939531 -0.0000024200 -0.0019999899 0.0002676920
-0.4838472610 0.0000000000 -0.0174617290 -0.0002155060 -0.0019794819 0.0002542500
-0.2375134137 1.3006301720 -0.4431062814 -0.0000046080 0.0015340579 -0.0009853499
-0.0519018529 1.3059999216 0.2190175809 -0.0000032220 0.0019999839 0.0002633820
-0.2289220143 1.3059999216 0.2142690751 -0.0000062260 0.0019999819 0.0002633820
-0.0197302688 1.1499998090 0.3969601362 -0.0000040140 -0.0019999519 0.0002633820
0.1625468342 0.0399999976 -0.2851073889 0.0000003080 0.0019999999 0.0002624840
-0.2290264763 1.3059999216 -0.0929590024 -0.0000062280 0.0019999819 0.0002633820
-0.3281164363 1.1499999310 0.4262619224 -0.0000148180 -0.0019999259 0.0002633820
0.0569206746 1.1119332833 -0.0162125510 0.0019404219 0.0000100160 -0.0002102980
-0.2888849307 1.1559999306 0.4447251473 -0.0000063740 -0.0015989079 0.0014542159
0.4184794069 1.2197573728 -0.4437365914 0.0000007740 0.0000000800 -0.0017366179
0.0804345272 0.0000000000 0.4664548820 0.0000002880 -0.0019999999 0.0002649320
-0.0087269855 1.0637686122 -0.0579912185 -0.0003295360 0.0000302400 -0.0016990479
0.4999999700 1.2082673835 -0.2376913457 0.0019900839 -0.0001913920 0.0002624680
-0.4730437336 1.2508977529 0.2463170632 -0.0018861519 0.0006492720 0.0002633820
-0.3857264469 0.0000000000 -0.0451516233 -0.0000007920 -0.0019999999 0.0002631760
0.4719945997 1.2533457508 0.3821340871 0.0018695419 0.0006974560 0.0002633820
-0.4943675543 1.1869189968 0.3951404943 -0.0018887499 -0.0006499420 0.0003265680
0.2323356181 1.3059999216 -0.1607514104 0.0000037220 0.0019999779 0.0002633820
-0.3918273085 1.3059999216 -0.0657068521 -0.0000089900 0.0019999779 0.0002633820
0.0586502085 1.0873265948 0.0070123256 0.0018315179 0.0004106180 0.0005327120
0.0868001888 0.0399999976 0.1537436588 0.0000001660 0.0019999999 0.0002638800
-0.1207548688 0.0000000000 -0.0818305151 -0.0000002660 -0.0019999999 0.0002630940
-0.1991834140 0.0120306333 0.4532605768 -0.0007867760 -0.0004364760 0.0020335699
-0.3172018250 1.3059999216 0.3565546506 -0.0000077240 0.0019999799 0.0002633820
-0.1833338970 0.0000000000 -0.2496041870 -0.0000004380 -0.0019999999 0.0002625300
-0.1005531400 0.0000000000 0.1242002405 -0.0000001700 -0.0019999999 0.0002637760
0.4999999700 1.2101996354 -0.3447282353 0.0019909139 -0.0001695140 0.0002616240
0.4729553556 1.2511040509 -0.3108498813 0.0018845959 0.0006539200 0.0002633820
-0.2668665300 0.0399999976 -0.2363274098 -0.0000009500 0.0019999979 0.0002622140
-0.3956545183 1.2127046392 -0.4437365914 -0.0000008520 -0.0000004340 -0.0017366179
0.3373298758 0.0000000000 0.0400475976 0.0000006920 -0.0019999999 0.0002635620
0.2433998874 0.0000000000 -0.1725659536 0.0000004460 -0.0019999999 0.0002628460
-0.1725515176 0.0399999976 0.2512436829 -0.0000003280 0.0019999999 0.0002641680
0.1707563978 1.1299999322 -0.3800981672 -0.0000013780 -0.0019994599 0.0002236280
-0.1620892083 1.1299999322 -0.0987306161 -0.0000059260 -0.0019997379 0.0002457380
-0.0143105771 0.2924852125 -0.0405813276 -0.0008386199 -0.0000100880 -0.0015484619
0.2823383011 1.1499999310 0.3505991450 0.0000069460 -0.0019999819 0.0002633820
0.0394481096 0.0000000000 0.3626366822 0.0000001780 -0.0019999999 0.0002645840
0.0449135913 0.0000000000 0.3930805884 0.0000001960 -0.0019999999 0.0002646860
-0.4692047438 0.0399999976 0.0624855243 -0.0000017020 0.0019999939 0.0002642160
0.4852330329 1.1630413122 0.1400703496 0.0016274319 -0.0011579459 0.0002768460
0.4667945880 1.1453972693 0.2282870503 0.0010772899 -0.0016818859 0.0002660720
0.0585208785 0.7650037381 0.0076589915 0.0018571959 0.0003254500 0.0005580200
0.3866397468 1.1519999309 -0.2842989789 -0.0000152220 0.0019993039 0.0002255080
-0.3652671281 1.1499999310 -0.1916448705 -0.0000087040 -0.0019999639 0.0002633820
-0.0466733372 1.1570269086 -0.4457365913 0.0000009360 -0.0006879160 -0.0014517099
-0.4114189513 1.1849854029 0.4442633853 -0.0000010440 -0.0000009080 0.0022633819
-0.0880714827 0.0399999976 0.0561538046 -0.0000001680 0.0019999999 0.0002635520
-0.1795939072 0.0000000000 0.4401792796 -0.0000097920 -0.0019994799 0.0002981720
0.4999999700 1.2251414065 0.3618488403 0.0019999979 0.0000000000 0.0002658920
-0.4999999700 1.2327408920 0.0972026462 -0.0019380259 0.0001138440 0.0003737320
0.3698867578 0.0400000016 -0.2634633782 0.0000044540 0.0019999859 0.0002590040
0.0012058839 0.4116042233 -0.0437366154 0.0000809680 -0.0000151800 -0.0017246479
0.4743858975 1.1939296164 -0.3187092249 -0.0019550299 0.0004209860 0.0002487060
-0.2064591096 0.0000000000 0.4221442767 -0.0000065640 -0.0019997659 0.0002819900
0.0777440453 1.3059999216 -0.3751900875 0.0000054520 0.0019999499 0.0002633820
-0.1558453726 1.3059999216 0.2803600452 -0.0000049860 0.0019999819 0.0002633820
0.0576192285 0.0399999976 -0.0352804019 0.0000001100 0.0019999999 0.0002632740
0.2464784552 1.1519999309 -0.0265214144 -0.0000072260 0.0019995379 0.0002550380
-0.0157793271 0.0000000000 0.0499935130 -0.0000000180 -0.0019999999 0.0002635440
0.2937668284 0.0000000000 0.2576689445 0.0000026180 -0.0019999939 0.0002655080
0.4779425073 1.2117700693 -0.1584571745 0.0019833299 -0.0002533800 0.0002633820
0.0274260844 1.1299999322 0.1701934858 0.0000033820 -0.0019992239 0.0002713060
0.2247928945 1.1773350134 -0.4437365614 0.0000000820 -0.0000055480 -0.0017364559
-0.3570609526 1.1520000529 -0.0221341667 0.0000095220 0.0019997679 0.0002535960
-0.2985431941 0.0000000000 0.0866386588 -0.0000005800 -0.0019999999 0.0002636240
-0.0505852410 0.8735174036 -0.0307612142 -0.0016523459 0.0000007420 -0.0008562459
0.4721410857 1.2530040748 0.4136495872 0.0018718379 0.0006908180 0.0002633820
0.3269053764 1.1499999310 -0.2170711990 0.0000076620 -0.0019999799 0.0002633820
0.4911883565 0.0288508103 0.0602816504 0.0019261659 0.0004364320 0.0005214320
-0.4999999400 1.2233419686 -0.1104428574 -0.0019926519 -0.0000902400 0.0003314360
-0.0430756814 1.3019999219 -0.4362657058 -0.0000006320 0.0002665880 0.0019988139
0.1301836462 0.0000000000 0.4280296223 0.0000010300 -0.0019999979 0.0002652240
0.2224108147 1.3059999216 0.2249543165 0.0000054400 0.0019999679 0.0002633820
0.3472916672 1.1299998102 0.0862205908 0.0000106540 -0.0019984859 0.0002911580
-0.1772309154 1.1499999310 -0.0675963319 -0.0000005900 -0.0019999899 0.0002633820
0.4281485943 1.3026169878 0.3152411471 0.0007586540 0.0018217359 0.0002633820
-0.1715961357 1.1519999309 -0.2138924892 0.0000013540 0.0019996799 0.0002455400
-0.0143194691 0.8010327279 0.0575434645 -0.0004277620 -0.0000039520 0.0022142319
0.4999999700 1.2144747811 -0.0163528890 0.0019985799 -0.0000510800 0.0002619020
-0.0914327345 1.1499999310 -0.0787264053 0.0000008120 -0.0019999879 0.0002633820
-0.1370192018 1.1299999322 0.2059707356 -0.0000004720 -0.0019996159 0.0002598100
0.0053679797 1.2907183066 0.4429041334 -0.0000008020 0.0007121080 0.0021118059
-0.1937262304 1.1299999322 -0.0949080823 -0.0000067180 -0.0019997619 0.0002474780
0.0270372904 1.3059999216 -0.1057981437 -0.0000018820 0.0019999859 0.0002633820
0.4774273394 1.1588259805 -0.4297366222 0.0009211299 -0.0011393979 -0.0000144100
-0.2716260217 0.0399999976 0.0214290387 -0.0000005180 0.0019999999 0.0002634260
0.4803595292 0.0367437598 -0.1034612678 0.0014158739 0.0012234099 -0.0000647620
-0.4759999714 1.2293561282 0.2053494897 0.0019996899 0.0000000000 0.0002841340
0.3265894284 1.3059999216 -0.3934384684 0.0000143600 0.0019999279 0.0002633820
-0.3755072715 0.0399999976 -0.1362912518 -0.0000016540 0.0019999959 0.0002620820
-0.4239981746 0.0399999976 0.2008206660 -0.0000282800 0.0019995619 0.0002766600
0.1087493375 1.2940486284 -0.4407122376 -0.0000038100 -0.0014839599 0.0011548679
0.2897322526 1.3059999216 0.2695939318 0.0000091260 0.0019999539 0.0002633820
-0.0354698779 1.3059999216 -0.2977385841 -0.0000008260 0.0019999719 0.0002633820
0.3668885280 1.1299999322 -0.1629402222 0.0000072940 -0.0019989119 0.0002497940
0.4058285577 1.2619325423 -0.4437365914 0.0000010940 0.0000007680 -0.0017366179
-0.4454234353 1.1605693884 -0.0225545486 0.0007719120 0.0018430199 0.0002616180
-0.0253218045 1.0676224939 0.0542702947 -0.0009218979 0.0000128120 0.0020271339
-0.0814288891 1.3059999216 0.2710650017 -0.0000032380 0.0019999819 0.0002633820
-0.4723370077 1.1494695350 -0.1903336826 -0.0011937339 -0.0013940179 -0.0003022340
-0.4728244036 1.2514095929 0.4110819613 -0.0018827039 0.0006592580 0.0002633820
-0.1985674321 1.3059999216 0.1032357798 -0.0000057100 0.0019999819 0.0002633820
-0.4171666930 1.3059999216 -0.3753632435 -0.0000094200 0.0019999779 0.0002633820
-0.2843151689 1.1299999322 0.1017974939 -0.0000060680 -0.0019998499 0.0002553900
0.1572240206 0.0000000000 -0.3036808438 0.0000002360 -0.0019999999 0.0002624000
-0.0376047457 0.7893117206 0.0457795813 -0.0012916119 0.0000100580 0.0017840379
0.2174591690 1.1499999310 0.1084290935 0.0000058620 -0.0019999819 0.0002633820
0.3573113486 0.0399999976 0.0171450630 0.0000006820 0.0019999999 0.0002634680
-0.0964016202 0.0399999976 -0.0339842960 -0.0000001840 0.0019999999 0.0002632640
-0.2801511072 1.1519999309 -0.1873058808 0.0000047760 0.0019997199 0.0002461340
-0.4759999714 1.2125669432 -0.1079631215 0.0019997479 0.0000000000 0.0002587220
0.0571422466 0.4508105810 -0.0148831151 0.0019158679 -0.0000050680 -0.0002647400
0.3946679763 0.0307716682 0.2981581401 0.0015181539 0.0005265060 0.0014435099
0.4719168717 1.1838751730 0.1663616380 -0.0018101459 0.0008387439 0.0002425180
0.3243030205 1.3059999216 -0.2017095359 0.0000081160 0.0019999639 0.0002633820
-0.2648180681 1.1519999309 0.4012944239 0.0000137020 0.0019998299 0.0002796460
-0.0448548793 1.3059999216 0.1116923313 -0.0000031020 0.0019999859 0.0002633820
-0.0398290796 0.0399999976 -0.4553644287 -0.0000000800 0.0019999999 0.0002619240
0.2938815744 1.3059999216 -0.1957892483 0.0000069080 0.0019999679 0.0002633820
-0.0519808309 1.1499999310 -0.1855377549 0.0000014680 -0.0019999879 0.0002633820
-0.3815408411 1.1299999322 -0.2317987381 -0.0000139280 -0.0019998859 0.0002552880
-0.1323165661 1.3059999216 -0.3712662277 -0.0000016980 0.0019999659 0.0002633820
-0.3541529628 1.1499999310 0.1222443767 -0.0000061660 -0.0019999779 0.0002633820
-0.0201080888 0.8984724801 0.0565786986 -0.0006540500 0.0000073440 0.0021449619
0.3911949525 0.0000000000 -0.2761705614 0.0000395740 -0.0019993079 0.0002378180
0.3636640722 1.1499999310 -0.3239017906 0.0000082720 -0.0019999799 0.0002633820
-0.0981687101 0.0000000000 0.1511945409 -0.0000001580 -0.0019999999 0.0002638660
0.4452621193 0.0399999976 -0.1659395800 0.0000340400 0.0019994539 0.0002482020
-0.0106952514 1.3059999216 -0.3527254268 0.0000017720 0.0019999599 0.0002633820
-0.0294085402 1.1499998090 0.1541561348 0.0000018340 -0.0019999859 0.0002633820
0.3531115508 0.0000000000 -0.0809092971 0.0000006920 -0.0019999999 0.0002631640
-0.0576142345 0.8499789530 0.0125779412 -0.0019581359 0.0000015500 0.0006615860
0.1069016056 1.1299999322 0.0232594906 0.0000032240 -0.0019992839 0.0002542400
0.4373488498 1.1571161406 -0.0332114380 -0.0006250920 0.0018989059 0.0002647680
-0.3548859647 1.3059999216 -0.2416457675 -0.0000083620 0.0019999799 0.0002633820
0.1244357905 1.1299999322 -0.2070873596 0.0000000920 -0.0019995119 0.0002288180
0.4177798209 1.3059999216 -0.2270208764 0.0000120560 0.0019999519 0.0002633820
0.1910091445 0.0000000000 -0.1453957133 0.0000003460 -0.0019999999 0.0002629280
0.0148749271 1.1519998089 -0.4405758556 -0.0000001860 -0.0016946039 0.0000369520
-0.1169683150 0.0000000000 -0.1878712807 -0.0000002860 -0.0019999999 0.0002627440
-0.0410785375 0.4830108970 0.0430005434 -0.0013457939 -0.0000039200 0.0017411399
0.2760468894 0.0004988500 -0.4016291719 0.0002411160 -0.0018179059 -0.0001388000
0.0373032818 1.3059999216 -0.0273140844 -0.0000017080 0.0019999859 0.0002633820
-0.4269507184 1.1307374802 -0.3864708468 -0.0001225980 -0.0019658839 0.0002061560
0.2589544525 1.1299998102 0.2233866146 0.0000104240 -0.0019984699 0.0003055640
-0.4550899987 1.1396587456 -0.1499644990 -0.0007877220 -0.0018319279 0.0002288820
-0.2225468306 1.1347736139 0.4302633562 -0.0004127600 -0.0017695239 0.0008725239
0.1033156378 0.0399999976 -0.1632752442 0.0000001960 0.0019999999 0.0002628680
-0.1344100259 1.2503024150 0.4442633553 -0.0000001260 0.0000003260 0.0022633819
0.4999999700 1.2338143800 0.1159935910 0.0018793779 0.0002665100 0.0002189820
-0.2821503731 1.3059999216 -0.0834375110 -0.0000071280 0.0019999799 0.0002633820
0.1937661324 0.0399999976 -0.1470563872 0.0000003700 0.0019999999 0.0002629280
0.0849708049 1.1300000542 0.1677778839 0.0000048880 -0.0019990659 0.0002770920
0.1981892581 0.0399999976 0.2240053886 0.0000003800 0.0019999999 0.0002641140
0.3059422416 0.0399999976 -0.1760438574 0.0000005840 0.0019999999 0.0002628460
-0.2539078988 0.0399999976 0.3293194222 -0.0000030920 0.0019999899 0.0002668960
-0.0596586564 1.1265376524 0.0019700779 -0.0016194979 0.0010429999 0.0002419580
0.3365395298 0.0000000000 -0.2639106442 0.0000027640 -0.0019999899 0.0002597220
-0.2800824732 1.1299999322 -0.3590205025 -0.0000131920 -0.0019997979 0.0002478940
0.0632902182 1.3059999216 -0.0157469071 -0.0000012680 0.0019999879 0.0002633820
0.2521498109 0.0000000000 -0.3969763402 0.0000043560 -0.0019999819 0.0002569060
-0.3337721360 0.0255813285 0.3662586600 -0.0013454339 0.0001942380 0.0017196499
0.0502765210 1.1299999322 -0.0714744517 0.0000002240 -0.0019995819 0.0002348940
0.0448909313 1.0356428819 -0.0381229497 0.0015283599 0.0000889920 -0.0010140359
-0.1270457844 1.3059999216 -0.2600047904 -0.0000044980 0.0019999839 0.0002633820
0.0249025565 0.0000000000 0.0990228281 0.0000000760 -0.0019999999 0.0002637120
-0.1563010006 1.1299999322 0.0875386447 -0.0000028440 -0.0019997539 0.0002483700
-0.2048425317 1.1499999310 0.0691893198 -0.0000010420 -0.0019999899 0.0002633820
0.2208336667 0.0399999976 -0.0627851902 0.0000004220 0.0019999999 0.0002632000
0.3011692939 1.1499999310 0.1854296469 0.0000072380 -0.0019999799 0.0002633820
0.0064911216 0.6944157903 -0.0584383885 0.0002804480 0.0003015100 -0.0016427779
-0.0569980366 0.6802544752 -0.0157483671 -0.0019435619 -0.0000052900 -0.0001955600
0.0646086701 0.0399999976 0.0100534514 0.0000001240 0.0019999999 0.0002634180
0.1210508587 1.1805653592 -0.4437365614 -0.0000000960 -0.0000007140 -0.0017366179
-0.2855931229 0.0399999976 -0.1742354475 -0.0000005460 0.0019999999 0.0002628000
0.2672253560 0.0399999936 0.4034936738 0.0000912160 0.0019867599 0.0003986160
-0.2223703027 1.2163453850 -0.4437365914 -0.0000005140 -0.0000002860 -0.0017366179
0.1757726635 0.0399999976 0.3823511271 0.0000019860 0.0019999939 0.0002660800
-0.1119380813 1.1299999322 -0.0013261059 -0.0000030440 -0.0019997099 0.0002446120
0.3887540047 1.1299999322 0.0041117698 0.0000104860 -0.0019985279 0.0002813040
0.3730252776 0.0399999976 -0.2221578687 0.0000033820 0.0019999899 0.0002601620
0.4459261212 1.2907280726 0.1288478003 0.0012700279 0.0015392579 0.0002633820
0.2701179038 1.1299999322 -0.0095100094 0.0000070900 -0.0019988879 0.0002661280
0.0598439024 0.4930195024 0.0010438519 0.0019402879 0.0001439260 0.0001979020
-0.1394193036 1.1499999310 -0.1176425249 0.0000000320 -0.0019999899 0.0002633820
-0.0160819230 1.2620394743 0.4442633553 0.0000002180 0.0000005740 0.0022633819
0.3594116604 1.1499999310 0.3477920791 0.0000082060 -0.0019999799 0.0002633820
0.1915714905 1.1519999309 -0.2148361991 -0.0000087140 0.0019994619 0.0002370860
0.4708977377 0.0006126260 -0.1302488942 0.0011197279 -0.0015722579 -0.0000565200
0.0499502070 0.0399999976 0.3652912221 0.0000000980 0.0019999999 0.0002645520
-0.0120817573 1.3059999216 0.4204324848 0.0000038880 0.0019999479 0.0002633820
-0.2032773918 1.1299999322 -0.4021210839 -0.0000118000 -0.0019997359 0.0002431360
0.0589741485 1.3059999216 -0.0423911635 -0.0000013420 0.0019999879 0.0002633820
0.1934977144 0.0000000000 0.2970548382 0.0000004700 -0.0019999999 0.0002643900
-0.4529358548 1.1388508837 -0.2774014274 -0.0007678620 -0.0018260419 0.0001479760
0.2842497689 0.0000000000 -0.1596668604 0.0000005320 -0.0019999999 0.0002628940
0.0679420359 1.3059999216 0.3372831058 0.0000038880 0.0019999579 0.0002633820
-0.3086623655 1.1499999310 -0.1795457052 -0.0000065120 -0.0019999699 0.0002633820
-0.0305991682 0.1661561480 -0.0291374463 -0.0014288779 0.0000012920 -0.0011343079
-0.2468575592 1.1299999322 -0.1091198435 -0.0000083720 -0.0019997999 0.0002500740
-0.3789375073 1.1299999322 0.0985745641 -0.0000086680 -0.0019999199 0.0002603640
-0.0174344630 0.0000000000 0.1399853576 0.0000000020 -0.0019999999 0.0002638400
-0.1978810301 1.2929370564 0.4427319214 0.0000002760 -0.0018130419 0.0006350180
-0.1739291576 0.0399999976 0.1663956040 -0.0000003320 0.0019999999 0.0002638980
0.0103795074 0.2187842589 0.0430736254 0.0006615220 -0.0000041060 0.0021406099
-0.2987815681 0.0000000000 -0.1744524895 -0.0000006500 -0.0019999999 0.0002627620
-0.1902057986 0.0000000000 -0.4174070650 -0.0000068900 -0.0019998619 0.0002535900
0.4716527117 1.1834790550 0.3662457820 -0.0017753279 0.0009166039 0.0002886700
-0.0429961374 1.1499999310 -0.0160199490 0.0000015980 -0.0019999879 0.0002633820
-0.3328050640 1.3059999216 0.2304208542 -0.0000079880 0.0019999799 0.0002633820
0.2870447828 0.0000000000 -0.0771782934 0.0000005600 -0.0019999999 0.0002631680
0.0588377605 0.5336647620 0.0060745436 0.0018998999 0.0002143000 0.0004632640
-0.1168476870 1.1299999322 0.1105103474 -0.0000014200 -0.0019997259 0.0002466380
0.2388417517 1.1910309345 0.4442633553 0.0000001800 -0.0000004800 0.0022633819
-0.0899590866 0.0000000000 -0.4504069410 -0.0000003040 -0.0019999999 0.0002618800
-0.3325960800 0.0399999976 -0.1115451593 -0.0000006360 0.0019999999 0.0002629960
0.2338450480 1.1519999309 0.3827553930 -0.0000003520 0.0019997279 0.0002905300
-0.0574121746 0.8821670611 0.0137903212 -0.0019532079 0.0000037240 0.0006822940
0.0573020746 1.0241715685 0.0144509331 0.0019343019 0.0000024740 0.0007346680
0.0242625865 0.7562089386 -0.0543790587 0.0008022760 0.0000056300 -0.0015559259
0.0065584276 0.9695126378 0.0589516905 0.0002565480 0.0001049180 0.0022150219
0.1378829417 0.0000000000 0.3895322486 0.0000003840 -0.0019999999 0.0002646880
0.0438125554 0.8374811518 -0.0394709216 0.0014781959 0.0000808020 -0.0010737459
0.0301688982 1.3059999216 -0.3764949874 0.0000039040 0.0019999539 0.0002633820
0.4999999700 1.2264268064 -0.1413297495 0.0019999979 0.0000000000 0.0002642880
0.0564203306 1.3059999216 -0.0944659983 -0.0000013840 0.0019999879 0.0002633820
0.0086098495 0.3024097119 -0.0434316914 0.0005759220 -0.0000031340 -0.0016446619
0.1327423020 0.0399999976 0.3402117556 0.0000002560 0.0019999999 0.0002644800
-0.0580860325 0.5177970269 0.0098332134 -0.0019700939 -0.0000044120 0.0006049300
-0.1191168449 1.1299999322 -0.0763088934 -0.0000044160 -0.0019997079 0.0002438100
-0.0430744594 1.0581644865 0.0409203055 -0.0014840599 0.0001206660 0.0015948719
0.0264755124 0.0000000000 -0.4061194376 -0.0000000560 -0.0019999999 0.0002620440
0.1977929101 0.0399999936 0.0395374496 0.0000003780 0.0019999999 0.0002635240
-0.3230402646 1.3059999216 -0.1681049699 -0.0000078220 0.0019999799 0.0002633820
0.0403835276 1.1299999322 0.3987753821 0.0000072940 -0.0019987459 0.0003125900
-0.3579014365 1.1499999310 0.2675805959 -0.0000108220 -0.0019999519 0.0002633820
-0.2873716268 0.0000000000 -0.2198198568 -0.0000013640 -0.0019999979 0.0002621580
0.1114608693 1.1499999310 -0.1915172925 0.0000041380 -0.0019999839 0.0002633820
0.1330801000 1.3059999216 0.2699363398 0.0000039000 0.0019999659 0.0002633820
0.1267372204 0.0323068721 0.4772098874 0.0004745240 0.0007279180 0.0020398399
0.4066533576 1.2967858102 -0.4392126056 -0.0000050200 -0.0008628579 0.0020339199
-0.0564321066 0.4481070291 0.0196707128 -0.0018668699 -0.0000064980 0.0009534599
-0.1331761080 1.3059999216 0.1764015554 -0.0000046020 0.0019999839 0.0002633820
0.1161373290 0.0000000000 -0.4707405578 0.0000136820 -0.0019991019 0.0002074800
0.4731058056 1.2507529770 0.2699461358 0.0018869539 0.0006471020 0.0002633820
0.1630816862 0.0000000000 -0.3973434982 0.0000024760 -0.0019999899 0.0002591280
-0.1894208566 0.0000000000 -0.2126461052 -0.0000004400 -0.0019999999 0.0002626520
-0.1574833426 1.3059999216 -0.2985716221 -0.0000048780 0.0019999819 0.0002633820
0.2949452343 0.0400000016 0.3537580808 0.0000049040 0.0019999839 0.0002683880
0.3381510717 0.0399999976 -0.1004103020 0.0000006460 0.0019999999 0.0002630900
0.4170275010 1.3059997996 0.4100207734 0.0000179000 0.0019999179 0.0002633820
-0.2151147491 0.0000000000 0.0713891717 -0.0000004160 -0.0019999999 0.0002635860
-0.3522957249 1.3059999216 0.0288256143 -0.0000083200 0.0019999799 0.0002633820
0.4385216717 1.2963187702 -0.4091654875 0.0011110159 0.0016549819 0.0002633820
-0.4513990509 1.1382747117 0.1177670909 -0.0007178240 -0.0018372439 0.0000916380
0.0965750442 0.0000000000 -0.2554893647 0.0000001260 -0.0019999999 0.0002625520
0.1759559834 1.1299999322 -0.4196460768 -0.0000018580 -0.0019994519 0.0002227280
0.1437333294 1.3059999216 -0.3722015617 0.0000075620 0.0019999459 0.0002633820
-0.1361434558 0.0399999976 0.4568749886 -0.0000147200 0.0019993759 0.0003022100
0.0564126486 0.5692354398 -0.0192607088 0.0018799939 -0.0000018500 -0.0003913580
0.4010192019 1.1299998102 0.0279326643 0.0000111860 -0.0019984479 0.0002867840
-0.0472473872 0.0000000000 -0.0489380851 -0.0000001080 -0.0019999999 0.0002632120
-0.0838571430 1.3059999216 0.0146599091 -0.0000037640 0.0019999839 0.0002633820
-0.2343737959 1.1519999309 -0.2339715140 0.0000027700 0.0019997039 0.0002446020
-0.1104720394 1.3059999216 0.3964353242 -0.0000001740 0.0019999599 0.0002633820
0.3036864138 1.3059999216 0.2123699053 0.0000077520 0.0019999639 0.0002633820
0.4378277937 1.2299148422 0.4442633853 0.0000008980 0.0000002560 0.0022633819
0.3040512518 0.0000000000 -0.0564909566 0.0000005980 -0.0019999999 0.0002632380
0.3207680168 0.0399999976 0.2116162593 0.0000019440 0.0019999959 0.0002652660
-0.0006276260 0.0399999976 0.3926491624 0.0000000020 0.0019999999 0.0002646360
-0.4730516076 1.2508794409 0.3828033670 -0.0018862759 0.0006489140 0.0002633820
0.3278561823 1.3059999216 0.3170657310 0.0000119280 0.0019999419 0.0002633820
-0.4644030481 1.2710593717 0.2939314244 -0.0017126279 0.0010303079 0.0002633820
0.3241263846 1.3059999216 0.0782976033 0.0000041220 0.0019999859 0.0002633820
-0.3941740483 1.3059999216 -0.4299972742 -0.0000069680 0.0019443499 -0.0000847980
-0.3993454660 1.1519999309 0.0013481999 0.0000110620 0.0019997799 0.0002539060
-0.4176429189 1.3059999216 0.3683595519 -0.0000094280 0.0019999779 0.0002633820
-0.2528218688 1.3059999216 -0.0360015778 -0.0000066320 0.0019999819 0.0002633820
-0.2847230669 0.0399999976 0.2567832326 -0.0000019080 0.0019999939 0.0002654780
-0.4372521718 1.2894593946 0.4376867557 0.0001999540 -0.0002808420 -0.0016181979
-0.1733720756 1.1299999322 0.2542643887 -0.0000006940 -0.0019996239 0.0002643140
0.3115649233 1.1299999322 -0.3415384155 0.0000030220 -0.0019993599 0.0002167620
0.2232819846 0.0399999976 0.2140601212 0.0000004280 0.0019999999 0.0002640840
0.4686844199 1.2610695043 0.1576917625 0.0018086179 0.0008450499 0.0002633820
-0.0594063564 0.5978702041 0.0032315978 -0.0019868739 -0.0000041400 0.0004651100
-0.0372575278 0.0399999976 -0.1984227321 -0.0000000720 0.0019999999 0.0002627440
-0.0130283552 0.7093451714 0.0577586525 -0.0004093900 -0.0000048360 0.0022188039
-0.1888356207 0.0399999976 0.0723750637 -0.0000003600 0.0019999999 0.0002635960
0.0316600601 0.7125501892 -0.0499405790 0.0011275759 -0.0000019540 -0.0013864019
-0.1010722599 1.1299999322 0.3759790574 0.0000031440 -0.0019991879 0.0002933540
0.1508856409 1.1499999310 0.2191832448 0.0000047860 -0.0019999839 0.0002633820
0.4707011438 0.0000000000 -0.0002356940 0.0000088400 -0.0019998819 0.0002656620
-0.2044393037 1.3059999216 -0.3817384871 -0.0000037720 0.0019999699 0.0002633820
0.4599764744 1.2768280474 0.0396755036 0.0015869639 0.0011955159 0.0002633820
-0.1160397570 1.1299999322 -0.3061547516 -0.0000079420 -0.0019996819 0.0002400200
-0.2372129378 1.1499999310 0.0561834346 -0.0000015720 -0.0019999899 0.0002633820
0.4329404640 1.1319867481 -0.0944644103 0.0002754240 -0.0019621919 0.0002935600
-0.4760000014 1.2245807365 -0.0018919219 0.0019997419 0.0000000000 0.0002675320
-0.1010437719 1.2746672815 0.4442633553 -0.0000000360 0.0000220440 0.0022629199
0.2408928695 1.1519999309 -0.0643301581 -0.0000076740 0.0019995199 0.0002513080
0.1152127471 0.0400000016 0.0962102842 0.0000002200 0.0019999999 0.0002636980
0.0423542455 1.2531787588 0.4442633553 0.0000002660 0.0000004560 0.0022633819
-0.2997467480 1.1519999309 -0.2863362708 0.0000037420 0.0019997059 0.0002400880
-0.1805167132 0.0399999976 -0.4264487504 -0.0000095760 0.0019997059 0.0002434300
-0.0739114636 1.1299999322 -0.3469693852 -0.0000074480 -0.0019996459 0.0002371400
-0.1246395345 0.0399999936 0.0812650791 -0.0000002380 0.0019999999 0.0002636300
0.3356701459 1.1299999322 0.0563663646 0.0000098760 -0.0019985779 0.0002846960
0.0826128330 0.0399999976 0.0414924855 0.0000001580 0.0019999999 0.0002635220
-0.0475486731 1.2055979497 -0.4437365914 -0.0000002560 -0.0000003780 -0.0017366179
0.0798809012 1.1499999310 -0.1619989383 0.0000036200 -0.0019999839 0.0002633820
-0.0226865986 1.1299999322 0.1791408133 0.0000021780 -0.0019993459 0.0002674620
0.3840357430 1.2514578109 0.4442633553 0.0000009640 0.0000005860 0.0022633819
-0.0474420752 0.0399999976 -0.2654175101 -0.0000000920 0.0019999999 0.0002625300
-0.0544399987 1.1499999310 -0.0761853814 0.0000014160 -0.0019999879 0.0002633820
-0.4494057650 1.2878284147 0.1168554550 -0.0013322559 0.0014853019 0.0002633820
-0.2892998186 1.1299999322 -0.0819075111 -0.0000090880 -0.0019998339 0.0002527560
-0.1362999638 0.0000000000 0.3782375413 -0.0000014100 -0.0019999939 0.0002662360
0.0208915187 0.0000000000 -0.0839464290 0.0000000200 -0.0019999999 0.0002631060
-0.2365087898 1.1499999310 0.1510281129 -0.0000032900 -0.0019999819 0.0002633820
-0.0328849780 1.1499999310 0.2429200454 0.0000003700 -0.0019999799 0.0002633820
-0.1042343077 1.3059999216 -0.2075200075 -0.0000041100 0.0019999839 0.0002633820
0.0756869615 0.0185470729 -0.4906778726 0.0002670220 -0.0000698720 -0.0017092419
-0.3183723249 1.1519999309 -0.3510688729 0.0000032260 0.0019996879 0.0002349200
0.2610282443 1.1299999322 -0.0337821780 0.0000064680 -0.0019989599 0.0002609120
0.2534685208 0.0399999976 -0.0230849366 0.0000004840 0.0019999999 0.0002633300
0.1878739047 0.0000000000 0.1004254400 0.0000004060 -0.0019999999 0.0002637400
-0.1625081842 0.0400000016 0.0580036405 -0.0000003100 0.0019999999 0.0002635520
-0.1685846759 0.0399999976 0.4443716313 -0.0000148980 0.0019993959 0.0003015160
-0.4515870709 1.1615870883 0.3992086700 -0.0012347499 -0.0015622019 0.0002633820
0.0081794495 0.3022503779 0.0441736533 0.0004409740 -0.0000077500 0.0022073199
-0.1764580574 1.1519999309 0.4414846695 -0.0000024240 -0.0016023179 0.0008807299
-0.1445673433 0.0000000000 0.1717475477 -0.0000002460 -0.0019999999 0.0002639280
0.2763129414 0.0399999936 -0.3651242601 0.0000047280 0.0019999839 0.0002582400
-0.4434550514 1.1567274706 0.2550665427 -0.0009539399 -0.0017424339 0.0002633820
-0.1919709365 1.1519999309 -0.4413324775 -0.0000005840 -0.0015116039 -0.0007375080
0.3129807552 0.0399999976 -0.0133530732 0.0000005980 0.0019999999 0.0002633660
0.0503999490 0.0000000000 -0.0872113448 0.0000000780 -0.0019999999 0.0002631000
0.2288079543 1.1299999322 0.0497841310 0.0000069080 -0.0019988899 0.0002720200
0.4606513404 1.1689884559 -0.0865835368 -0.0013634319 0.0014524319 0.0002638860
0.0579028485 0.6861546828 -0.0103195094 0.0019657959 -0.0000023360 -0.0001018220
0.1777272993 0.0000000000 0.3891500767 0.0000017800 -0.0019999959 0.0002655220
0.0293052202 1.1519999309 0.2174060390 0.0000026660 0.0019997359 0.0002763260
0.4558063687 1.1658063261 -0.3284039863 0.0013925499 -0.0014132379 0.0002633820
-0.2212730267 1.1548485627 -0.4431609374 -0.0000032760 -0.0014778679 -0.0010568039
0.0519897309 0.7921192145 -0.0284203923 0.0017129779 -0.0000029300 -0.0007537740
-0.3595463964 1.2458933572 -0.4437365914 -0.0000005900 0.0000001420 -0.0017366179
-0.4194880128 0.0399999976 0.0379708957 -0.0000008000 0.0019999999 0.0002634660
-0.3188923769 1.3030153018 -0.4367212718 -0.0000093400 0.0015072439 -0.0010432699
-0.2307279522 0.0399999976 0.0686037259 -0.0000004400 0.0019999999 0.0002635800
-0.0569413726 0.5392538736 -0.0160883850 -0.0019414679 -0.0000067700 -0.0002052620
-0.4651949181 0.0303043002 0.1679833879 -0.0018134499 0.0005606900 0.0008789359
0.1334328380 0.0000000000 0.4691722898 0.0002040720 -0.0017977659 0.0009678279
-0.0724001117 1.1499999310 -0.3788129493 -0.0000051540 -0.0019999519 0.0002633820
-0.1376633837 1.1299999322 0.3364268758 0.0000015460 -0.0019993659 0.0002825040
-0.3222633787 1.1519999309 -0.2287742163 0.0000052780 0.0019997219 0.0002427920
0.3090456975 1.1499999310 -0.1284462203 0.0000073600 -0.0019999799 0.0002633820
0.3649714741 0.0399999976 -0.2994865700 0.0000145700 0.0019998199 0.0002544160
-0.3487027371 1.1519999309 -0.2405389116 0.0000058200 0.0019997239 0.0002414960
-0.0976319741 1.2842297809 -0.4437366214 -0.0000001980 0.0001569300 -0.0017256519
0.0921629585 1.1499999310 0.0219456627 0.0000038060 -0.0019999839 0.0002633820
-0.1654856621 1.1520000529 -0.2679295959 0.0000003220 0.0019996439 0.0002398860
0.1192738568 1.1299999322 0.1272468344 0.0000051760 -0.0019990479 0.0002737200
0.0682965659 1.1299999322 -0.3617884763 -0.0000038500 -0.0019995379 0.0002293560
-0.0929883144 0.0000000000 -0.0094618454 -0.0000001900 -0.0019999999 0.0002633360
0.2162352930 0.0399999976 0.3100230074 0.0000013220 0.0019999959 0.0002651960
0.0368571378 0.5804285532 0.0463776672 0.0012940819 0.0000288100 0.0017781559
-0.3976645581 1.1299999322 -0.0366498538 -0.0000112980 -0.0019999199 0.0002592240
0.1926096984 1.2593232884 0.4442633553 0.0000006300 0.0000006260 0.0022633819
-0.2539914248 1.1299999322 -0.3088350795 -0.0000117020 -0.0019997839 0.0002473020
-0.0604640844 0.0399999976 0.4146712551 -0.0000001620 0.0019999999 0.0002647480
-0.4627422202 1.2735092016 -0.1338582080 -0.0016670659 0.0010940499 0.0002633820
0.1164834450 0.0399999976 0.3218691367 0.0000002240 0.0019999999 0.0002644200
0.0555781207 1.1519999309 -0.4399073076 -0.0000038460 -0.0018560939 0.0007211100
0.0820858251 0.0399999976 -0.2119848193 0.0000001560 0.0019999999 0.0002627120
0.3225057486 1.2107103774 0.4442633553 0.0000005000 -0.0000001140 0.0022633819
-0.3572106726 0.0399999976 0.2382979897 -0.0000033860 0.0019999899 0.0002666860
0.1161591110 1.1764020294 0.4442633553 -0.0000000940 -0.0000215820 0.0022626859
-0.0130313872 1.1299999322 0.0971895242 0.0000011580 -0.0019994779 0.0002542020
-0.3273235284 1.2301733882 -0.4437366214 -0.0000006240 -0.0000001060 -0.0017366179
-0.1042838217 1.3059999216 -0.0595272184 -0.0000041120 0.0019999839 0.0002633820
-0.4528200108 1.1388074277 -0.4191400649 -0.0007767480 -0.0018214499 0.0001432400
0.4779999713 1.2263854244 0.1610688523 -0.0019993499 0.0000000000 0.0002867280
-0.2377235117 0.0000000000 -0.2714891037 -0.0000008800 -0.0019999979 0.0002622440
-0.3589814545 0.0000000000 0.2929221164 -0.0000141840 -0.0019997899 0.0002744680
-0.0925601684 0.0000000000 -0.4203336088 -0.0000003000 -0.0019999999 0.0002619800
0.2118554873 1.1519999309 -0.3984430761 -0.0000122080 0.0019993419 0.0002178820
-0.0806227072 1.1519999309 0.3794032512 0.0000082720 0.0019997879 0.0002828180
-0.0590887865 0.4883705767 0.0048194137 -0.0019833139 -0.0000048020 0.0004961200
-0.1968032722 0.0399999976 0.2058792916 -0.0000003740 0.0019999999 0.0002640220
-0.1082750475 0.0000000000 -0.1333573220 -0.0000002540 -0.0019999999 0.0002629260
-0.1224470607 1.1519999309 0.0800623272 0.0000046720 0.0019997399 0.0002649620
-0.5000000000 1.2365621818 -0.3485968271 -0.0013554159 0.0008534959 0.0002269800
-0.3311448161 0.0399999976 0.3285601763 -0.0000051960 0.0019999839 0.0002687480
0.0253587625 1.1519999309 0.0987609041 0.0000008900 0.0019997159 0.0002695500
0.2951115843 1.1299999322 0.0198193268 0.0000082180 -0.0019987619 0.0002739420
-0.4392128636 1.2958579542 0.1692762198 -0.0011291059 0.0016438059 0.0002633820
-0.0245171165 0.3618440643 -0.0352194959 -0.0011337899 -0.0000184680 -0.0013782679
0.4717864717 0.0000000000 0.0956406503 0.0000487500 -0.0019992179 0.0002753100
0.1702221418 0.0399999976 -0.1826372410 0.0000003240 0.0019999999 0.0002628120
0.0940709024 1.1499999310 -0.2107380854 0.0000038560 -0.0019999839 0.0002633820
0.1749564715 0.0399999976 0.1703784078 0.0000003360 0.0019999999 0.0002639400
0.3324648841 0.0399999976 -0.0506123590 0.0000006340 0.0019999999 0.0002632480
0.2043891177 1.1521659469 -0.4418196295 0.0000084300 -0.0014031919 -0.0011606639
0.0746037635 1.1499999310 -0.3421273135 0.0000007060 -0.0019999679 0.0002633820
-0.2158973250 1.3059999216 0.2678225699 -0.0000060040 0.0019999819 0.0002633820
0.1162072770 1.3059999216 -0.2743463735 0.0000034940 0.0019999659 0.0002633820
0.1372773658 0.0000000000 -0.1604047604 0.0000002340 -0.0019999999 0.0002628720
0.1142250291 1.1392390676 -0.4297365922 0.0000034780 -0.0003198840 0.0002167000
0.4002922740 1.2782278293 0.4442633553 0.0000007780 0.0000525780 0.0022622659
-0.1921482585 1.1299999322 -0.1605223744 -0.0000077060 -0.0019997539 0.0002463580
-0.4014763239 0.0370884378 0.2844566629 -0.0011549059 0.0011525799 0.0010878419
0.3935914384 0.0399999976 0.1433211894 0.0000023840 0.0019999939 0.0002653220
-0.4635552702 1.1437776414 0.0018369099 -0.0007662520 -0.0014305979 0.0008874819
0.0313301261 0.0399999976 0.3324115561 0.0000000620 0.0019999999 0.0002644460
-0.0212156887 0.0000000000 0.4221761687 -0.0000000860 -0.0019999979 0.0002649780
-0.0415172555 0.1482714751 -0.0127021032 -0.0018376859 0.0000109240 -0.0005000820
0.0308333941 0.7393360756 0.0509633409 0.0011044059 -0.0000028500 0.0019254719
-0.3095091374 1.1519999309 -0.3800206532 0.0000025180 0.0019996659 0.0002317620
-0.1797283832 1.3059999216 -0.2325834060 -0.0000053920 0.0019999819 0.0002633820
-0.3594649744 1.3059999216 0.2390880137 -0.0000084400 0.0019999799 0.0002633820
-0.3614935383 1.1499999310 0.4011272499 -0.0000151040 -0.0019999279 0.0002633820
0.1933814424 1.3059999216 0.2922308325 0.0000066320 0.0019999559 0.0002633820
-0.2536096948 0.0352610719 0.4227225546 -0.0008999539 0.0008560839 0.0018255259
-0.2275369583 1.1499999310 0.2352014779 -0.0000056300 -0.0019999659 0.0002633820
-0.2264422164 1.1519999309 -0.1250869365 0.0000042820 0.0019997219 0.0002509220
0.2758847194 0.0399999976 -0.2928452424 0.0000026900 0.0019999919 0.0002604080
-0.3380311077 0.0000000000 -0.2678476559 -0.0000045900 -0.0019999879 0.0002600300
-0.1858906288 0.0399999976 -0.3802682412 -0.0000022560 0.0019999939 0.0002604640
-0.2353540199 1.1519999309 -0.2735436396 0.0000021660 0.0019996839 0.0002409200
0.1985280341 1.1519999309 0.0129661172 -0.0000052680 0.0019995899 0.0002601720
-0.4999999700 1.2229214346 -0.2313456901 -0.0019941159 -0.0000839300 0.0003184700
0.2999120600 1.1499999310 0.3812648851 0.0000067260 -0.0019999779 0.0002633820
-0.2039543938 1.1499999310 -0.3175653349 -0.0000074600 -0.0019999539 0.0002633820
