0.1687314127 0.7619047574 -0.2128647789 -0.0011338254 0.0567178005 -0.3024795658
0.0658921995 0.7732426259 -0.1977911871 -0.0011397687 0.0612037460 -0.3021100374
-0.4780292132 0.7881725714 0.1219405612 -0.0015093424 0.0601463220 -0.3006398129
-0.1526151202 0.7732426259 -0.1534586088 -0.0011364059 0.0611457052 -0.3028451576
-0.4923188435 0.8881118277 -0.2337946633 -0.0027411655 0.0595572132 -0.3034597925
0.0812476190 0.7619047574 0.5017518197 -0.0011435624 0.0567176916 -0.3021260873
-0.0473397528 0.7732426259 -0.0280334048 -0.0011422245 0.0612060590 -0.3021408379
0.1379819864 1.7151626236 -0.5896918197 -0.0014752971 0.0602293129 -0.3005297472
0.4840604127 0.1060168503 0.5311978923 -0.0005354399 0.0574028390 -0.3033131372
-0.4976087982 1.7032617370 -0.5028884615 -0.0033947143 0.0589406054 -0.3023867109
-0.4977324603 0.2404340658 -0.4485922574 -0.0029717914 0.0589482336 -0.3023180351
-0.1698113265 0.7619047574 -0.0069358628 -0.0011327506 0.0567825420 -0.3018013821
0.4615147392 1.1703797029 -0.1811118356 -0.0014459048 0.0579038503 -0.3041731145
-0.4412202381 0.2374852290 -0.4394709966 -0.0004832336 0.0597067211 -0.3010410397
-0.3779474717 0.7732426259 0.1070422392 -0.0011746735 0.0612223855 -0.3023621712
-0.4143148073 1.7432508367 -0.5419787268 -0.0010408571 0.0601423560 -0.3014337653
-0.4931972789 0.1536693401 0.5459332460 -0.0032407755 0.0593502676 -0.3017711984
-0.3072743673 0.2154296168 0.4758112551 -0.0005192336 0.0591594649 -0.3034106791
0.1851643333 0.7619047574 0.1641737744 -0.0011359320 0.0567272313 -0.3020614229
0.2994416259 1.7255860703 -0.5643846678 -0.0015384694 0.0605161973 -0.3007830533
0.4607645669 0.6798527460 0.1708593730 -0.0024230181 0.0593153764 -0.3024695952
0.4607118367 0.7664879297 0.4504937766 0.0008540703 0.0593547551 -0.3023749694
0.4815749592 0.1396818753 0.5079963662 -0.0005044921 0.0573845034 -0.3031589082
-0.3955453878 0.2334801066 -0.4349604841 -0.0006125193 0.0594307687 -0.3006272755
-0.4785913651 0.3043665941 -0.4029052098 -0.0012552608 0.0585139546 -0.3004275930
-0.4690675624 1.0898251315 -0.1229263435 -0.0004267732 0.0581372608 -0.3042142007
-0.2773257234 0.7732426259 0.4737289331 -0.0011517075 0.0612156803 -0.3022627381
0.4814902925 1.4264192766 -0.3075179354 -0.0016431088 0.0602461020 -0.3007450578
-0.4956954989 1.0647021043 -0.0643358991 -0.0024391224 0.0598888707 -0.3009653730
0.4371625420 0.7324262993 -0.1683738424 -0.0013587370 0.0570208231 -0.3023664478
0.3675953016 0.7692540952 0.1830418741 -0.0011351293 0.0596433968 -0.3028686587
0.3467432494 1.6486965828 -0.5290626995 -0.0005647619 0.0578255646 -0.3042215431
0.2536050522 0.8163265261 -0.2380403662 -0.0012945193 0.0605950227 -0.3018425499
-0.3715357370 0.7732426259 0.3199672574 -0.0011439138 0.0612012200 -0.3021184615
0.4362282608 0.7816834014 0.5463509422 -0.0028308503 0.0603695011 -0.3023580578
-0.4877234558 0.6941971859 0.1423780646 -0.0020214376 0.0581938073 -0.3037875567
-0.4588920272 1.5336130658 -0.4192112415 0.0002889977 0.0581550068 -0.3037178243
-0.4579051882 0.8916927642 0.0499296995 0.0007867438 0.0596234921 -0.3017923662
-0.1455046122 0.7732426259 -0.2984342868 -0.0011475442 0.0612108662 -0.3022045204
-0.0761835170 0.7619047574 -0.1886510510 -0.0011387642 0.0567529932 -0.3019523141
-0.4170901066 0.7667744898 -0.0756413458 -0.0011364218 0.0586091111 -0.3028602256
-0.4580491247 0.9809914195 -0.0274341259 0.0008258163 0.0595448435 -0.3018635658
0.5000000000 0.1250985125 0.5629047562 0.0001947075 0.0597651882 -0.3010989966
0.4500012744 0.7845804943 0.4955129467 -0.0007458912 0.0602574785 -0.3023666950
-0.3809878821 0.2136501179 -0.4344970102 -0.0008326825 0.0578852109 -0.3012436655
0.0653546576 0.7732426259 0.2160678447 -0.0011338345 0.0611623469 -0.3025448923
0.2118183923 0.2126104263 -0.4377086497 -0.0013641655 0.0581833333 -0.3005798197
0.4931972789 0.1355289410 -0.4894254002 0.0009151043 0.0590456485 -0.3026166950
-0.2315820023 0.7732426259 -0.2905919717 -0.0011445351 0.0612045692 -0.3021440034
-0.4659863946 0.9883755669 -0.1910985658 0.0000811247 0.0599421270 -0.3030589399
-0.4325527619 0.7324262993 0.1747268719 0.0002490317 0.0576750317 -0.3023740170
0.4779843696 1.4014615737 -0.2910140329 -0.0017877551 0.0602215805 -0.3008055181
-0.1758053152 0.7619047574 0.0345160034 -0.0011642426 0.0566917256 -0.3023222188
0.2902189841 0.8163265261 -0.2613075317 -0.0014326735 0.0604344308 -0.3038537812
0.1544342744 0.7732426259 -0.0701610011 -0.0011357755 0.0611732676 -0.3027397290
-0.0246933492 1.6084196077 -0.5551077562 -0.0012959252 0.0576870635 -0.3042219898
0.1020422426 0.7619047574 0.5767130261 -0.0011526871 0.0566942472 -0.3022832732
0.3172691156 0.7619047574 0.3221193345 -0.0011335420 0.0567131701 -0.3023851190
0.4229410385 0.7732426259 -0.1380405907 -0.0011343515 0.0611967098 -0.3024485068
0.4966714376 0.9198427732 -0.0119526474 0.0001995964 0.0579794059 -0.3038352891
-0.4411147415 1.6684042948 -0.5075008356 -0.0019713220 0.0577264150 -0.3040464002
-0.4156743605 1.7298910567 -0.5553495794 -0.0018817166 0.0579319116 -0.3042293231
-0.2453085624 1.5916518254 -0.4843105045 -0.0006767846 0.0596328776 -0.3002571735
0.0831432041 0.7619047574 0.2920561304 -0.0011352336 0.0567336735 -0.3026631712
-0.0338203628 0.7732426259 0.5561005136 -0.0011356848 0.0611562086 -0.3026651236
-0.1232097302 0.7662630975 -0.2654300397 -0.0011311111 0.0585128617 -0.3017324342
-0.4737523560 0.7858744127 -0.2338782279 -0.0010833424 0.0576030862 -0.3011622166
-0.1705087324 0.7619047574 0.3215269059 -0.0011500091 0.0567407755 -0.3020468900
0.2575392086 1.7311801293 -0.5889670102 -0.0012287029 0.0594883243 -0.3022293413
-0.0436176122 0.7619047574 0.4733570465 -0.0011350385 0.0567117891 -0.3025191939
-0.1998951202 0.7732426259 0.2045353821 -0.0011679433 0.0612159274 -0.3023326769
-0.2904947506 0.7619046871 0.5352583209 -0.0011358390 0.0567262063 -0.3027498424
-0.4572030068 0.4042051111 0.3423555340 -0.0001787914 0.0587262971 -0.3038814637
0.1976499320 0.7732426259 0.0093043322 -0.0011352018 0.0611757302 -0.3028089286
-0.1385864649 1.7153705034 -0.5815001848 -0.0008562041 0.0604836236 -0.3007528333
0.1598765918 0.8163265261 -0.2423675998 -0.0012186689 0.0606203129 -0.3021931644
-0.4244746689 0.7619047574 -0.2347397177 -0.0011785011 0.0566978753 -0.3023206497
0.2221094943 1.6845218685 -0.5821505862 -0.0007954308 0.0577585578 -0.3042481213
-0.0648381633 1.6214778095 -0.5572988288 -0.0013362902 0.0576968435 -0.3042240624
-0.4480667982 0.7324262993 -0.0452251825 -0.0018690045 0.0572452562 -0.3023641032
-0.4941395873 0.5374277982 0.2747006247 -0.0025727460 0.0594495397 -0.3016244456
-0.2810334694 0.7619047574 -0.0919981281 -0.0011318639 0.0568135964 -0.3016683980
0.4965897823 0.9936693628 -0.0230830692 0.0010183605 0.0592373605 -0.3019541848
0.4603669048 0.9539527755 0.0041956474 -0.0023967574 0.0600882834 -0.3013663254
0.3991924467 1.6881205896 -0.5114299739 -0.0014891633 0.0603758549 -0.3006583367
0.0845204218 0.7732426259 -0.2010802778 -0.0011412290 0.0612059206 -0.3021327630
0.4637188209 0.6194439977 -0.3314984252 -0.0018850113 0.0585184444 -0.3038007766
0.3739832313 0.7732426961 0.4459342007 -0.0011347710 0.0611909887 -0.3027269512
-0.4907527596 0.8943051655 -0.1948790261 -0.0019297052 0.0583983900 -0.3007036837
-0.4974570068 1.6551038912 -0.4575700828 -0.0026349048 0.0598379864 -0.3010383231
0.0670638141 0.7732426259 0.2905837426 -0.0011355147 0.0611652268 -0.3026667200
0.2026578934 0.7619047574 0.2872302687 -0.0011357710 0.0567498821 -0.3027581599
0.4462710363 0.7991605624 -0.2325843073 -0.0017240068 0.0589456485 -0.3007510646
0.0322678050 1.5866336553 -0.5153147381 -0.0012377823 0.0597606485 -0.3002921417
-0.4944837914 0.6577643878 0.2050212778 -0.0023468685 0.0598568526 -0.3010153209
-0.4577071338 0.7720880091 -0.3534087789 -0.0031314830 0.0590003469 -0.3024434116
-0.0867456281 0.2514415351 -0.4616518946 -0.0010404943 0.0605348231 -0.3033002619
-0.4750735397 0.0866715964 0.5490655544 -0.0012575941 0.0578461406 -0.3040079694
0.4788801746 0.7679229478 0.1328778265 -0.0012600590 0.0603584490 -0.3009921780
0.2178215329 1.5868747528 -0.4942226111 -0.0015435986 0.0597676712 -0.3002926043
0.4926341224 0.1628571474 0.4920241871 0.0001809592 0.0578725510 -0.3035034229
-0.4949402063 0.8041419841 0.0936222914 -0.0027483787 0.0592895351 -0.3018620964
0.4637188209 1.0030583265 -0.1916408061 -0.0024388776 0.0597554172 -0.3034793367
0.0543730635 1.6897692290 -0.6092933435 -0.0009723787 0.0582564807 -0.3044836882
0.0289521995 0.7619047574 0.1854246315 -0.0011351746 0.0567590000 -0.3028889218
-0.4911189705 0.9684300794 -0.0405802982 -0.0018668458 0.0580592721 -0.3038846678
0.2341032313 0.7732426259 0.4250933254 -0.0011335646 0.0611979955 -0.3020335862
-0.4716700000 0.5807386417 0.2606427109 -0.0008623107 0.0601397098 -0.3008753277
-0.1852945351 0.2271998345 0.4925114977 -0.0003009751 0.0601595896 -0.3015846202
0.1125412336 0.2073603129 0.5087623503 -0.0010730658 0.0590942925 -0.3003580442
0.4611518844 0.7413516871 0.5422518288 0.0008953628 0.0583674785 -0.3023766746
-0.3963263900 1.5968147619 -0.4469656565 -0.0007397370 0.0598672404 -0.3003655249
-0.0318890385 1.6578510272 -0.5872410011 -0.0012913946 0.0578161519 -0.3042962732
0.4602646599 0.7695889592 0.3572569014 0.0008167619 0.0595242494 -0.3023751667
0.4869740454 0.0877415306 0.5880320034 -0.0012746168 0.0599394512 -0.3003915612
0.1233190159 1.6681290136 -0.5611109127 -0.0014324830 0.0600927143 -0.3004453617
0.4596848254 0.7676839977 0.2363608923 0.0007696122 0.0595238617 -0.3023759331
0.0710486576 0.7732426259 -0.3068393367 -0.0011348322 0.0611626395 -0.3025623821
0.1470693651 0.7619047574 -0.2001133345 -0.0011484082 0.0566949116 -0.3022434864
-0.4659863946 0.4501606032 -0.3614757381 -0.0004012200 0.0588340068 -0.3011810896
0.3618378231 0.2071697506 0.4632175998 -0.0022335510 0.0581713469 -0.3040679966
-0.4852730204 1.4851958571 -0.3860466361 -0.0008607551 0.0578770612 -0.3042189785
-0.1782771179 0.7732426259 -0.3128195680 -0.0011629229 0.0612156508 -0.3022921395
0.4759536712 1.7206380726 -0.5480997517 -0.0005554467 0.0577694218 -0.3041475658
-0.4423476236 0.2443603333 -0.4626407744 -0.0003703673 0.0602143946 -0.3033795839
0.4613219116 0.2979050159 0.4078320714 -0.0024107052 0.0584981655 -0.3037057676
-0.3569908571 0.7619047574 -0.0477375181 -0.0011678322 0.0567164399 -0.3022049150
0.3721059501 1.6135854535 -0.4985477154 -0.0005059410 0.0576572971 -0.3040957948
-0.1947945306 0.7732426259 -0.1524526202 -0.0011364580 0.0611419342 -0.3028538243
-0.4476664354 0.7845804943 0.4795405590 -0.0020054490 0.0601905465 -0.3023604206
0.3877529569 0.7619047574 0.3868210986 -0.0011353605 0.0567473107 -0.3026611190
-0.4578949456 0.8686248662 0.0329454909 0.0000952608 0.0586311497 -0.3035429195
0.2843609932 0.7732425556 0.2946606429 -0.0011348277 0.0611846916 -0.3025327245
-0.0839048458 0.7732426259 -0.3060634206 -0.0011578005 0.0612126304 -0.3022487268
-0.2266960930 0.7619046871 -0.3040117268 -0.0011650476 0.0567055533 -0.3022470170
0.4612830884 0.7677846168 0.5695995930 0.0009006417 0.0593335850 -0.3023742642
0.4637188209 0.5347146054 -0.3345771236 -0.0019274286 0.0587037664 -0.3012326882
-0.4564426621 0.7434159501 0.2265758900 -0.0032728345 0.0583789365 -0.3023854841
-0.0113938866 0.7732426259 0.4675387086 -0.0011347392 0.0611579048 -0.3026616927
-0.4675588458 1.1127811995 -0.1384918651 -0.0003525850 0.0581412063 -0.3041860964
0.2627133560 0.7650684127 0.5307031054 -0.0011372517 0.0580068730 -0.3030148719
0.2174493515 1.5842229751 -0.5184839989 -0.0007797755 0.0574658662 -0.3040316293
0.4912667143 0.1660508435 0.5351203345 -0.0001590204 0.0596740068 -0.3009376950
0.4954648526 0.9675593265 -0.2041036202 0.0005305374 0.0593666281 -0.3032510964
-0.1913672200 1.5845457279 -0.4915016156 -0.0007492517 0.0596836440 -0.3002558243
0.2054196667 1.6798784898 -0.5541264184 -0.0015622494 0.0600499456 -0.3004562279
-0.3010444898 0.7619047574 0.1524477948 -0.0011465283 0.0567756304 -0.3018786293
0.3623349977 0.2249074195 0.4964157426 -0.0016294263 0.0604113197 -0.3010405363
-0.0124400907 1.5679754444 -0.5287635612 -0.0012310839 0.0578147029 -0.3038986655
-0.2828553220 0.7732426259 0.4146579036 -0.0011393719 0.0611992358 -0.3020817336
0.2067078050 0.7732426259 0.5932592279 -0.0011373878 0.0612006735 -0.3020692392
0.2184830068 0.2151669138 -0.4602213571 -0.0012403878 0.0575539229 -0.3035145884
-0.4711574286 0.5021006213 0.3132245340 -0.0007525329 0.0601356893 -0.3009279240
0.4903669637 0.3484179229 -0.3919774433 0.0003834240 0.0586077460 -0.3009348741
-0.2419456440 0.7656586281 -0.0765804546 -0.0011366100 0.0581912562 -0.3028954728
0.4543381247 0.7845804943 -0.3265210533 0.0001493605 0.0604352585 -0.3023756837
0.4264989660 1.6243258413 -0.4881058764 -0.0003506213 0.0576047551 -0.3039768197
0.1386760272 0.7929084014 -0.2343156383 -0.0015286712 0.0580031383 -0.3006118084
-0.4954115329 0.1030312653 -0.5124352029 -0.0025207256 0.0595368594 -0.3039761213
0.2272486440 1.7071497166 -0.5954738628 -0.0007933537 0.0578255941 -0.3042965567
0.4955128776 1.7174755918 -0.5008540941 0.0002486644 0.0594542630 -0.3016262868
0.4323172018 0.7555366168 -0.2858670079 -0.0033957823 0.0589207619 -0.3024275204
0.1257033311 1.6013746848 -0.5185988016 -0.0013953424 0.0598805533 -0.3003220374
0.4916960363 1.2257039887 -0.2167593254 -0.0002756916 0.0579310658 -0.3039838061
-0.4324935261 0.7519736032 0.0158012551 0.0011089955 0.0587569365 -0.3024386995
-0.3645007075 1.6719952676 -0.5337298810 -0.0017208753 0.0577870726 -0.3041938946
0.2574003061 0.2120587732 -0.4567379422 -0.0013160204 0.0575005918 -0.3030101236
0.4320846871 0.7691682177 -0.3334949989 -0.0033981927 0.0589574966 -0.3024527290
-0.0857236689 0.7625394671 -0.0774181122 -0.0011364535 0.0569934354 -0.3028661100
-0.3397341020 0.7682861134 0.6044505975 -0.0011322200 0.0592851769 -0.3017813685
0.4692746463 1.0108592698 -0.0740189830 -0.0014289410 0.0579855873 -0.3041177063
-0.0414517120 0.1983573764 0.4708169603 -0.0015233673 0.0577538254 -0.3038743639
0.4597419864 1.3699147007 -0.2806455816 -0.0026867098 0.0595091519 -0.3017231939
-0.4939263787 1.2731094830 -0.2008978560 -0.0023509456 0.0599854286 -0.3008205862
-0.0671470975 0.2109599864 -0.4539210170 -0.0010610522 0.0573007098 -0.3033859354
0.4223944218 1.7143437007 -0.5478360102 -0.0003248798 0.0579341950 -0.3042060283
0.4637188209 0.7800881814 -0.2579891349 -0.0018440816 0.0576698163 -0.3023822755
0.1557972880 1.6803681542 -0.5884155998 -0.0009166485 0.0578227075 -0.3042991599
-0.0988265578 0.7619047574 0.1868970193 -0.0011349932 0.0567452177 -0.3028244206
0.2363754422 1.7233524059 -0.6040193730 -0.0007853311 0.0578765329 -0.3043182347
0.0538752290 0.7619047574 0.5810214025 -0.0011523878 0.0567015918 -0.3022228832
-0.0075544671 0.7732426259 0.2138314796 -0.0011340091 0.0611553492 -0.3025983163
-0.4659863946 0.3802921995 -0.4075622642 -0.0001860544 0.0601539751 -0.3025745635
-0.2712830340 0.7619047574 0.2401245884 -0.0011445941 0.0567661746 -0.3019102029
0.2438043605 0.7732426259 -0.0321650941 -0.0011336213 0.0611818345 -0.3023369218
-0.1222515238 0.7732426259 0.2318185816 -0.0011428141 0.0612055692 -0.3021418855
0.4929314082 0.7635997642 -0.2825985476 0.0003966871 0.0593140159 -0.3038075794
-0.3311235420 0.7831894875 -0.2710837971 -0.0007539909 0.0586481837 -0.3045013776
-0.4925718413 0.6053753946 -0.2972449830 -0.0025643288 0.0583781882 -0.3011415249
-0.0809062857 0.7619047574 0.4583673118 -0.0011356825 0.0567301429 -0.3026912506
0.2257644762 0.7732426259 0.2116313435 -0.0011338254 0.0611774785 -0.3025220306
0.0186608934 0.2255945828 0.4896891417 -0.0009270748 0.0601621361 -0.3017957472
0.4840586145 0.9726880091 -0.1703302029 -0.0001454739 0.0592600771 -0.3008954615
0.0854502222 0.7732426259 0.4043325136 -0.0011499161 0.0612084127 -0.3021708741
-0.0954818390 1.5785125193 -0.5297230306 -0.0013446961 0.0576605669 -0.3042047993
0.4949989932 0.6715672585 -0.2802570760 0.0005588685 0.0584939365 -0.3010739490
-0.2528442245 0.8052696825 -0.2640089739 -0.0008592449 0.0600553356 -0.3039865658
0.4973320998 0.4840645601 0.2932961395 0.0005115465 0.0585348549 -0.3030054138
-0.4958922381 1.2483890000 -0.1842852302 -0.0024246463 0.0599721837 -0.3008400351
0.1009567596 0.7619047574 0.1317605771 -0.0011347347 0.0567164059 -0.3025017313
0.2747990612 1.7260148390 -0.5951602438 -0.0007726644 0.0581413447 -0.3041155476
-0.4944109229 0.6350938050 0.2238567812 -0.0022445170 0.0600078413 -0.3007898741
-0.4337549184 0.7324262993 0.0326519762 -0.0000675533 0.0574193061 -0.3023725476
-0.3782823016 1.5915065034 -0.4525824297 -0.0008074422 0.0594386667 -0.3006743435
0.4768574331 1.2102848617 -0.1629853707 -0.0017464694 0.0603186145 -0.3008428243
0.1664665714 0.7648924354 0.0799635295 -0.0011316145 0.0579222154 -0.3019624546
0.4637188209 0.4891408594 -0.3795178810 -0.0020103628 0.0591920431 -0.3038601100
-0.4582560703 0.7367287234 -0.1483565181 -0.0028108844 0.0577618390 -0.3023788628
-0.0425757574 0.7842839002 -0.2576747562 -0.0010023333 0.0576365329 -0.3029382483
0.0044498005 0.7619047574 0.5427137449 -0.0011359365 0.0567406145 -0.3027568696
0.2069459955 0.7732426259 0.1163029059 -0.0011353084 0.0611779229 -0.3026018764
-0.4417814921 0.8163265261 -0.2428967789 -0.0007396803 0.0601414558 -0.3019947086
-0.4916112993 0.5293036871 0.2953371508 -0.0020793243 0.0600835079 -0.3006779512
-0.4659863946 0.8346518821 -0.2168372868 -0.0007052154 0.0591765057 -0.3002307789
0.2389991043 0.7732426259 0.3800043980 -0.0011348254 0.0611808571 -0.3025622551
-0.4608120726 1.4077714444 -0.3370247834 0.0000878889 0.0580935805 -0.3039714138
-0.4573576009 0.5117172925 0.2787105363 0.0000585102 0.0590017234 -0.3032258220
-0.3987231610 0.8163265964 -0.2392700941 -0.0007841247 0.0600331043 -0.3016788515
-0.4337670975 0.7845804943 0.2341188878 0.0003323288 0.0603318345 -0.3023749490
-0.1544380612 0.7852327120 -0.2356271372 -0.0009199524 0.0574114376 -0.3009535136
0.4588755918 0.7810681361 0.0676340465 0.0007004853 0.0601193401 -0.3023756247
0.0235948549 0.7619047574 0.4211210578 -0.0011388730 0.0567384512 -0.3020192007
0.1586635193 0.7732426259 -0.1401635340 -0.0011350884 0.0611736077 -0.3025812642
0.1665385057 0.7670531633 0.4443575975 -0.0011357755 0.0587725261 -0.3030074048
0.2336403628 0.7719452472 0.2700785590 -0.0011362517 0.0606760454 -0.3028289331
0.4598701111 1.2825966440 -0.2253705408 -0.0026725306 0.0593827098 -0.3019357971
0.3274178367 0.2310055374 -0.4700982755 -0.0014437687 0.0586104331 -0.3042681304
-0.1756356168 0.7619047574 0.5073371599 -0.0011389773 0.0567672041 -0.3018888243
0.2492415578 0.7679972698 0.1833600601 -0.0011353560 0.0591447483 -0.3029523753
0.2124503515 0.7732426259 -0.3048326383 -0.0011343810 0.0611761247 -0.3024782664
0.0181191406 1.6501943673 -0.5650428878 -0.0018931882 0.0572237846 -0.3018503503
0.4976328798 0.2753201565 0.4173598515 0.0004238073 0.0580495283 -0.3037327971
0.2905609751 1.6510103832 -0.5448826020 -0.0006948889 0.0577508050 -0.3042242846
0.4307757188 1.7458675964 -0.5399854138 -0.0013180975 0.0604873039 -0.3009646837
-0.3604948776 1.6038166440 -0.4603418537 -0.0007124240 0.0598114943 -0.3003473571
0.4801267596 1.1106206803 -0.1593230533 -0.0012964989 0.0597510363 -0.3039205136
-0.4873832993 1.3008385442 -0.2197874932 -0.0020926032 0.0600353333 -0.3007474025
0.4353730431 0.7340016576 0.3662415249 -0.0031191542 0.0582441905 -0.3023629444
0.4913295125 1.0681711451 -0.1365051259 0.0002456848 0.0587324127 -0.3009459694
-0.4149959501 1.7159097166 -0.5191683957 -0.0008630522 0.0604961973 -0.3007465590
-0.2605657778 0.2108590907 -0.4533208379 -0.0009411247 0.0574591202 -0.3034193413
-0.4973069796 1.5912002200 -0.4493428265 -0.0033785397 0.0588966009 -0.3024492800
-0.2363026757 1.6958724694 -0.5772417200 -0.0014828481 0.0578621429 -0.3043115045
0.4610458345 0.4996957891 0.3100927789 -0.0021335057 0.0604370839 -0.3013054342
-0.1264786667 0.8039146599 -0.2650770669 -0.0009870227 0.0598985896 -0.3041112438
-0.0871343719 0.7619047574 -0.0553984002 -0.0011349728 0.0567174943 -0.3025896224
-0.0361247687 0.7732425556 0.1354543481 -0.0011568322 0.0612117347 -0.3022058628
-0.4757334739 0.6381029002 -0.3219924683 -0.0010009456 0.0596421587 -0.3039633957
-0.4567457959 0.7608281995 0.1706943299 -0.0030112041 0.0593095510 -0.3023591327
-0.4656802494 1.6613094082 -0.5064049898 0.0000337029 0.0579696848 -0.3039104819
0.4868314580 0.3005373129 0.4442474297 -0.0000490295 0.0599041474 -0.3013856769
0.4880321270 1.0320619297 -0.0439428900 -0.0008667324 0.0601660204 -0.3008992551
-0.0565787256 1.6369504308 -0.5703304569 -0.0013322653 0.0577745624 -0.3042701349
-0.4591442971 0.2481276281 0.4399797449 -0.0005403084 0.0585044785 -0.3044345068
-0.4950034898 0.8263862540 0.0809733073 -0.0027007528 0.0593740544 -0.3017357154
0.1836188005 0.7732425556 0.2350828560 -0.0011423946 0.0612047211 -0.3021325000
0.3978193628 0.7732426259 -0.2862728492 -0.0011329161 0.0611940522 -0.3022054887
-0.1862330703 0.7875409070 -0.2703627154 -0.0009154444 0.0588124943 -0.3044322120
0.3046187143 0.7732426259 0.3681439263 -0.0011352789 0.0611865556 -0.3026472891
0.1194181474 0.7619047574 -0.1507503821 -0.0011358118 0.0567467211 -0.3027629286
-0.2829920975 0.7732426259 -0.1934442846 -0.0011385102 0.0611979751 -0.3020683481
-0.2682123152 1.7252255351 -0.5935432619 -0.0015337143 0.0579557438 -0.3043180057
-0.4866567596 0.2403662336 -0.4630153594 -0.0017098594 0.0600120408 -0.3035113594
0.0937865556 0.7732426259 0.1460087222 -0.0011431315 0.0612072381 -0.3021469240
0.1534026440 1.6740038912 -0.5620733594 -0.0014731587 0.0600841179 -0.3004486315
0.0626929070 0.7619047574 0.5069625748 -0.0011391134 0.0567322200 -0.3020471327
-0.4847799297 0.5556739184 0.2774023639 -0.0017748707 0.0601278458 -0.3006355635
-0.4659863946 0.8887735261 -0.2043983299 -0.0004087891 0.0593876508 -0.3010411893
0.4974945828 0.3721444558 0.3614474274 0.0004819887 0.0583300385 -0.3033124728
-0.3256448073 0.7619047574 -0.2170482211 -0.0011632744 0.0567240249 -0.3021568084
0.2920374785 0.7732426259 0.0527409150 -0.0011332426 0.0611852857 -0.3023321780
-0.3460006531 0.7732426259 0.1286958810 -0.0011517778 0.0612129751 -0.3022408787
-0.0338546009 1.5674304172 -0.5284704615 -0.0012593039 0.0578325578 -0.3041261553
-0.4965589864 1.3500672041 -0.2689863957 -0.0033384580 0.0588102336 -0.3025822211
-0.4373825669 1.6442763084 -0.4929566837 -0.0019505510 0.0576450499 -0.3039926134
-0.1301899683 0.7732426259 0.4849992619 -0.0011462676 0.0612101202 -0.3021924592
0.2391699615 0.7732426259 -0.1052968900 -0.0011381497 0.0612027778 -0.3020887540
0.3562303741 0.7653567029 0.6025796837 -0.0011330340 0.0580782834 -0.3020869649
0.1340649138 0.2032098866 0.4668622710 -0.0018135193 0.0579990363 -0.3040010510
-0.1589516871 0.7732426259 0.4791438991 -0.0011489955 0.0612134354 -0.3022306882
0.0673701837 0.7619047574 -0.2924009898 -0.0011514490 0.0566937574 -0.3022655204
0.3852192721 1.7422774558 -0.5511964728 -0.0014765669 0.0605397755 -0.3007908605
-0.4557209320 0.7529071224 0.3838733503 -0.0030968707 0.0588908776 -0.3023579989
-0.4718661497 1.5216827007 -0.3680783571 -0.0015170204 0.0601371361 -0.3005978719
0.4604681791 0.7561873832 0.3996876134 0.0008362245 0.0590016531 -0.3023761077
0.1665269683 1.5973506553 -0.5111251803 -0.0014508980 0.0598338889 -0.3003079694
-0.4064538322 0.7732426259 0.5176843481 -0.0011319388 0.0611877098 -0.3019633617
-0.1314467868 1.6040656281 -0.5388452596 -0.0013730680 0.0577187279 -0.3042384683
-0.3657261859 1.6814595918 -0.5107002506 -0.0007623424 0.0603854059 -0.3006664252
0.3004861769 0.7732426961 -0.3112256769 -0.0011345170 0.0611843991 -0.3025038651
0.1874993084 0.7678200476 0.4290655930 -0.0011314694 0.0590819660 -0.3019345454
-0.0907956848 0.7619047574 0.0571855816 -0.0011515238 0.0567210431 -0.3021353934
0.4683323039 0.3209412540 -0.4396098810 -0.0017437143 0.0599092041 -0.3037702438
0.1445486190 0.7619047574 0.4903642664 -0.0011341293 0.0567045193 -0.3023784955
-0.4501225488 1.6832089887 -0.5143089036 -0.0020009955 0.0577676893 -0.3040640442
-0.0143759252 0.7732426259 -0.1487378651 -0.0011358730 0.0611580930 -0.3027393844
-0.1161677732 0.7619047574 -0.1816268968 -0.0011327800 0.0567747234 -0.3018362415
-0.1199627143 0.7619047574 0.4740691236 -0.0011611905 0.0566921746 -0.3023165091
-0.3484848617 0.7732426259 0.4624766655 -0.0011593039 0.0612216531 -0.3023375408
-0.2822130000 0.7619047574 0.1518673707 -0.0011470363 0.0567711315 -0.3018999989
-0.0756099116 0.7732426961 0.5097849331 -0.0011348549 0.0611954875 -0.3020282279
0.3092128209 0.2057036281 0.4644104138 -0.0021467642 0.0580971293 -0.3040295431
0.3389626848 0.7732426259 0.0265976270 -0.0011341950 0.0611886077 -0.3025778424
-0.4954611859 0.9792254830 -0.0263727585 -0.0032796327 0.0586729705 -0.3027875794
-0.2278439093 0.7732426259 0.5715334116 -0.0011480930 0.0612094286 -0.3021954909
0.0907482222 0.7732426259 0.4565312732 -0.0011349615 0.0611665215 -0.3027324297
0.3658115782 1.5827103832 -0.4738838719 -0.0007909116 0.0580259546 -0.3031192710
0.4709719365 1.3752925760 -0.3175359354 -0.0010203379 0.0578683991 -0.3041421463
-0.1813148277 0.7643148844 0.0977063526 -0.0011365283 0.0576746009 -0.3028799762
0.1911728345 0.7732426259 -0.2786460964 -0.0011374059 0.0612010272 -0.3020765476
-0.2801630975 1.6048532721 -0.5129379308 -0.0015616077 0.0575522585 -0.3040775794
-0.4463938322 0.7324262993 0.4554343707 -0.0018969433 0.0578946395 -0.3023639898
-0.2903540998 1.6652546871 -0.5145043254 -0.0008735283 0.0604197937 -0.3006942800
-0.3880904150 0.7828220317 -0.2658954274 -0.0006567959 0.0584557438 -0.3040388583
0.3671785737 0.7732425556 0.2465533481 -0.0011322472 0.0611919320 -0.3021089354
0.0152006440 0.7619046871 0.0611568810 -0.0011480499 0.0567149116 -0.3021525680
-0.3900920839 0.7732426259 -0.2866281054 -0.0011435420 0.0612001315 -0.3021082800
0.4977324263 0.1958720363 0.4711873934 0.0005132449 0.0581352812 -0.3036136134
0.4587421723 1.5488173243 -0.4104089966 -0.0032728549 0.0589280567 -0.3024816633
0.1286817891 1.6070677007 -0.5464643957 -0.0009109796 0.0576328050 -0.3041830147
0.3916470975 0.7619047574 0.3355602868 -0.0011327347 0.0567015125 -0.3022510918
0.4019234240 0.2106550862 0.4652694751 -0.0022477528 0.0584963129 -0.3038222256
-0.0961705601 0.7619047574 0.1203698741 -0.0011350272 0.0567152517 -0.3025723821
-0.4734695669 0.0451711043 -0.5336505952 -0.0015122653 0.0596759456 -0.3043771395
-0.4842319615 0.5355482676 0.2482229580 -0.0019961088 0.0582777211 -0.3037846927
-0.4759726327 0.9014916054 0.0040786633 -0.0008286644 0.0581491406 -0.3043608061
0.4935222812 1.7370951429 -0.5149361576 -0.0012545510 0.0602013605 -0.3005156066
-0.3417781565 0.7732426259 0.1108428900 -0.0011727370 0.0612212132 -0.3023488243
0.4967022676 0.9182593900 0.0273351349 0.0010068186 0.0592647166 -0.3019133118
-0.3204419048 0.7619047574 -0.1793879195 -0.0011310181 0.0568090748 -0.3016758923
0.4954648526 0.8637984535 -0.2466566474 0.0007327347 0.0593877687 -0.3034811553
0.2159817415 1.6267636485 -0.5462388356 -0.0007912018 0.0575907937 -0.3041250351
0.4732606848 0.9226413946 -0.2260692868 -0.0011698231 0.0601419592 -0.3040924048
0.3771739093 0.7732426259 0.4723156429 -0.0011337007 0.0611920272 -0.3024587336
-0.1733556916 0.7732426259 -0.0325771327 -0.0011445510 0.0612075828 -0.3021659898
0.3565961701 0.7732426259 0.4852912891 -0.0011332222 0.0611905986 -0.3023356224
0.4562821497 0.2082593537 -0.4402399376 -0.0016192562 0.0579931179 -0.3006975658
-0.1063153628 1.6601429592 -0.5781541667 -0.0013919615 0.0578127075 -0.3042885567
0.4637188209 0.5668543220 -0.3229743141 -0.0019469138 0.0585811519 -0.3012328288
-0.4586591655 1.3903086100 -0.3013453571 0.0009913878 0.0592318413 -0.3021349082
-0.4573084694 0.7770043152 0.0536641236 -0.0029615306 0.0599792857 -0.3023586519
0.0878310091 0.7623251519 -0.0928524637 -0.0011320771 0.0569191678 -0.3019347698
-0.4227099433 0.1942548458 0.4985039467 -0.0008128209 0.0575405397 -0.3017817948
-0.2975375986 1.6289153810 -0.5243673866 -0.0015684853 0.0576377982 -0.3041376837
0.4377983946 0.7324262993 0.0413743617 -0.0017577619 0.0573917143 -0.3023645975
0.4975001179 0.3788227211 0.3789615408 0.0007147710 0.0590741791 -0.3021984093
-0.4313467982 0.7373320181 0.2597501939 0.0010119342 0.0585104898 -0.3023922279
0.1816220794 0.2161378186 -0.4611889762 -0.0011957506 0.0575544195 -0.3037156315
0.2344136667 0.7731536327 0.0795981825 -0.0011318277 0.0611609093 -0.3020019739
-0.4942094104 0.6456545828 0.1747639626 -0.0025813696 0.0581893923 -0.3035229512
-0.1130495397 0.7732426259 0.5008099263 -0.0011390249 0.0612006281 -0.3020870624
-0.3599297823 0.7925787302 -0.2677169286 -0.0007251088 0.0593333288 -0.3043115748
0.3833279070 0.7619047574 -0.2273457494 -0.0011346100 0.0567583401 -0.3027366383
-0.1979655578 0.7619047574 -0.2787507766 -0.0011430612 0.0567652154 -0.3019173571
0.3029321519 0.7619047574 0.3078141327 -0.0011345125 0.0567309070 -0.3025485385
0.4325855964 0.7515170159 -0.2288369853 -0.0033925624 0.0588896054 -0.3024148968
0.2447020862 0.7619047574 -0.2259437063 -0.0011344218 0.0567437188 -0.3026692415
-0.4744496939 0.1167039932 0.5729979082 -0.0009199864 0.0592038050 -0.3004090601
-0.3540215873 0.7625134490 -0.1780203209 -0.0011298231 0.0570586553 -0.3016274252
-0.2968169410 0.7619047574 0.5904737540 -0.0011441474 0.0567821542 -0.3018429989
-0.0572458027 0.2339608639 -0.4371789082 -0.0009302608 0.0596734308 -0.3007064546
0.2970224331 0.7732426259 0.3875746270 -0.0011343039 0.0611861655 -0.3024645000
-0.0490229955 0.7846389683 -0.2363534184 -0.0010939909 0.0574181020 -0.3009313821
0.4724486122 0.8181696213 0.0549771757 -0.0015512245 0.0580621270 -0.3040833753
0.0985880567 0.8163265261 -0.2449076633 -0.0011678118 0.0606385986 -0.3023975113
0.1261719433 0.7732426259 -0.1824285544 -0.0011326417 0.0611949138 -0.3020091939
0.2670011293 0.7619047574 -0.1316544569 -0.0011347370 0.0567335918 -0.3025859195
-0.2777284036 0.2074047914 0.5106572098 -0.0007075510 0.0585915669 -0.3004257222
-0.4605553719 0.9430552336 -0.0255442846 -0.0001643900 0.0582532676 -0.3041835045
0.1427069773 0.7732426259 0.1384937517 -0.0011345918 0.0611722630 -0.3024157630
0.1720799728 0.7732426259 -0.3003119331 -0.0011342313 0.0611723537 -0.3024503186
0.1691248367 1.6187157279 -0.5496418220 -0.0008552766 0.0575991474 -0.3041452143
-0.0869698730 1.6640417347 -0.5846924728 -0.0013726803 0.0578540680 -0.3043142415
0.3284290340 1.5887019320 -0.4699704955 -0.0016339773 0.0595062086 -0.3005060601
0.4890849138 1.7528344626 -0.5266082143 -0.0015106984 0.0606827846 -0.3016576406
0.4765251655 1.2746512789 -0.2499325408 -0.0009944921 0.0579223197 -0.3041037313
-0.2590442404 0.7732426259 0.1366205544 -0.0011479388 0.0612087664 -0.3021897608
-0.4523034127 0.7845804943 0.3623533367 -0.0025611451 0.0601636213 -0.3023581145
-0.4591431224 1.7155617732 -0.5177239649 0.0011227415 0.0589838730 -0.3023496519
0.2496820567 0.2370975986 -0.4680342029 -0.0015891156 0.0591844626 -0.3041425680
-0.4571744603 0.3819028844 0.3505960420 -0.0003360839 0.0584842721 -0.3043762868
-0.4566933424 0.7349492245 0.1787255748 -0.0029803129 0.0578748866 -0.3023701553
0.4707391791 0.0382600068 -0.5407198265 -0.0023477347 0.0593719048 -0.3039384660
-0.3314038050 1.7186414875 -0.5453716633 -0.0007100227 0.0604754082 -0.3007487925
-0.1447520272 0.7732426259 0.0356235635 -0.0011563560 0.0612147483 -0.3022861735
-0.4977324263 0.1391384580 -0.4728121939 -0.0032699252 0.0587821451 -0.3018852982
-0.4560410544 0.7664686916 0.3172806043 -0.0030676327 0.0594340159 -0.3023573186
0.2663817460 0.7732426259 -0.2877041916 -0.0011333129 0.0611815238 -0.3022792506
-0.3965043741 0.7619047574 0.1622651122 -0.0011378481 0.0568158594 -0.3016753345
0.2047466871 0.7732426259 0.1993895385 -0.0011343447 0.0611751270 -0.3026547789
-0.4659863946 0.2014036939 -0.4611316088 -0.0006975964 0.0579920998 -0.3036123889
-0.4323974739 0.7502230998 0.0361676905 0.0011079138 0.0587456757 -0.3024331372
0.1280381587 0.7732426259 -0.1382363254 -0.0011350726 0.0611708753 -0.3025760079
0.4812895760 0.0153341088 0.6156988515 -0.0008942222 0.0571651542 -0.3010549785
0.3019506757 0.7654772517 0.1832183707 -0.0011354989 0.0581724785 -0.3030056270
-0.4590010862 1.6190431859 -0.4561149966 0.0010841995 0.0590559274 -0.3022876995
0.0344697959 0.7619047574 0.4929482937 -0.0011511361 0.0567043356 -0.3022091621
-0.2997178050 0.7732426259 0.4059420556 -0.0011433810 0.0612043878 -0.3021394728
0.3971641361 0.7732426259 0.3977785000 -0.0011335465 0.0611952857 -0.3023231939
0.1472564150 1.6913654172 -0.5737137562 -0.0014755011 0.0601440930 -0.3004818583
0.0761927574 0.7619047574 -0.2478161281 -0.0011351338 0.0567602358 -0.3028798356
-0.0666400454 0.7732426259 0.1918266451 -0.0011349683 0.0611490952 -0.3028459331
0.2042205533 0.7732426259 -0.0346000125 -0.0011338390 0.0611782540 -0.3023774683
0.3457993152 0.7732426259 0.3134457676 -0.0011338390 0.0611902426 -0.3023247132
0.4637188209 0.2875573243 -0.4169043027 -0.0016513991 0.0594884218 -0.3006102574
0.1649229252 0.7732426259 -0.0514256995 -0.0011347914 0.0611744853 -0.3025557222
0.1692933923 0.2251910726 -0.4715016859 -0.0011603651 0.0582627483 -0.3044381213
-0.4805091633 0.9963767778 -0.0170123390 -0.0017414195 0.0601233628 -0.3006188424
0.2042098277 0.2502512109 -0.4577065113 -0.0015518254 0.0604368980 -0.3029221349
-0.4955237415 0.9943900204 -0.0479703980 -0.0032829841 0.0586770907 -0.3027794841
-0.4682257687 1.0468069705 -0.1398783912 0.0002376599 0.0586401361 -0.3008207812
0.4372133696 0.7324262993 0.3998996451 -0.0027255964 0.0580552585 -0.3023601032
0.4599612154 0.7567023764 0.2939923005 0.0007945510 0.0590823243 -0.3023765907
-0.3312098367 0.8163265261 -0.2400033005 -0.0008293855 0.0601581361 -0.3017791395
0.4937092268 0.3646470272 -0.4019181304 0.0005961338 0.0588707619 -0.3021385091
0.4589158662 1.4651551497 -0.3558739376 -0.0032197438 0.0588844127 -0.3025818084
-0.3785157846 0.7619047574 -0.0522658492 -0.0011717256 0.0567092109 -0.3022492120
-0.4572706168 0.4668211610 0.3364567834 0.0006145102 0.0599496871 -0.3015092075
-0.4637225578 0.8526439660 0.0788312982 -0.0005480295 0.0601613583 -0.3008813141
-0.4367603469 0.7823129206 -0.3429589172 0.0006614717 0.0592166485 -0.3024438311
-0.2538709569 0.7619047574 -0.2041933662 -0.0011522109 0.0567430317 -0.3020377336
-0.4954818753 0.7792311995 -0.2579468265 -0.0026144943 0.0592505011 -0.3031749104
-0.0452764785 0.2464786916 -0.4637629717 -0.0012429546 0.0601421293 -0.3036511009
0.4597334739 0.9317632449 -0.0137201259 -0.0028830522 0.0586062313 -0.3032182755
0.4637188209 0.1880851497 -0.4829580079 -0.0016172721 0.0581548163 -0.3040148696
0.3756145737 0.7619047574 0.1380476497 -0.0011348662 0.0567307052 -0.3025158741
-0.3544921179 0.7619048277 0.3989169921 -0.0011581723 0.0567421043 -0.3020600057
0.4033041202 0.7619047574 0.2694582778 -0.0011373424 0.0567898776 -0.3030312029
0.4600673673 1.1497318980 -0.1378982098 -0.0026161837 0.0593750091 -0.3020451848
0.0431696757 0.7732426259 0.4195282619 -0.0011364898 0.0611994966 -0.3020628424
0.0996208095 0.7732426259 0.1019396451 -0.0011361088 0.0611682653 -0.3027872460
0.1744378549 0.2419566939 -0.4663555816 -0.0016968005 0.0596537256 -0.3040452778
0.4592468549 0.7572862222 0.1440633481 0.0008587642 0.0589485034 -0.3023980760
0.4860049569 1.5932633741 -0.4623610488 -0.0004531202 0.0578484898 -0.3040830510
-0.2332627528 1.6798477642 -0.5660544320 -0.0014550612 0.0578535873 -0.3043117789
-0.0012865737 0.7732426259 -0.1076919308 -0.0011396667 0.0612010930 -0.3020890465
-0.3334820113 0.7619047574 0.4212243050 -0.0011390522 0.0567899093 -0.3017867472
-0.3560061293 0.7619047574 -0.1388262279 -0.0011711701 0.0567067619 -0.3022624116
-0.4962757143 0.5869754399 -0.3053218424 -0.0029200590 0.0585811837 -0.3012736202
-0.4796417302 0.1440927370 -0.4977782370 -0.0015879887 0.0595035465 -0.3043858152
-0.4963897211 1.2904062381 -0.2348295794 -0.0033293900 0.0587875283 -0.3026153866
0.2782971293 0.2494022041 -0.4642169444 -0.0019283175 0.0601721882 -0.3037978855
0.1395289705 0.7732426259 0.5490501916 -0.0011355646 0.0611716871 -0.3026576066
0.1549381429 0.2122581066 -0.4375395998 -0.0013104921 0.0581211950 -0.3005827721
-0.0938410771 0.7732426259 -0.0162657653 -0.0011369546 0.0611984172 -0.3020599558
0.3620530726 1.6381437302 -0.5175542166 -0.0005248231 0.0577621247 -0.3041718447
-0.2552733651 0.7619047574 -0.2870895816 -0.0011504127 0.0567528685 -0.3019942415
-0.2556087642 1.6779383741 -0.5635876111 -0.0014822426 0.0578272404 -0.3042892166
-0.2546432041 0.7619047574 -0.0337739286 -0.0011557959 0.0567335692 -0.3020915952
0.4758719456 0.7830796667 0.1229523481 -0.0015165578 0.0604637143 -0.3009533231
-0.4340564263 0.7437069388 -0.3115750147 0.0007390952 0.0583952268 -0.3024100374
0.0885948390 0.7619047574 0.0111187109 -0.0011359456 0.0567633878 -0.3029028016
-0.0630027098 0.7732426259 0.5928313594 -0.0011378685 0.0611970907 -0.3020524456
0.4637188209 0.5490386984 -0.3587014206 -0.0019427596 0.0588840000 -0.3039510397
-0.2529352063 0.7732426961 -0.2722034070 -0.0011366485 0.0611917778 -0.3020101576
0.4639917846 1.6850356145 -0.5250038946 -0.0008670249 0.0577386417 -0.3042072075
-0.4788227029 0.0699040544 0.5606216134 -0.0015667166 0.0578900499 -0.3039420397
0.4233685964 1.6583982676 -0.5113081803 -0.0003445760 0.0577320884 -0.3040739875
-0.2808366122 0.8163265964 -0.2545310646 -0.0008264376 0.0607886440 -0.3031373934
0.4388260952 0.7845804943 -0.1686512075 -0.0022151474 0.0601583878 -0.3023650737
-0.4666026984 0.0101710045 0.6109582460 -0.0011825646 0.0570437959 -0.3011607880
0.4862267460 1.3206470113 -0.2363906383 -0.0013693107 0.0603443469 -0.3006857404
-0.4547537800 0.7557431134 0.5850330442 -0.0031754036 0.0588792812 -0.3023559671
-0.1151752948 0.7697207166 -0.0046978379 -0.0011311066 0.0598369796 -0.3018665884
-0.3823638027 0.7732426961 0.1649147426 -0.0011346780 0.0611877415 -0.3019764705
0.3156723401 0.7619047574 0.1068743231 -0.0011365215 0.0567670340 -0.3028628628
0.4957943878 1.5084289365 -0.4025863844 0.0000100454 0.0579635238 -0.3038567948
-0.2721147959 1.7178530136 -0.5591767834 -0.0007762177 0.0605401542 -0.3007969694
0.4785155215 0.9975890385 -0.0646045023 -0.0012295828 0.0580231587 -0.3040678991
-0.4519403855 0.7324262993 0.5833295975 -0.0027448503 0.0580080794 -0.3023600261
-0.3691575102 0.7619047574 0.2304819331 -0.0011529501 0.0567582540 -0.3019710737
-0.2120258390 0.7619047574 0.2162398787 -0.0011650567 0.0567032585 -0.3022555454
-0.4889664762 0.6146226689 -0.3303566655 -0.0018299615 0.0598934535 -0.3038133005
0.2375829274 0.2250556122 0.4966295726 -0.0012945918 0.0603412472 -0.3010680986
0.2441354172 0.7732426259 0.5488994025 -0.0011353311 0.0611810476 -0.3026134977
0.1323882630 0.7685020907 0.2706229626 -0.0011369932 0.0593292041 -0.3029658152
0.1835226122 0.7619047574 -0.1816974116 -0.0011326100 0.0567316440 -0.3020301576
-0.4852960295 0.5181898571 0.2598038583 -0.0021020113 0.0582811406 -0.3037338923
-0.4016070726 0.7619047574 -0.2151323163 -0.0011616916 0.0567392676 -0.3020832483
-0.1647117778 0.7732426259 0.5888654569 -0.0011398458 0.0611983673 -0.3020738401
0.4356359705 0.7346188594 0.4203487766 -0.0032680567 0.0584234104 -0.3023640873
0.3530280703 0.7732426961 0.1590484478 -0.0011333175 0.0611911610 -0.3021257562
0.1588522109 0.2208825057 0.4823791100 -0.0014912630 0.0598196417 -0.3024777653
-0.4824950544 1.0522370249 -0.1755183209 -0.0013615238 0.0600134308 -0.3038422029
0.0371763311 0.7619047574 0.3663307948 -0.0011360385 0.0567456417 -0.3027885726
0.2110812812 0.7732426259 -0.1035984751 -0.0011373878 0.0612012290 -0.3020744819
0.4954347166 0.7775220068 -0.2493078696 0.0005454649 0.0586614127 -0.3015491621
-0.4718968390 0.2656896984 0.4713021961 -0.0005852834 0.0601217846 -0.3010419785
0.4604462426 0.8970460748 0.0339982438 -0.0024517937 0.0596644059 -0.3019007494
0.0339526168 0.7968994921 -0.2682862211 -0.0011546168 0.0592917166 -0.3043236746
-0.1496018050 0.7732426259 -0.1134089762 -0.0011426122 0.0612029501 -0.3021198900
-0.1693513832 0.7732426259 -0.1415278628 -0.0011359070 0.0611442517 -0.3027373141
-0.4290202653 0.7732426259 -0.1809665726 -0.0021470340 0.0596994490 -0.3006450918
-0.4584990703 1.2815148957 -0.2318961213 0.0009479433 0.0593130612 -0.3020650737
0.2397155238 1.6001431859 -0.4977828560 -0.0015890748 0.0597889297 -0.3003163685
-0.4319727891 0.7640526145 0.2246855998 -0.0021233107 0.0575661111 -0.3023675408
-0.4661998095 0.0631914921 0.6091550102 -0.0010789161 0.0598877098 -0.3004645567
0.0381735193 0.8163265261 -0.2548830986 -0.0011501701 0.0606115034 -0.3032420533
-0.1081707846 0.7732426259 0.2961129603 -0.0011356735 0.0611495533 -0.3026897063
-0.4372247891 0.7845804943 -0.1691165658 0.0002827596 0.0601048844 -0.3023772823
-0.3025503696 0.7645258095 0.1848433798 -0.0011350884 0.0577460748 -0.3028532914
0.0129952381 0.7619047574 -0.3204695612 -0.0011355850 0.0567366395 -0.3027025884
-0.3778416304 0.7619047574 0.5104623390 -0.0011364558 0.0568032789 -0.3017184093
0.3817930680 0.7732426259 0.5507647109 -0.0011349478 0.0611933764 -0.3025355544
-0.2699555215 0.8009792290 -0.2294398719 -0.0009312200 0.0583318435 -0.3005242914
-0.3635148730 0.7619047574 -0.1217253458 -0.0011568639 0.0567513719 -0.3020208061
0.3806001497 0.8163265261 -0.2629216156 -0.0015309796 0.0603750998 -0.3040137766
-0.0288175556 0.8024828254 -0.2660307381 -0.0010850590 0.0597536893 -0.3042195726
-0.4785215079 0.3273183039 0.3871465499 -0.0018781202 0.0583923515 -0.3038203005
-0.2538594014 0.7619047574 -0.1150958175 -0.0011511655 0.0567506122 -0.3020067789
0.1804018594 1.6956381542 -0.5948891485 -0.0008711293 0.0578476893 -0.3043134501
-0.4659863946 0.3456068277 -0.4114069694 -0.0002720907 0.0598566735 -0.3018908401
-0.3429850884 0.8053182608 -0.2635530737 -0.0007663810 0.0601104444 -0.3039261939
0.1156804694 0.7619047574 0.5328533844 -0.0011366893 0.0567628254 -0.3029083413
-0.4562730862 0.7652989909 0.2690257721 -0.0030489025 0.0594185986 -0.3023578515
-0.3553843946 0.7732426259 -0.0636805136 -0.0011732540 0.0612216893 -0.3023522211
-0.4663625011 0.6197285510 -0.3285378288 -0.0004673787 0.0594428254 -0.3040025975
0.4156087596 0.7732426259 0.1152171780 -0.0011348753 0.0611965873 -0.3025213957
0.3514619501 0.8091715737 -0.2657287540 -0.0015022608 0.0598805147 -0.3041686905
-0.3307383696 1.6176785442 -0.4747876701 -0.0007312608 0.0598798526 -0.3003730079
-0.1583600544 0.7732426259 0.5558374116 -0.0011522608 0.0612150363 -0.3023091621
0.4381151610 0.7324262993 -0.1001404229 -0.0013610680 0.0571282857 -0.3023664410
-0.0838088639 0.7619047574 0.3257592302 -0.0011463469 0.0567376145 -0.3020497449
-0.0363432200 1.5956246463 -0.5206848787 -0.0009391587 0.0596995397 -0.3002426338
0.4700318776 1.3438445238 -0.2965687676 -0.0010738730 0.0578756689 -0.3041442098
-0.0091337687 0.2234804104 0.4982411213 -0.0006020023 0.0600954150 -0.3010454501
-0.2449259864 0.7619047574 0.5702125045 -0.0011620771 0.0567221882 -0.3021601984
-0.1371507188 1.5704151905 -0.5221657789 -0.0014066213 0.0574911791 -0.3040752052
-0.4961802154 1.2241976259 -0.1768025771 -0.0026502993 0.0596263719 -0.3013566995
0.4908869728 0.8217427392 0.0527491145 -0.0002422177 0.0579963605 -0.3039117766
0.4879181179 0.8369833288 0.0862318810 -0.0006323855 0.0600893968 -0.3010309286
-0.3510750136 0.7732426259 0.0155125499 -0.0011361451 0.0611279206 -0.3029645000
0.3449055510 0.7619047574 0.2793280147 -0.0011365601 0.0567720249 -0.3028965635
-0.4600141882 0.5376320454 0.2461573798 -0.0003716100 0.0583950499 -0.3043648560
-0.3609074535 0.7622441179 -0.2503799989 -0.0011348481 0.0568558844 -0.3027639603
0.3172787007 0.7619047574 0.5502792664 -0.0011360612 0.0567563492 -0.3027683413
-0.1204535374 0.7702473356 0.3430862256 -0.0011322857 0.0600405941 -0.3018683776
-0.0785490794 0.2427018821 -0.4474052710 -0.0007240816 0.0603234603 -0.3016162098
0.4594508571 1.1306092789 -0.1408490374 -0.0030084218 0.0587099297 -0.3029811576
-0.1651104422 0.8144914580 -0.2245227698 -0.0010399683 0.0594660567 -0.3003463844
0.3904007211 0.7619047574 0.1184306927 -0.0011360023 0.0567578912 -0.3027510510
-0.3463082857 1.7214979615 -0.5713768946 -0.0016169773 0.0579172789 -0.3043124637
-0.4317908254 0.7548812154 0.1684642279 0.0010969274 0.0587541882 -0.3024207200
0.4237295488 0.7621466825 0.2690610306 -0.0011367075 0.0568806372 -0.3030164501
0.0770600159 0.7619047574 0.3668635023 -0.0011360748 0.0567482177 -0.3027951327
0.3277833560 0.7635115329 -0.0934957381 -0.0011322902 0.0573500499 -0.3020953798
0.4202458730 0.7732426259 -0.2785410011 -0.0011324399 0.0611963061 -0.3021165159
-0.4962667528 1.2510667959 -0.2047785204 -0.0033228005 0.0587735193 -0.3026370578
0.4608441837 0.6354748957 0.2205881485 -0.0021922585 0.0604387211 -0.3012008741
-0.4802573061 1.0289308662 -0.1463255068 -0.0010385896 0.0585716780 -0.3009731100
0.1550706100 0.7619047574 0.5356054342 -0.0011366032 0.0567624263 -0.3028886542
0.1257256327 0.7619047574 0.5785984025 -0.0011512562 0.0566943923 -0.3022764229
-0.1943106803 0.7732426259 0.3822697585 -0.0011648027 0.0612168526 -0.3022907177
-0.4565813741 0.1702511451 0.5169342120 -0.0006736508 0.0577185125 -0.3017945930
-0.0558025125 1.6987831950 -0.5854742687 -0.0007907732 0.0600906667 -0.3004459354
0.2225452517 0.7732426259 -0.2836580238 -0.0011388163 0.0612027007 -0.3021128810
-0.1234095125 0.7619048277 0.3964562800 -0.0011601043 0.0567033492 -0.3022412234
0.3702631315 0.7670618821 0.5301263866 -0.0011367234 0.0587909660 -0.3029165249
0.4744903492 0.8708555556 0.0643033050 -0.0016895306 0.0604868413 -0.3009151190
-0.4794560658 0.9538605306 0.0112983889 -0.0016886032 0.0601364082 -0.3005997857
-0.4921669478 0.5789956122 -0.3430478447 -0.0021934694 0.0597092358 -0.3037912211
0.0127789773 0.8155867687 -0.2618656723 -0.0011524308 0.0605390635 -0.3038389490
0.0738772358 1.5799996463 -0.5355343639 -0.0009941020 0.0576260136 -0.3041941372
0.1692559388 1.6653475556 -0.5534342029 -0.0014984422 0.0600465646 -0.3004338673
0.4889745397 0.4254064535 -0.4025559966 0.0002204853 0.0591698435 -0.3038348447
-0.4548935669 0.0433439592 0.6089771644 0.0009340567 0.0588590476 -0.3021331485
0.3243574286 0.7656622245 -0.1657847268 -0.0011370295 0.0582432993 -0.3029733413
0.4682396100 0.5796499410 -0.3478456950 -0.0014753560 0.0585793719 -0.3039883821
-0.1515287710 0.7732426259 0.3668817018 -0.0011364104 0.0611456916 -0.3028578946
-0.4724790952 1.7211808821 -0.5011752370 -0.0015895510 0.0601108934 -0.3006360351
-0.1548957052 0.7732426259 0.2837653141 -0.0011363379 0.0611453379 -0.3028291961
0.0563619887 1.6056914331 -0.5520432664 -0.0011302358 0.0576581723 -0.3042056610
0.4954648526 0.9654166599 -0.1838925499 0.0006666054 0.0587473515 -0.3016448424
0.0106092018 0.7732426259 0.4805642483 -0.0011341655 0.0611602018 -0.3025211327
0.4841047007 0.2845660839 0.4550747336 -0.0002444694 0.0599873243 -0.3013706769
0.2879848866 0.7935985420 -0.2345819830 -0.0017051837 0.0581999615 -0.3006302029
-0.2015054399 1.7255082902 -0.5796370556 -0.0008336145 0.0606277279 -0.3008749966
-0.4379010181 1.7203470136 -0.5151064093 -0.0009254422 0.0605254467 -0.3007633526
0.4240102608 0.7619047574 0.4249085590 -0.0011330363 0.0566997664 -0.3022267404
0.4962911451 1.1860931429 -0.1705417585 0.0010489977 0.0591608889 -0.3020703118
-0.4322363741 0.7382565397 0.0733549853 0.0008065102 0.0583140975 -0.3023940420
-0.3225893469 1.7031741270 -0.5365432778 -0.0007568299 0.0604636145 -0.3007337358
-0.1421725306 0.7732426259 0.5920419150 -0.0011383220 0.0611964989 -0.3020523549
0.0255781950 0.7732426259 -0.1601973889 -0.0011362993 0.0611616259 -0.3028325703
0.4868020136 0.3572463084 0.3626445340 -0.0004532517 0.0580863673 -0.3038605975
-0.0659532358 1.6326082154 -0.5415177971 -0.0008554649 0.0598593696 -0.3003253866
-0.1393901542 0.7646779819 0.2720841395 -0.0011366712 0.0578192109 -0.3029058061
0.4594630726 0.7823129206 0.6073813934 0.0003282426 0.0603772698 -0.3020764297
0.4971784036 0.5894099955 0.2280091780 0.0005271701 0.0586890000 -0.3027742415
-0.4218517483 0.7619047574 -0.1118413186 -0.0011486689 0.0567858141 -0.3018429603
-0.4721854762 1.1995566531 -0.1530920011 -0.0014529229 0.0601689320 -0.3005517540
0.4588872177 1.3419817755 -0.2810201825 -0.0031434331 0.0588202290 -0.3027272732
