-0.2307213701 1.3756295147 -0.1449321695 -0.0045461003 0.0003072332 0.0013238586
0.3658757111 1.2542643458 -0.2912757098 -0.0037103922 0.0002151235 -0.0003271104
-0.4017686870 1.2847417233 -0.2457841120 -0.0052749436 0.0002185355 -0.0002558328
-0.0060265990 0.9847666325 0.0972605821 -0.0044896439 0.0010306918 0.0003801920
-0.1976309681 0.6587310395 -0.0853125722 -0.0048455211 -0.0009393621 0.0001584013
-0.1412720592 0.6522912773 -0.1359269745 -0.0047353485 -0.0009499757 0.0000510516
0.3613253011 1.2029829001 -0.3117032616 -0.0037141323 0.0001769012 -0.0003421740
-0.1191363836 0.0184548205 -0.3765558979 -0.0045795621 -0.0008847545 -0.0000330032
-0.0869879189 0.9840583737 -0.0365887386 -0.0044928289 0.0010306505 0.0003740066
-0.0147980887 0.6173534473 -0.0617644914 -0.0044852104 -0.0010202752 0.0001979040
0.1093039016 0.0042235281 -0.2476815563 -0.0044665388 -0.0010303688 0.0002930430
-0.2967870584 0.0038811266 0.0846327051 -0.0045230860 -0.0010288398 0.0003731751
-0.0302750210 1.0256745081 -0.0078467078 -0.0044529970 0.0010314130 0.0003212439
0.2267283984 0.0832434159 0.0747382664 -0.0041547948 0.0009781746 0.0004508289
-0.0774112816 1.0752927059 -0.4820324003 -0.0046162997 -0.0000651046 -0.0006748842
-0.1229045642 0.9664770193 0.0254587578 -0.0044543806 -0.0010311096 0.0003174986
0.0345208999 1.2755865579 -0.1239330341 -0.0044484223 0.0000942269 0.0013700181
0.0241384980 0.0931665704 -0.2211933876 -0.0044174800 0.0009713010 -0.0000013913
0.2793826279 1.0031784134 -0.0380366340 -0.0045706096 0.0010257322 0.0003306225
0.3531592871 0.0513356302 0.0252046155 -0.0041669365 0.0009873922 0.0003697393
0.1781382212 0.1030065852 0.0527652114 -0.0040718140 0.0009454556 0.0004710688
-0.0175005743 1.1241721030 -0.1491580314 -0.0044416199 -0.0003912178 0.0012954101
0.4297060727 0.8670090705 0.1210749881 -0.0035938062 -0.0004890249 0.0006030381
-0.1566972739 1.1042982742 -0.4647701949 -0.0047753237 -0.0000276262 -0.0006392165
-0.1088256131 1.3462656291 -0.4386811348 -0.0046842241 0.0003714866 -0.0005921882
-0.0731219659 1.4784862399 -0.3700957957 -0.0046296877 0.0006156931 -0.0004674267
-0.3844159885 0.8200953176 0.1770855144 -0.0052011300 -0.0006205619 0.0007103280
0.0573734351 0.9882802839 0.0011232271 -0.0044799908 0.0010315347 0.0003568403
0.0102446660 0.0007787090 0.0679888413 -0.0044632269 -0.0010314873 0.0003514639
0.1393098931 0.0209119141 -0.3662300298 -0.0042687673 -0.0006289821 -0.0001546540
0.0114062459 0.4398067009 -0.0350553420 -0.0040264262 0.0000194289 -0.0005909439
0.4054375976 1.0181571486 0.1175517805 -0.0046821812 0.0009997795 0.0002671955
-0.4388633480 0.9335366991 0.1993304402 -0.0053517886 -0.0003259141 0.0007541259
0.3729011548 0.8237520442 0.1934106637 -0.0037350903 -0.0006097275 0.0007446864
-0.2470661042 0.0642181622 -0.1984149529 -0.0047040430 0.0009877781 0.0001673487
-0.0417304309 0.9293425595 0.4793896996 -0.0045391422 -0.0003863480 0.0012939408
-0.4289437190 1.0488624258 -0.2471533218 -0.0053432642 -0.0000355686 -0.0001939514
0.1492902273 0.9673641231 0.2505196308 -0.0044539081 -0.0010315275 0.0003597963
0.0025968249 1.5649994114 -0.2172973161 -0.0044622952 0.0007082619 0.0010926026
-0.2383010887 0.0029553424 0.0233746117 -0.0045023984 -0.0010306515 0.0003257423
-0.3113174878 0.0501620820 0.1822724413 -0.0046981693 0.0009943638 0.0004867772
-0.1499789344 0.6486103066 -0.1155244396 -0.0047492028 -0.0009620947 0.0001061173
-0.3822861100 0.9088454222 -0.2589428276 -0.0052071286 -0.0004506478 -0.0002120143
-0.4382122678 1.0064383456 0.1827985979 -0.0050270424 0.0007781239 0.0007064971
0.0678181683 1.4102857919 -0.1474653920 -0.0044309444 0.0001987970 0.0013549164
0.0252920086 1.5110059631 -0.3491322155 -0.0043996802 0.0006789715 -0.0004292405
0.3244234323 0.9711549188 -0.3482966250 -0.0038026969 -0.0002163203 -0.0004178169
0.1283543404 0.0031561637 0.1213000391 -0.0044423071 -0.0010310147 0.0003603401
0.0813814722 1.0267460593 -0.1635273444 -0.0045215260 0.0004354986 0.0012368261
0.3480278551 1.4114413495 -0.1763335371 -0.0040298981 0.0005994915 0.0010424605
-0.2167556838 0.7576816646 -0.2778879286 -0.0048885472 -0.0007328764 -0.0002445558
-0.2673917332 1.4779031079 -0.2724621603 -0.0049975725 0.0005868979 -0.0003161377
-0.4377507062 1.1244799160 -0.2299602613 -0.0053518845 0.0000656731 -0.0001772680
0.3007626491 1.2551754420 -0.1143332464 -0.0045409364 0.0002540020 0.0013400963
-0.3913221936 1.1781692047 -0.2894782980 -0.0052670621 0.0001301463 -0.0002901788
0.3794073227 0.7811020794 -0.0172658450 -0.0037177434 -0.0007092287 0.0002814120
-0.2535295286 0.9697664235 0.2594269022 -0.0045445548 -0.0010240824 0.0004365102
-0.2248072445 0.0692351121 -0.1987337231 -0.0046593630 0.0009977706 0.0001679213
0.1259043060 1.1186120759 -0.4725020413 -0.0042036122 -0.0000095468 -0.0006540273
0.1147579605 0.6881215629 0.2469991151 -0.0042287250 -0.0008881531 0.0008118721
-0.2015195305 1.0498118093 -0.4445341446 -0.0048733701 -0.0000930321 -0.0005980568
-0.0901247063 0.7780168342 0.3787191515 -0.0046370545 -0.0006598531 0.0011159006
0.0538153997 0.0035821320 -0.2021201213 -0.0044424267 -0.0010306732 0.0003110223
0.3061726430 1.0015905444 0.0462214445 -0.0045209575 0.0010065890 0.0005539133
-0.0701634158 1.0412371305 -0.1695770031 -0.0044037990 0.0001410302 0.0013108327
0.1698933802 0.9684142634 0.2947608962 -0.0044353097 -0.0010287088 0.0003980145
-0.0190531822 0.9795495578 0.3428759567 -0.0044507891 0.0009814844 0.0000407908
-0.1199618195 0.0056200628 -0.2728409435 -0.0044865899 -0.0010304524 0.0002998907
-0.0145061709 0.0009289847 0.0830178527 -0.0044629039 -0.0010314419 0.0003535728
0.3169377177 0.9679982000 0.0831148549 -0.0044239047 -0.0010300676 0.0003587099
-0.3876595478 0.8796398518 0.2459324915 -0.0052266277 -0.0004765561 0.0008469197
0.2535378249 0.8008598484 -0.2943543105 -0.0039411766 -0.0006365985 -0.0002769693
0.0502515349 0.6323045376 0.1360439474 -0.0043545266 -0.0009892226 0.0006110146
0.4775159015 1.1180504817 -0.0337917971 -0.0047305312 0.0005781765 0.0011443182
0.0386626420 1.1246202210 -0.1477480778 -0.0045152974 -0.0003845352 0.0012962004
0.2239045240 1.4361326264 -0.3346051868 -0.0039500724 0.0005526448 -0.0003599676
0.0492309647 1.1679811530 -0.4851467079 -0.0043622699 0.0000613759 -0.0006804722
-0.0531314087 1.5776537434 -0.2666816322 -0.0045701794 0.0009038162 -0.0001373938
0.4522725081 1.0374630854 0.0153167842 -0.0052924762 0.0005204943 0.0006369601
0.2348080764 1.3216127664 -0.1323624886 -0.0044912978 0.0002162336 0.0013510803
-0.3218313628 1.0773097365 -0.0978360152 -0.0040402981 -0.0002400682 0.0012522828
0.3082372497 0.9959617509 -0.3674655007 -0.0038306749 -0.0001598927 -0.0004546195
-0.4750865228 1.2253556312 -0.1146346594 -0.0051986806 0.0004941217 0.0008504513
-0.2059145699 0.0766578619 0.1650536086 -0.0046996839 0.0009829103 0.0005493633
-0.1562196220 0.9073067987 -0.4259943077 -0.0047489697 -0.0004432398 -0.0005434421
-0.1428442003 0.9143800084 0.4511737831 -0.0047478801 -0.0004355625 0.0012334678
-0.0606792741 0.1510511934 -0.0969446615 -0.0047960114 0.0007935063 -0.0002249256
-0.4844303245 0.9999157100 -0.1027705620 -0.0054639442 -0.0001371766 0.0001297981
0.3331663126 0.0132389870 0.1525455315 -0.0041897599 -0.0009818579 0.0004433837
0.0132400971 0.0002151792 0.0060086646 -0.0044611076 -0.0010316699 0.0003417314
0.4932613350 0.9624787898 0.0301082243 -0.0034640551 -0.0002518404 0.0003424082
-0.0241868697 0.0004444944 0.0331649023 -0.0044654585 -0.0010315904 0.0003471811
-0.0013521332 0.3262369178 -0.0409215922 -0.0044311641 0.0000356986 -0.0006859168
-0.2708582965 1.1924301084 -0.0989796085 -0.0042621744 0.0000524316 0.0013459546
-0.4047015681 1.2308745998 -0.2592149193 -0.0052835815 0.0001739194 -0.0002586258
-0.2483628158 0.6736324438 0.0194189317 -0.0049472993 -0.0009102347 0.0003600047
-0.0056532212 0.9669126056 0.0042391617 -0.0044647332 -0.0010315203 0.0003244454
0.1101827390 0.9675723751 -0.0340766959 -0.0044573438 -0.0010297942 0.0002992139
-0.2766502534 0.0091879535 0.2193913629 -0.0045917337 -0.0010081057 0.0004788998
-0.0449234034 0.7022350467 0.2967059807 -0.0045557637 -0.0008813487 0.0008705922
-0.3733454944 0.9693206992 -0.0039424080 -0.0045023623 -0.0010211615 0.0002177859
-0.0279562214 0.7103988889 -0.2912088326 -0.0045220079 -0.0008233591 -0.0002740226
-0.1523109570 0.6340198002 0.0215020884 -0.0047578572 -0.0009868743 0.0003839156
0.0273385762 1.0255917616 0.0040967211 -0.0044637479 0.0010315626 0.0003259971
-0.2911525975 0.7630821807 0.2284959920 -0.0050235902 -0.0007345149 0.0008023789
-0.3070076361 1.3057758960 -0.3432421782 -0.0051345459 0.0002916764 -0.0003843077
-0.4022107268 0.8073092452 0.0917152120 -0.0052420813 -0.0006621085 0.0004801265
-0.2630767651 0.0362931503 0.2810683561 -0.0050218486 0.0005927490 0.0009493489
0.1267807508 1.4811133540 -0.3498002040 -0.0041777699 0.0006247911 -0.0004247627
-0.3318353437 1.4083753124 -0.2700628510 -0.0051283812 0.0004250057 -0.0003190349
-0.2749415713 0.9428622698 -0.3816362902 -0.0050148420 -0.0002774754 -0.0004819197
0.0324564077 1.0521386050 -0.4841488351 -0.0043960856 -0.0000998943 -0.0006810665
0.0215367713 0.7480337332 0.3598875289 -0.0044198675 -0.0007502171 0.0010474015
0.1940124668 0.6595633563 0.0982867218 -0.0040713559 -0.0009335698 0.0005355729
-0.0913203072 1.0162761401 0.4211648634 -0.0044546190 0.0010113877 0.0003391912
0.4578244742 0.8804715381 0.0012985363 -0.0035839860 -0.0005358190 0.0002959298
0.3162293320 1.2067096528 -0.1002361437 -0.0045969863 0.0002170322 0.0013409537
0.4497351297 0.9778528079 -0.1801610621 -0.0035394257 -0.0002144972 -0.0000562960
0.2308490164 1.2509785321 -0.4164925065 -0.0039068482 0.0001893916 -0.0005032254
0.1649266396 1.4638948525 -0.3472921717 -0.0040974170 0.0005973888 -0.0004121155
0.1135659574 1.4892984812 -0.1728619832 -0.0043949321 0.0004093839 0.0012868548
0.1527852071 1.2583767458 -0.1213800391 -0.0044882665 0.0000905683 0.0013700501
-0.1159118972 1.5652263659 -0.2701255403 -0.0046625191 0.0008447246 -0.0002078584
0.1219700493 0.9881351938 0.0222331263 -0.0044626192 0.0010316080 0.0003530621
-0.0378040538 0.6234586957 0.1069118811 -0.0045262907 -0.0010097751 0.0005430975
-0.2047371443 0.0036050131 0.0937638080 -0.0044964235 -0.0010308620 0.0003547913
0.4531671674 1.2773433836 -0.1448024607 -0.0036232679 0.0004987759 0.0005734341
0.0508469345 0.0393848140 0.3740822487 -0.0043634492 0.0007187332 0.0010593100
0.1146470255 0.9667183328 0.1897041096 -0.0044561346 -0.0010316358 0.0003509202
0.3818350330 1.0973767672 -0.3069777550 -0.0036937604 0.0000440785 -0.0003406429
0.2486884183 0.7467567631 -0.2295681273 -0.0039671985 -0.0007535559 -0.0001548222
-0.0113185470 1.0252683309 -0.0186185890 -0.0044577957 0.0010314305 0.0003203246
-0.0459585637 0.9440192130 -0.4635431627 -0.0045585660 -0.0003183617 -0.0006323203
0.0278054349 0.8836198822 0.4567534269 -0.0043950641 -0.0004862040 0.0012501780
0.2350914875 1.2942412268 -0.1266359294 -0.0045023839 0.0001977942 0.0013547183
0.4061946294 1.2645405597 -0.2376967826 -0.0036391074 0.0001952860 -0.0002444794
0.1388153494 0.0031953466 -0.0713020810 -0.0044404757 -0.0010310570 0.0003313633
-0.0361955228 0.9679096591 0.3207193818 -0.0044700189 -0.0010304792 0.0003809710
-0.0833805554 0.1413436907 -0.0965509139 -0.0048464404 0.0008477652 -0.0001031995
-0.2437985205 0.0133135889 -0.2922532735 -0.0046538751 -0.0009929719 0.0001644804
0.0273388176 0.9660882859 0.0975029655 -0.0044630608 -0.0010316905 0.0003380686
-0.1946861702 0.0032619152 -0.1342409311 -0.0044900411 -0.0010307826 0.0003167155
0.0840295411 0.6209150205 0.0443166675 -0.0042937884 -0.0010138010 0.0004128738
-0.2469103549 1.0750940884 -0.1305551039 -0.0041316712 -0.0002558911 0.0012784749
-0.3155167594 1.2157766559 -0.3626135127 -0.0051449604 0.0001584184 -0.0004145669
0.1381759043 0.6558090847 -0.1448916939 -0.0041867038 -0.0009423263 0.0000301143
0.1104921502 1.0072984330 -0.1024230595 -0.0043801780 0.0004520850 -0.0005784432
0.2808476668 0.8341361939 0.3223374771 -0.0038988015 -0.0005853720 0.0009759176
-0.0611749084 0.2031258813 0.0309623574 -0.0052472958 0.0004952308 0.0007953093
0.0142898320 0.4004824126 0.0280786971 -0.0039587391 0.0000233300 0.0012408056
0.3717453775 1.3926070824 -0.2226262947 -0.0036645948 0.0004599232 -0.0001113132
0.0722698519 1.0357553793 -0.4784060279 -0.0043156832 -0.0001171214 -0.0006701629
-0.1726029591 0.8983693320 0.4325125027 -0.0048017056 -0.0004566082 0.0012034623
0.3243920722 0.8666454005 0.3079348838 -0.0038182361 -0.0005314732 0.0009467778
-0.2362852539 1.4464832740 -0.3201783804 -0.0049736080 0.0005494814 -0.0003649241
0.2294952819 1.0534437873 -0.4283697825 -0.0039772374 -0.0000758452 -0.0005629793
0.2324895152 0.7485690682 0.2619561256 -0.0039866718 -0.0007607936 0.0008500603
-0.2528010866 0.0821989420 -0.0333435388 -0.0047707489 0.0009843609 0.0003058078
0.2396629937 0.9866380694 0.3095948879 -0.0039237390 -0.0004018820 0.0011211739
-0.3802418123 1.3992603235 -0.1816414978 -0.0050878168 0.0006574739 0.0007954476
0.2217890353 0.8968454440 -0.3916994658 -0.0040072779 -0.0004254276 -0.0004758953
-0.0332437885 0.0013125315 0.1164676275 -0.0044743388 -0.0010313201 0.0003570715
-0.2571866947 0.0035992848 -0.0323265828 -0.0045037655 -0.0010307135 0.0003453487
-0.0174739624 0.6460123488 0.1883615851 -0.0044900689 -0.0009597444 0.0007184190
0.1508856219 1.1944010423 -0.1200696382 -0.0045276062 -0.0001030556 0.0013626504
-0.2649915583 0.0493955962 -0.2601182856 -0.0046898874 0.0009779723 0.0001164833
-0.3788533799 0.9511696906 -0.2936881801 -0.0052288955 -0.0003007950 -0.0002795652
-0.3719491589 1.0386265781 -0.3211403265 -0.0052166950 -0.0000660961 -0.0003581981
0.2869406993 1.0213182131 0.2396479110 -0.0042913328 0.0009890059 0.0004759995
0.1406775449 1.5681311927 -0.2292374393 -0.0042930651 0.0008329286 0.0008770902
-0.2943763193 0.0043614383 -0.0641796815 -0.0045131998 -0.0010300201 0.0003249190
-0.3306503141 0.0569735908 -0.0874866108 -0.0047144183 0.0009988034 0.0002788357
-0.3237705580 1.2555036579 -0.1112140834 -0.0044452899 0.0002970291 0.0013309983
0.2724412844 1.0250751291 0.0934299391 -0.0044498543 0.0010316255 0.0003487535
-0.2291656814 1.1824226639 -0.1074178710 -0.0042680616 -0.0000539813 0.0013437136
-0.3815606591 1.3755803961 -0.1640516903 -0.0047759149 0.0005217335 0.0011753976
0.1223640095 0.9400826338 -0.4486022743 -0.0042266584 -0.0003190179 -0.0006079555
0.2542755083 1.0235835473 0.2395167381 -0.0044117300 0.0010281784 0.0003875628
-0.2092436305 1.4233141858 -0.1589094424 -0.0045760799 0.0003531173 0.0013050115
-0.2509840581 0.9247123311 0.4058437113 -0.0049637341 -0.0003794600 0.0011613153
0.2735907969 0.9671988807 0.1048377182 -0.0044497295 -0.0010316245 0.0003488432
0.3330953105 1.3083384007 -0.1281175145 -0.0044215348 0.0003141067 0.0013247304
0.3846778937 0.9224512797 -0.2569358886 -0.0036956794 -0.0004215049 -0.0002001429
0.0697765241 0.0168397699 -0.3815014649 -0.0043791298 -0.0009654097 -0.0000006794
0.0428845399 1.0114312360 0.4024235129 -0.0045032723 0.0009748007 0.0000250050
-0.0804751943 0.1570418472 -0.0729265216 -0.0049799491 0.0007582792 -0.0001291285
-0.1037478425 1.0612344498 -0.4761522813 -0.0046673127 -0.0000839702 -0.0006639838
-0.1881185873 1.1215360468 -0.1307854044 -0.0042694080 -0.0003125003 0.0013015325
-0.1889448425 0.9131961756 -0.4170288496 -0.0048138421 -0.0004000011 -0.0005409297
0.2099539199 1.2822763241 -0.1253268512 -0.0044821740 0.0001696242 0.0013602371
-0.2859963539 1.2489904689 -0.1100081237 -0.0044301025 0.0002765901 0.0013357846
-0.0025946510 1.0260694753 0.2075647491 -0.0044653884 0.0010316647 0.0003526277
-0.1847387386 1.4413463004 -0.1625633668 -0.0045693911 0.0003660678 0.0013009382
-0.3433003964 0.9997861745 0.1495511569 -0.0038579462 0.0007804371 0.0000477583
0.2138128535 1.3095982416 -0.1302043906 -0.0044761671 0.0001930429 0.0013564795
0.2597224038 0.9854514654 -0.4007645169 -0.0039196192 -0.0001901282 -0.0005122584
0.0278291961 0.5376379777 0.0097341854 -0.0035080160 0.0000100544 0.0007266029
0.3804309521 1.2354682401 -0.2799829835 -0.0036840423 0.0001934371 -0.0003032604
-0.1158554181 1.4321310592 -0.3915495583 -0.0047094133 0.0005461932 -0.0004966015
0.0343966460 1.2733076851 -0.4718534177 -0.0043790988 0.0002351838 -0.0006562879
0.4189261985 0.8335795108 -0.0563680331 -0.0036427082 -0.0006045430 0.0001891919
-0.1526026169 1.0259520939 0.0784997727 -0.0044689005 0.0010317173 0.0003403932
-0.1749813290 1.0220806926 0.3135057104 -0.0045455277 0.0010089868 0.0005011660
-0.3206793627 0.7567651527 0.1744373670 -0.0050751592 -0.0007569627 0.0006843289
0.1820452189 0.6884585951 -0.1881411007 -0.0041042988 -0.0008798114 -0.0000555408
-0.3551143207 0.9950645091 0.1772782436 -0.0053295275 -0.0000877815 0.0008789545
-0.0955266710 0.1282727040 -0.1129402403 -0.0047880607 0.0008920036 -0.0000605004
-0.1906995583 0.9562451387 0.4492190651 -0.0048742708 -0.0001095174 0.0012672133
-0.2287790724 0.7450194602 0.2668875545 -0.0049231687 -0.0007692839 0.0008538964
-0.0535232673 0.0480230601 0.3585240020 -0.0045145658 0.0009649423 0.0006943585
0.3690165295 0.9862374337 0.1456950576 -0.0036429775 -0.0004416344 0.0007774084
0.0016652051 1.0247995583 -0.0385771010 -0.0044624809 0.0010313779 0.0003165690
0.1095826842 0.1454431650 -0.0267703164 -0.0038512388 0.0008195591 0.0002158287
0.2289007521 1.3532140897 -0.3850086607 -0.0039024106 0.0003756157 -0.0004351029
0.1880120362 1.0944831504 -0.1417393353 -0.0046656423 -0.0003076108 0.0013041872
-0.0089967811 0.1064380720 -0.1892135175 -0.0044733855 0.0009379537 -0.0000853667
-0.2305370166 1.2284308621 -0.1090566695 -0.0043536228 0.0001244943 0.0013607272
-0.3138239147 0.0065763095 -0.1230943339 -0.0045153582 -0.0010303080 0.0003269185
-0.0940404017 1.5007599754 -0.1788968125 -0.0045377503 0.0004717946 0.0012561302
0.2228545250 0.0866037108 0.0544613309 -0.0041316134 0.0009726124 0.0004313752
0.4617485846 1.0283917375 -0.1663338699 -0.0035094058 -0.0000777642 -0.0000398416
0.2230181610 1.0233549543 -0.0417242007 -0.0044307855 0.0010249294 0.0002493926
0.2950673241 1.0155150462 0.2916689447 -0.0045150724 0.0010231466 0.0003305647
0.2931563721 0.0645290488 0.0748620716 -0.0042106724 0.0009977655 0.0004116574
-0.3926457948 0.0161846371 -0.0288145439 -0.0047796973 -0.0009812399 0.0003499493
0.1178639553 0.6509372911 -0.1478577778 -0.0042299291 -0.0009536467 0.0000274142
0.3614977534 0.9952453681 0.1089352095 -0.0049625765 0.0008401632 0.0000138239
0.0132274045 0.6046069219 -0.0306195804 -0.0043300400 -0.0009821396 0.0001709485
0.2298101955 1.5071729121 -0.2681577233 -0.0039612515 0.0006600027 -0.0002656200
0.1723586381 1.4131684514 -0.1525365739 -0.0044121685 0.0002685435 0.0013375086
-0.4595108962 1.0891080123 -0.0290385034 -0.0039680713 0.0003744199 0.0011646881
-0.1318373478 1.1486195480 -0.4720717768 -0.0047327258 0.0000366468 -0.0006513128
-0.2978244153 1.0067733629 0.2494304149 -0.0051567533 0.0004323651 0.0009644682
0.3290474578 1.0143546394 0.2140822363 -0.0046931880 0.0009897745 0.0002053213
-0.1449187717 0.0046053301 -0.2587130708 -0.0044757008 -0.0010305226 0.0002955935
0.2229711987 0.9206924389 0.4241663849 -0.0040247692 -0.0003729517 0.0011956272
0.4917105265 1.0250639201 -0.0538335993 -0.0034521043 -0.0000684351 0.0001574274
0.0983879671 1.2734303563 -0.1239459362 -0.0044679389 0.0001088416 0.0013685953
-0.3776596290 0.0140530304 0.0604730366 -0.0047795684 -0.0009746171 0.0003951163
0.3275130222 1.0385430753 -0.3582962292 -0.0037972658 -0.0000858789 -0.0004385964
-0.0524539673 0.0042835069 -0.2937682514 -0.0044543651 -0.0010299262 0.0002876417
-0.1090291346 0.9674944768 -0.4605230644 -0.0046766284 -0.0002468891 -0.0006346655
0.4274821117 1.2079397709 -0.0982271422 -0.0044281751 0.0004400682 0.0012746894
-0.3347642887 0.7811513239 0.1978198247 -0.0051035159 -0.0007073870 0.0007356947
0.0196310595 0.0468933810 -0.3771793322 -0.0044334897 0.0009276022 -0.0001049658
0.3100952099 0.7373144404 -0.1178890191 -0.0038289065 -0.0007712937 0.0000905574
0.0034411894 1.0052586688 0.4673640906 -0.0044630061 0.0008140114 0.0009410413
-0.2997255759 0.8319287327 0.3078776412 -0.0050492870 -0.0005999599 0.0009429283
0.1506721111 0.6521276104 0.1332700263 -0.0041632252 -0.0009516399 0.0006012677
0.1335496111 0.9164989926 -0.4358992641 -0.0042061235 -0.0003763843 -0.0005793016
-0.2415288096 0.6830600310 -0.0990194620 -0.0049397737 -0.0008878199 0.0001243215
0.0340132540 0.0042064794 -0.2942772633 -0.0044637696 -0.0010300315 0.0002930007
0.2569195947 0.9691661633 0.2493817059 -0.0044012691 -0.0010273303 0.0003995652
-0.1424190997 0.7147041122 0.2827657982 -0.0047421694 -0.0008521522 0.0008513304
-0.3695527457 0.8682143771 -0.2406666602 -0.0051836707 -0.0005033611 -0.0001969734
-0.2194833669 0.9670144963 0.0375880043 -0.0044685115 -0.0010315254 0.0003250077
0.1103116142 0.0201245250 0.3678308391 -0.0042769409 -0.0004926226 0.0009193507
-0.3069599330 1.4084443305 -0.2925038759 -0.0050781431 0.0004397587 -0.0003581300
0.1874678064 0.9736626364 0.3284207172 -0.0042552091 -0.0008823227 0.0007786630
0.3913577097 1.0008142116 -0.0289447212 -0.0041917357 0.0001444237 -0.0006385542
-0.0337713049 0.3187716060 -0.0274589905 -0.0052567002 0.0000448761 -0.0003147180
-0.0429811573 1.0802484429 -0.1675928607 -0.0044108902 -0.0002385216 0.0013374653
0.0027567558 0.9666685208 0.0425327129 -0.0044643897 -0.0010315646 0.0003293153
-0.1545213307 1.1794531009 -0.4642135438 -0.0047737854 0.0000821419 -0.0006373429
-0.0841033775 0.7608206877 -0.3396335003 -0.0046417056 -0.0007091121 -0.0003840064
0.4519659548 0.8706146624 0.0248180901 -0.0036036192 -0.0005679735 0.0003554320
-0.1623397804 0.9829586102 -0.0476703210 -0.0044493384 0.0010293629 0.0003996942
-0.1736024693 0.0853968937 -0.1753001947 -0.0046998655 0.0009753558 0.0001035761
0.1925199554 1.5415766658 -0.2129856227 -0.0042330264 0.0006733887 0.0010790371
-0.3523628341 1.1463112031 -0.3395194556 -0.0051877967 0.0000859532 -0.0003867271
0.2243214376 0.0769732243 -0.1382083039 -0.0042023524 0.0009857435 0.0001880776
0.0971416566 0.7420932225 -0.3155129496 -0.0042695411 -0.0007603768 -0.0003247714
-0.2454070917 1.0230560835 0.2518012602 -0.0045272327 0.0010265668 0.0004133102
-0.1754604604 0.0023279863 0.1332594622 -0.0044844541 -0.0010308847 0.0003687788
-0.3111271202 1.4752610056 -0.2251166324 -0.0051357118 0.0007434096 0.0002050169
0.0570008858 0.9772571452 0.2348155860 -0.0044659816 0.0010288243 0.0004206140
-0.2347426479 0.9685317718 -0.0359956853 -0.0045029174 -0.0010283157 0.0002835467
-0.1904206818 0.9793064810 0.3244042258 -0.0048067581 -0.0006815736 0.0009896482
-0.4615807618 0.9752397989 0.1752737922 -0.0053981122 -0.0000994661 0.0007608663
-0.1607546826 0.9963714547 -0.0915899428 -0.0046719865 -0.0000444293 -0.0006605449
0.0780826543 0.7075269977 0.2945899875 -0.0043058774 -0.0008747135 0.0008663919
0.2080991241 0.7517024250 -0.2716991773 -0.0040322319 -0.0007451801 -0.0002236236
-0.4542432223 0.9032881663 0.1227717369 -0.0053658813 -0.0004303285 0.0005988606
-0.4737633932 0.9155515612 0.0561999844 -0.0054143220 -0.0003810726 0.0004644728
0.3462733910 0.0513051667 -0.0799878764 -0.0041698997 0.0009866349 0.0002797210
-0.1680037762 0.6879330844 0.2157996883 -0.0047866885 -0.0008818708 0.0007697239
0.0835528024 1.0252182042 -0.0187085382 -0.0044616514 0.0010315038 0.0003220816
-0.3616197643 0.0171596483 0.1531095813 -0.0048959531 -0.0008144354 0.0005013352
0.1177485806 1.0691929990 -0.4724954288 -0.0042208816 -0.0000761268 -0.0006562353
-0.0375791173 0.2938303582 -0.0245829981 -0.0053449161 0.0000936553 -0.0001851186
-0.0755707725 1.0265138769 -0.0044255447 -0.0044645341 0.0010316090 0.0003282329
0.2956212049 1.3733453521 -0.3140099061 -0.0038062265 0.0003543843 -0.0003671486
-0.0130772763 0.6440424848 -0.1690522477 -0.0044832078 -0.0009656501 -0.0000158441
-0.1502875027 1.5246706367 -0.3040796666 -0.0047894546 0.0006890414 -0.0003517755
0.4263858438 0.9974210915 -0.2334068137 -0.0035778316 -0.0001341134 -0.0001671516
-0.2851465314 1.4971208825 -0.2223726549 -0.0050570881 0.0007890027 0.0004517977
-0.4416085998 0.9899257722 -0.2137227386 -0.0053665808 -0.0001614930 -0.0001289603
-0.4168034679 1.0021623416 0.0071512860 -0.0054684148 0.0001544327 0.0001941402
-0.1841997832 0.0417800221 0.3293957934 -0.0047533433 0.0008195385 0.0008652797
0.1574812582 0.9561677449 0.4613248382 -0.0041222636 -0.0000511636 0.0013092882
0.1281208042 0.0075265989 -0.2925169430 -0.0044328387 -0.0010130210 0.0002141139
0.0082835182 1.0211318126 0.3627093563 -0.0044779077 0.0009743963 0.0005976297
-0.1062205311 0.0024500839 -0.1434630531 -0.0044802797 -0.0010310199 0.0003207631
-0.1019811058 0.9969374575 0.4636797202 -0.0046447080 0.0006465033 0.0011155457
-0.2886364412 1.1033065734 -0.3953516888 -0.0050778304 0.0000167866 -0.0004855453
-0.2302635867 0.7148668979 -0.2018665909 -0.0049175353 -0.0008224749 -0.0000826263
0.2811506626 0.9392899281 -0.3716839155 -0.0038836565 -0.0003007888 -0.0004531720
0.1359554070 0.7082541480 0.2718317668 -0.0041876582 -0.0008609004 0.0008378021
-0.2729890882 1.1532437932 -0.0968042865 -0.0041975259 -0.0001155026 0.0013290596
0.4019617309 1.0192116976 0.1664996302 -0.0044670000 0.0010280412 0.0003707339
0.0341576508 0.9676954880 0.3212057241 -0.0044619248 -0.0010310550 0.0003734846
-0.0569666358 1.0261196020 0.1505921817 -0.0044677996 0.0010316967 0.0003472172
0.1362557419 1.4115773716 -0.3956825192 -0.0041727359 0.0005079358 -0.0005049402
-0.3597725086 0.8530483593 0.2614691065 -0.0051687959 -0.0005286772 0.0008792816
0.0930946149 0.6327635488 -0.0976069352 -0.0042753664 -0.0009912912 0.0001347515
-0.1672274743 0.9827269312 0.0130525158 -0.0044351281 0.0010309425 0.0003562657
0.1727816917 0.9667343910 0.0228363878 -0.0044584106 -0.0010316152 0.0003289283
-0.0785028819 1.5484545957 -0.3033312303 -0.0046222086 0.0007811986 -0.0003082861
0.0303609598 0.5034756623 -0.0066113401 -0.0034457064 0.0000155506 0.0001790632
-0.1032694189 0.9924019409 -0.1229741492 -0.0044661447 0.0009719603 0.0006851543
-0.0590640915 0.6168123819 -0.0218525303 -0.0045816101 -0.0010225348 0.0002854307
-0.0889352453 0.0065126875 0.3089564972 -0.0044965597 -0.0010170572 0.0004569554
0.1688340924 0.0026812687 -0.0246176258 -0.0044348846 -0.0010309992 0.0003454436
0.2562999066 0.6818175081 0.0315955872 -0.0039449033 -0.0008896770 0.0004011366
0.2198121812 1.0252781552 0.0857798560 -0.0044523439 0.0010316410 0.0003476928
-0.1429121319 1.5048187223 -0.3255747396 -0.0047755156 0.0006663676 -0.0003788817
-0.0745014963 1.0251360871 0.2905166310 -0.0044693627 0.0010315110 0.0003642040
-0.0855071829 0.9975326796 0.3685294005 -0.0043215373 0.0008563896 -0.0002136579
-0.3750756504 0.9846027139 -0.0214795116 -0.0048029695 -0.0002455375 -0.0005985779
-0.0369776489 0.9936436457 -0.1223675293 -0.0044929104 0.0009736524 0.0006707397
0.2152369597 0.0832918103 0.1023903365 -0.0041647172 0.0009766682 0.0004861416
-0.0259799027 1.0139593576 -0.0999272360 -0.0044993382 0.0007184464 -0.0003539287
-0.2841485957 0.0049601931 -0.0063021342 -0.0045084826 -0.0010305721 0.0003435865
0.1674383078 0.6412886044 0.0293841879 -0.0041288483 -0.0009729611 0.0003996735
0.1041660149 0.0943208372 0.1792533191 -0.0042804241 0.0009671420 0.0006517162
-0.1084926893 1.0189407872 -0.0860317264 -0.0045174197 0.0008941043 -0.0001252903
0.1764971405 0.0026655695 -0.0559221747 -0.0044371266 -0.0010309518 0.0003288241
0.0481318192 0.0009035035 0.0391558037 -0.0044575347 -0.0010314831 0.0003498832
-0.4823432679 0.9336782628 0.0216148631 -0.0054415985 -0.0003267622 0.0003677171
-0.1142769565 0.9835255571 -0.0217756823 -0.0044870088 0.0010305319 0.0003748063
-0.1662719034 1.0065422513 0.4305366256 -0.0046739231 0.0008534862 0.0008327527
-0.2127784876 0.0928688881 -0.0643358547 -0.0048079756 0.0009677621 0.0002499364
-0.0827709043 0.9678179074 -0.0169544518 -0.0044857005 -0.0010313511 0.0003282443
0.0731499656 0.6484121296 0.1810346252 -0.0043185938 -0.0009610774 0.0006887241
-0.3167854795 1.0119435857 -0.1028531115 -0.0041074601 0.0005472270 0.0011224399
-0.0060524454 0.6157205525 0.0685278845 -0.0044685517 -0.0010230692 0.0004745458
0.3096532010 1.0248784007 0.0091567827 -0.0044583456 0.0010314398 0.0003186438
-0.1534024076 1.0255622895 -0.0068208498 -0.0044975780 0.0010311107 0.0003560995
-0.2902548831 0.0703667164 0.0078142189 -0.0047653663 0.0009862841 0.0003668432
-0.1652255733 1.3222272586 -0.4308728706 -0.0048023969 0.0003345870 -0.0005705091
0.1244408498 0.9661988671 0.4718889018 -0.0041891800 0.0001190415 0.0013208355
-0.2140573313 0.0039172348 -0.0943368722 -0.0045012170 -0.0010307702 0.0003348681
0.0767767394 1.5406527243 -0.3122443590 -0.0042875205 0.0007484838 -0.0003444046
0.3399942097 1.0654686400 -0.0905747686 -0.0049465771 -0.0001876190 0.0012330891
-0.0460504537 0.6219120751 -0.0802687679 -0.0045436860 -0.0010136906 0.0001711744
-0.0434063363 0.0110511910 0.3659022534 -0.0044717491 -0.0009968606 0.0005837052
0.3694213520 0.0307671380 -0.1094071310 -0.0035146296 0.0002887968 0.0000844443
0.3972251722 0.9171109033 -0.2351513121 -0.0036786957 -0.0004165989 -0.0001800310
0.3138191913 0.0592457418 0.0734711125 -0.0041890407 0.0009919495 0.0004123455
0.3951755527 0.9032860254 0.2514931954 -0.0036891474 -0.0005110682 0.0007922884
-0.2613351783 0.6962464874 0.1209105340 -0.0049710791 -0.0008667092 0.0005789488
0.1818849672 0.0924411824 -0.1213533229 -0.0041649895 0.0009729302 0.0001751591
-0.2624810704 0.0572414472 -0.2184184276 -0.0046634085 0.0009987209 0.0001786701
0.1092209105 1.0258000765 0.1490397204 -0.0044569806 0.0010316709 0.0003479549
0.3239573991 0.8499476234 0.2939532342 -0.0038147313 -0.0005471620 0.0009281320
-0.3100777041 1.0036639995 0.2143872625 -0.0040043085 0.0008509048 0.0000046444
-0.0966739240 0.9837771984 -0.0087594631 -0.0044925709 0.0010311860 0.0003570859
0.0539851674 0.6178145993 0.0524901132 -0.0043533370 -0.0010196469 0.0004401812
-0.0610208533 0.9725196105 0.2828162396 -0.0044654668 0.0010311530 0.0003376559
-0.1004888781 0.9792906746 0.1733135472 -0.0044932096 0.0010299077 0.0003971117
-0.0322406063 0.6574710098 0.2135960673 -0.0045194109 -0.0009376762 0.0007676904
-0.1813085745 1.3959692200 -0.1477144818 -0.0045226723 0.0002800517 0.0013334817
0.1857328486 1.0171807497 -0.0809511215 -0.0043153592 0.0008393739 -0.0002353814
0.0956919671 1.0610991839 -0.1700801754 -0.0045791773 -0.0001511806 0.0013563361
-0.3338567190 0.7333050020 0.0482861224 -0.0051198207 -0.0007900500 0.0004338390
0.3025929955 1.2392039350 -0.3598658352 -0.0037817957 0.0002072595 -0.0004024851
0.0110848045 1.3002573050 -0.4656920914 -0.0044367573 0.0002801806 -0.0006478729
-0.1927277989 0.0045582760 -0.2006201628 -0.0045022550 -0.0010305773 0.0003179567
-0.1096158715 1.0032132371 -0.1401002862 -0.0044382089 0.0008218352 0.0008970432
-0.0019071675 0.4316449377 0.0330430471 -0.0043372994 0.0000162841 0.0013633355
0.3283144184 0.7674550374 0.1717239159 -0.0038324165 -0.0007407074 0.0006826492
-0.3933483552 0.9802154353 0.2826799657 -0.0052217713 0.0003712390 0.0009335023
0.2433568417 0.0034551583 0.0025581213 -0.0044245454 -0.0010305257 0.0003212923
0.2627580258 0.9625096475 -0.3928731915 -0.0039214753 -0.0002431190 -0.0004991469
-0.0374203068 0.9688242189 -0.0620560182 -0.0044711383 -0.0010257301 0.0002471176
-0.3089325683 0.9685594166 -0.3649756046 -0.0050802427 -0.0002140185 -0.0004549507
0.3897780595 1.2789794262 -0.1232562933 -0.0043555552 0.0003569244 0.0013050229
-0.2305889220 0.6846123201 -0.1267845461 -0.0049135125 -0.0008854190 0.0000652795
-0.2260066164 0.9669216736 0.0128431969 -0.0044686848 -0.0010315430 0.0003234301
-0.0190076448 0.3494745845 -0.0373200664 -0.0048566733 0.0000305419 -0.0006091544
0.2680444033 1.1487878123 -0.4051119326 -0.0038407459 0.0000713632 -0.0004751999
0.0656494990 1.0077378595 0.3877734972 -0.0045418990 0.0009423490 -0.0000645387
0.0750279438 0.6422303055 -0.1496305039 -0.0043187289 -0.0009717932 0.0000289205
-0.0125395527 0.9773398918 -0.0996711241 -0.0044907870 -0.0007587394 -0.0003193238
0.0574692055 1.4667753711 -0.3794804032 -0.0043196379 0.0006009865 -0.0004817546
-0.1765728350 0.0037849167 0.1701562300 -0.0044865600 -0.0010307702 0.0003737518
-0.1706866224 0.0692549805 -0.2460172066 -0.0046187522 0.0009957793 0.0001226563
-0.3576358287 1.0204028351 0.1370882944 -0.0047257243 0.0009558423 0.0004929171
-0.2686517795 1.4638355319 -0.1856252590 -0.0046569652 0.0004823257 0.0012341663
-0.1572327978 0.1207504880 -0.0270481890 -0.0049459642 0.0009085973 0.0002656675
-0.4230089078 0.8412362931 -0.0907275721 -0.0052834927 -0.0005969647 0.0001547097
-0.3390646637 1.0151414270 0.2765367756 -0.0045744849 0.0010144180 0.0004710739
-0.1843452819 0.1054168280 0.0454173957 -0.0048717069 0.0009388019 0.0004713948
-0.0124707926 1.5060512331 -0.3540282543 -0.0044876515 0.0006722156 -0.0004368208
0.1067240954 0.1160672915 -0.1242707824 -0.0041506833 0.0009222856 0.0000050798
-0.1903893526 1.0256642432 0.0969948191 -0.0044729202 0.0010316781 0.0003470717
0.2360144540 0.0839988259 0.0273080059 -0.0041360355 0.0009772150 0.0003839084
-0.0067561274 0.5161964950 0.0321966779 -0.0045634049 0.0000088855 0.0013697705
-0.3523898495 1.2874791668 -0.1204952897 -0.0044384586 0.0003341722 0.0013185760
0.0893872272 0.9694169225 0.3424604277 -0.0044400785 -0.0010246746 0.0004546329
0.0492493412 1.0256197839 0.2766261346 -0.0044618959 0.0010315987 0.0003600130
-0.4774346036 1.0018633449 0.1302152292 -0.0052174214 0.0005633678 0.0007654690
0.4493474982 1.2528346031 -0.1725493374 -0.0035745888 0.0001936641 -0.0001422286
-0.1104683786 0.9723127431 -0.0798715484 -0.0045153778 -0.0009672173 0.0000705435
-0.2038639423 0.6746407703 0.1480731602 -0.0048712437 -0.0009038626 0.0006255056
0.1853031980 0.9002507181 -0.4112972833 -0.0040908478 -0.0004109583 -0.0005240100
-0.4805346781 0.9461762328 -0.0630426346 -0.0054457946 -0.0002743780 0.0001909108
-0.2439326380 0.9841855794 0.0913262816 -0.0044244485 0.0010260479 0.0004413759
0.0069268629 0.0987627914 0.1971110304 -0.0044446636 0.0009619822 0.0007147429
0.2441710223 0.0036856353 -0.0824241194 -0.0044280658 -0.0010306454 0.0003192402
0.0335385932 0.1719237772 -0.0837199654 -0.0041175970 0.0006623912 -0.0003665285
0.2900277387 0.0066357044 -0.1412773176 -0.0044159819 -0.0010303255 0.0003211396
0.1381669302 1.2834026624 -0.1258807000 -0.0044788435 0.0001105306 0.0013671478
0.2850806292 0.0545616673 0.1790798278 -0.0042395667 0.0009969091 0.0004851831
0.0218875021 0.9737579775 0.4869813670 -0.0044045934 0.0002724528 0.0013180302
0.1365502989 1.1947306439 -0.4660735510 -0.0041721778 0.0001062581 -0.0006396860
0.2293435638 0.0030015566 0.1545760533 -0.0044341366 -0.0010306536 0.0003732854
0.1299135401 0.7538176929 0.3411292070 -0.0041748902 -0.0007442206 0.0009934491
0.2651747160 1.0222040561 0.2611710384 -0.0043631324 0.0010163752 0.0004380785
0.3536007606 1.4055581444 -0.2384938340 -0.0037232014 0.0004581239 -0.0002025304
-0.1377294878 0.6797507914 0.2201436404 -0.0047399872 -0.0008960605 0.0007723074
0.0279431749 0.2432456477 -0.0403354929 -0.0038594423 0.0003114530 -0.0004315887
0.0289449167 0.7882706303 -0.3721991943 -0.0044090929 -0.0006708227 -0.0004381280
0.0800486761 0.8678173938 -0.4232387910 -0.0043261194 -0.0005240993 -0.0005340335
-0.0696509640 0.9364914626 -0.4587432853 -0.0045950776 -0.0003301257 -0.0006251166
0.0060901673 0.0013237920 0.0981713863 -0.0044668328 -0.0010313903 0.0003567537
-0.1014694412 0.0685594256 -0.2837220780 -0.0045491192 0.0009971402 0.0000926715
0.0084998076 0.7011785456 0.2971089450 -0.0044372215 -0.0008842706 0.0008718231
0.3764255437 0.0157545407 -0.0562590223 -0.0041685161 -0.0009830836 0.0002653641
-0.1615054177 0.9909490870 -0.1179015105 -0.0044402807 0.0009734636 0.0006827947
-0.4174004533 0.8493294159 0.1472188352 -0.0052959491 -0.0005263588 0.0006478059
0.0415203053 0.7299130777 0.3372871508 -0.0043799118 -0.0008066839 0.0009779759
0.2304185631 1.0245676916 0.2242277653 -0.0044358349 0.0010304535 0.0003660405
0.1479531030 0.9029434506 -0.4265682767 -0.0041839779 -0.0004157746 -0.0005575152
-0.3662047142 1.1345712410 -0.3260072709 -0.0052149307 0.0000760536 -0.0003591618
-0.2833706873 1.2972893794 -0.3680219630 -0.0051078163 0.0002824990 -0.0004110300
0.4633304705 1.1115547995 -0.1677896045 -0.0035225885 0.0000062421 -0.0000783353
-0.2422768208 0.0062519523 -0.2162576925 -0.0045004102 -0.0010303637 0.0003060410
0.1721994893 1.0151749910 0.3922543536 -0.0044355171 0.0010103962 0.0003606062
0.2012651973 0.0029591382 -0.0415674486 -0.0044303924 -0.0010308703 0.0003430572
0.2013941035 0.6591881616 0.0750543448 -0.0040625190 -0.0009383097 0.0004846724
-0.2472208763 0.7586222947 0.2688725946 -0.0049586703 -0.0007407508 0.0008625063
-0.4514032897 1.1399696792 -0.0552416907 -0.0042402270 0.0004145457 0.0012581947
0.4856432506 1.1741565534 -0.0940570743 -0.0034546672 0.0001064480 0.0001583724
0.1883596325 1.2794230096 -0.1251561147 -0.0044726148 0.0001569099 0.0013622625
-0.1728608343 0.9737526877 -0.0716059579 -0.0045187259 -0.0009284204 -0.0000391400
-0.2569008756 0.0036525656 -0.0604343882 -0.0045016060 -0.0010306722 0.0003245052
-0.0492120805 1.1861651601 -0.1218674750 -0.0044212738 -0.0001989745 0.0013536226
-0.0964326735 0.9835352556 0.0154524968 -0.0044929981 0.0010312407 0.0003565236
-0.0574925489 0.7353477253 0.3427006712 -0.0045620234 -0.0007887500 0.0009994993
-0.1360574711 1.2514238787 -0.1180865811 -0.0044193825 0.0000562450 0.0013722220
-0.1907149871 1.0139819013 -0.0772489049 -0.0046256639 0.0007406043 -0.0003293008
0.1116718663 0.9880084915 -0.0657458012 -0.0044490454 0.0010300655 0.0003987408
-0.0772550134 1.5031214700 -0.3489868107 -0.0046372763 0.0006547501 -0.0004344880
0.0578183288 1.0640246653 -0.4827407231 -0.0043427130 -0.0000789136 -0.0006774347
0.2657369396 0.8664600709 -0.3420245597 -0.0039210730 -0.0005395291 -0.0003474689
-0.1004770708 0.0026458146 -0.1647948213 -0.0044708299 -0.0010309683 0.0003114144
0.0712588655 1.1294943443 -0.1431772804 -0.0045441214 -0.0003586619 0.0013024435
-0.3447323119 0.0137395489 0.1695974690 -0.0047365309 -0.0009756922 0.0004789049
0.0623458318 0.0044103815 -0.1816665457 -0.0044540391 -0.0010307950 0.0003107272
-0.3147718496 1.3285321326 -0.1346034992 -0.0044925916 0.0003421343 0.0013155241
0.0176763798 0.9919904739 -0.0992023835 -0.0044853342 0.0009997155 0.0005569250
0.4351579742 1.0320077202 -0.2244713456 -0.0035594860 -0.0000827610 -0.0001441817
0.3300604757 0.9159623988 -0.3199808018 -0.0037954468 -0.0004158592 -0.0003223014
-0.1475681953 0.9665418195 0.0089024320 -0.0044634054 -0.0010314543 0.0003243236
-0.0315085316 0.7314901154 -0.3172386030 -0.0045150239 -0.0007716497 -0.0003389910
0.4567864559 1.0731542639 -0.0173011309 -0.0049340021 0.0004462979 0.0011399023
0.0333735881 0.0012471844 0.1077298245 -0.0044509201 -0.0010313129 0.0003552958
0.0723484590 0.9518550899 -0.4620276195 -0.0043157667 -0.0003014605 -0.0006308955
-0.3944920105 0.8826742769 -0.2190208297 -0.0052355967 -0.0004647653 -0.0001584261
-0.3340501726 0.9870996631 0.1229767781 -0.0041172101 0.0009635381 0.0002686307
-0.0319625821 0.0574091451 -0.3416335287 -0.0044847441 0.0009991171 0.0000868895
0.4133499243 0.9222420826 0.2380106716 -0.0036444013 -0.0004906385 0.0007304379
0.0060143789 0.2122430576 0.0569289464 -0.0043113880 0.0004459698 0.0012604316
-0.1335232570 0.0131379784 -0.3402824076 -0.0045571308 -0.0009838657 0.0000894978
-0.4331714546 1.0182635099 -0.2360791908 -0.0053524252 -0.0001053254 -0.0001691460
0.0763869434 0.0018621027 0.0694689469 -0.0044517569 -0.0010313108 0.0003532065
0.1062502301 0.8714491830 -0.4208115852 -0.0042760990 -0.0005094020 -0.0005331761
-0.2328954086 0.0044306916 0.1002093635 -0.0044989626 -0.0010307434 0.0003594414
-0.1897532133 0.9836703955 0.0155013306 -0.0043961588 0.0010291349 0.0003571230
-0.2555410960 0.7008576974 -0.1363759426 -0.0049557029 -0.0008576968 0.0000496928
-0.4863849176 0.9686305136 0.0837604410 -0.0054534781 -0.0002596632 0.0004745798
-0.0672390281 1.0034929638 -0.1028644783 -0.0045420332 0.0003805113 -0.0006070630
-0.1511424261 1.2562900668 -0.4537474977 -0.0047717043 0.0001992778 -0.0006199001
0.4372080663 1.0569153721 -0.0239607802 -0.0050929632 0.0003335914 0.0010863007
-0.1122933403 0.0913652854 -0.1998849040 -0.0046347175 0.0009706108 0.0000379938
-0.2744816470 0.8290586668 -0.3077562607 -0.0050053674 -0.0005888892 -0.0003068045
-0.1581628958 1.2384862924 -0.1167405064 -0.0043958988 0.0000513452 0.0013679711
0.1339587793 0.0112588137 0.3253445412 -0.0043698110 -0.0009838791 0.0005904611
0.3673487162 1.3391287541 -0.1430130151 -0.0042864701 0.0003978303 0.0012775329
0.3006588693 1.0956870714 -0.3820697974 -0.0038276375 0.0000130341 -0.0004678817
-0.3539965470 0.7488842490 0.0050594771 -0.0051725329 -0.0007494051 0.0003321959
0.2185003554 0.0032764970 0.0003671238 -0.0044284723 -0.0010306515 0.0003239739
0.1980115939 0.9833814749 0.1477105302 -0.0044556301 0.0010261902 0.0004485332
0.0209976641 0.0014343464 0.1288108088 -0.0044639099 -0.0010312675 0.0003608858
0.0391058983 0.1225012047 -0.1501561879 -0.0043224277 0.0009140130 -0.0001131992
-0.3565167013 1.2948344339 -0.2975106207 -0.0052007060 0.0002422771 -0.0003366520
-0.3595862339 0.8744842375 -0.2594232817 -0.0051689693 -0.0004941279 -0.0002248452
-0.3925355603 0.9748984849 -0.0129019883 -0.0047332953 -0.0006103651 -0.0004349708
-0.4396139881 0.8471020554 0.0089278925 -0.0053105061 -0.0005887221 0.0003515289
-0.4862034282 1.0799290433 -0.1137735485 -0.0054681785 -0.0000310960 0.0001100679
0.3477700738 0.9689070913 0.0875963882 -0.0043959886 -0.0010279535 0.0003697001
0.3224217986 1.2893358682 -0.1221587253 -0.0044653285 0.0002925844 0.0013321962
-0.4050738646 1.0149101257 -0.0372956799 -0.0039509690 0.0008532170 0.0005977153
0.0433279613 0.1021304860 -0.1925550005 -0.0043691187 0.0009483239 -0.0000516242
0.3387335816 0.9681609228 0.0612139081 -0.0044303955 -0.0010306227 0.0003551607
0.0701425713 0.0727078463 0.2626671557 -0.0043832712 0.0009874706 0.0006309192
0.0083724419 0.0041330032 0.2431861213 -0.0044641874 -0.0010308816 0.0003785402
0.0455666381 1.2210982668 -0.4806989759 -0.0043687297 0.0001453347 -0.0006726701
-0.2336425068 0.7239396944 0.2273700953 -0.0049258678 -0.0008027725 0.0007970540
-0.1143258946 0.0025495696 0.2101654472 -0.0044696052 -0.0010308445 0.0003797143
-0.0455423507 1.0252515804 0.2918293378 -0.0044679399 0.0010315265 0.0003637428
-0.0049432889 0.9664939596 0.2355294813 -0.0044659899 -0.0010316224 0.0003557219
-0.0326607246 1.3434317106 -0.4517641889 -0.0045285316 0.0003636494 -0.0006195152
-0.0236898178 1.4121382105 -0.4187156802 -0.0044983230 0.0004977525 -0.0005582890
0.0534804919 0.9838899205 0.1484168679 -0.0044773474 0.0010300181 0.0003993393
-0.1285496047 0.6316125887 -0.0530997809 -0.0047092493 -0.0009932216 0.0002180108
0.0647735577 0.9670991320 0.0010040638 -0.0044621353 -0.0010314986 0.0003236117
0.3817976268 1.0094151505 0.2513743654 -0.0040793716 0.0009015721 0.0006564179
0.0170140556 0.9870621310 0.0048710399 -0.0044869500 0.0010313758 0.0003577400
0.1278025066 1.4366799886 -0.3823038691 -0.0041801749 0.0005541955 -0.0004779299
0.4790245495 1.1725980934 -0.1253482146 -0.0034871055 0.0000617690 0.0000193583
-0.4712804562 0.9035229932 0.0030357979 -0.0054095296 -0.0004093725 0.0003433347
-0.0117964836 1.4518668509 -0.1568750949 -0.0044656257 0.0002974057 0.0013303338
-0.0896496761 0.0014488445 -0.0054290508 -0.0044776012 -0.0010313944 0.0003423484
-0.3961888863 1.3060636837 -0.1300409043 -0.0046435679 0.0004416096 0.0012547673
-0.4611612028 1.1458419270 -0.1826650953 -0.0053901718 0.0000652914 -0.0001062091
-0.0871355988 1.5594745226 -0.2173508909 -0.0045304930 0.0006617970 0.0011262264
0.0061101648 1.3866425154 -0.1416647437 -0.0044459068 0.0002084924 0.0013530272
-0.2471838323 1.1466292181 -0.4233626591 -0.0050182550 0.0000492239 -0.0005242081
-0.4361088692 0.8624409340 -0.0968985649 -0.0053162168 -0.0005428380 0.0001398680
0.1921631651 0.9669956039 0.1624424733 -0.0044522676 -0.0010316235 0.0003504528
0.3218526468 0.0568238681 -0.0894681016 -0.0042147262 0.0009989148 0.0002767052
-0.2621884334 1.0230793835 -0.0308919816 -0.0044930136 0.0010254979 0.0002440791
-0.1008359782 0.9770260967 0.2033836301 -0.0044911089 0.0010296043 0.0004033765
-0.3472124467 0.7526517446 0.0925454023 -0.0051395561 -0.0007611846 0.0005093664
0.4689425135 0.8987669446 0.0259263078 -0.0035563340 -0.0004867798 0.0003526875
0.0098843905 0.1016036681 -0.1994447687 -0.0044330564 0.0009549601 -0.0000455173
0.1882206513 1.1109910634 -0.4516057799 -0.0040572374 -0.0000237138 -0.0006039265
-0.0677424242 0.0128277439 0.3672509819 -0.0045567016 -0.0009667768 0.0006684616
0.0566791875 0.6536209555 -0.1846020402 -0.0043460353 -0.0009488645 -0.0000426800
0.1833492983 0.6821015794 0.1863387922 -0.0041044432 -0.0008922729 0.0007136802
0.0583593901 0.0047270594 -0.2973069651 -0.0044373598 -0.0010290389 0.0002853667
0.4063927744 0.8170210936 -0.0540372311 -0.0036718387 -0.0006476362 0.0002121752
0.1140697425 1.0253592644 0.2641655388 -0.0044568723 0.0010315760 0.0003594527
0.4200440042 1.0136901465 0.0641158893 -0.0048262170 0.0009428886 0.0001435978
-0.0019986541 1.5842072357 -0.2392550692 -0.0044652666 0.0008754378 0.0008456227
-0.2245705130 0.8109359963 -0.3275207052 -0.0048923544 -0.0006293504 -0.0003528671
-0.2345968963 1.4712215287 -0.3017293820 -0.0049558680 0.0005760986 -0.0003566629
0.2549311374 1.0250931393 0.1618604442 -0.0044480096 0.0010315017 0.0003528000
0.0631157183 1.0249095101 0.2941938234 -0.0044593413 0.0010314759 0.0003650325
0.4092842512 0.8151497826 -0.0241798243 -0.0036728715 -0.0006550153 0.0002520937
0.0123119966 0.9737823485 0.2821437495 -0.0044757214 0.0010309332 0.0003559788
0.2371583930 1.0069287809 0.3875331288 -0.0042130754 0.0009195153 0.0007030150
0.3594147577 0.7915446046 -0.1412659508 -0.0037598121 -0.0006891353 0.0000402007
0.1736721951 0.9843768911 0.1430932741 -0.0044589802 0.0010287242 0.0004214961
-0.2898680079 0.9623717992 -0.3774899795 -0.0050466499 -0.0002288551 -0.0004766124
-0.3294047681 1.0929105843 -0.3634972148 -0.0051391650 0.0000197797 -0.0004360201
-0.0341750637 0.7965186665 -0.3785866250 -0.0045267663 -0.0006489527 -0.0004556193
-0.1366612257 0.8928032588 0.4419240008 -0.0047287989 -0.0004653926 0.0012241964
0.0060511981 0.9870612489 -0.0191309500 -0.0044897016 0.0010306918 0.0003715046
0.1835846297 0.9672298013 -0.0141140797 -0.0044580753 -0.0010315193 0.0003223922
0.2971861196 0.0639459405 -0.0761500081 -0.0042050112 0.0009966904 0.0002812923
-0.2589062402 0.7827711824 0.2899272331 -0.0049891957 -0.0006963978 0.0008935941
-0.1998641539 0.7629625315 0.3153118126 -0.0048853828 -0.0007284616 0.0009392553
-0.0144388707 0.9800034680 0.1909667693 -0.0044857480 0.0010293371 0.0004093607
-0.2194898844 1.0157896719 0.3053785820 -0.0048028106 0.0007871023 0.0008838182
-0.2599864509 0.0549396003 0.2216259344 -0.0046548790 0.0009999683 0.0005108088
0.0733589811 0.9804073774 0.3725018733 -0.0043346189 -0.0006039765 0.0011277750
-0.0505367608 0.0872061284 0.2245771404 -0.0045352442 0.0009746284 0.0006738514
-0.0174192454 1.0526392422 -0.4853675855 -0.0044894499 -0.0001024303 -0.0006822200
-0.3260508485 0.7384745954 0.1129076668 -0.0051049893 -0.0007815143 0.0005486029
-0.3332963526 1.0351087708 -0.3581743442 -0.0051336039 -0.0000820419 -0.0004358148
-0.2580203022 1.0104681250 0.3678457634 -0.0046667596 0.0009638188 0.0006137725
-0.3514118761 0.0488304198 0.1070303964 -0.0047475964 0.0009859643 0.0004305735
0.0353162397 0.9666510151 0.2197603857 -0.0044614667 -0.0010315997 0.0003549646
-0.0815624570 1.4182084465 -0.4084435912 -0.0046410628 0.0005234307 -0.0005262066
0.4697795216 1.2243866000 -0.1402093238 -0.0034921632 0.0001629436 0.0000422508
-0.0836777734 0.6197020944 -0.0225394701 -0.0046191164 -0.0010178186 0.0002847621
0.4544562595 1.1520714851 -0.1836564195 -0.0035394721 0.0000566329 -0.0001105487
-0.0604312429 0.0604822507 -0.3261395467 -0.0045081525 0.0009992409 0.0000903500
0.3237228559 0.0090410422 -0.0671225365 -0.0042811143 -0.0010018646 0.0003306493
-0.2755859131 0.9814553139 0.2670230411 -0.0050199006 -0.0005740877 0.0009483265
