0.3489717126 0.2258064352 0.0170018213 0.4274193520 -0.0080645155 -0.2298387172
-0.1599842989 0.3516753454 0.3436785154 0.4277167794 0.0080259672 -0.2292153382
-0.3166092391 0.1935483730 -0.2348877088 0.4290653922 -0.0077872172 -0.2298387172
0.4999999919 0.1971149776 0.0379811585 0.4354838676 0.0000000000 -0.2298387172
0.0656900960 0.6976233526 -0.3266129037 0.4274193520 0.0000000000 -0.2379032327
-0.0807535385 0.1935483730 -0.1740646406 0.4277476101 -0.0080270317 -0.2298387172
0.0782514580 0.1935483730 -0.0984589364 0.4271446988 -0.0080323784 -0.2298387172
0.4029136441 0.2258064514 -0.0503672867 0.4272826908 0.0080585397 -0.2296791527
0.1563552588 0.1288169503 0.3749999486 0.4274193520 -0.0002473387 -0.2217808226
-0.1011301096 0.4193548405 -0.3620282560 0.4264713844 -0.0071325882 -0.2313261042
-0.4838709044 0.1574009805 0.3256433070 0.4307321663 -0.0055433383 -0.2298387172
-0.1197742615 0.1935483569 -0.0731847124 0.4278918278 -0.0080105639 -0.2298387172
0.4838709608 0.1717476246 -0.0541859154 0.4243616507 -0.0064062092 -0.2298387172
0.4411548672 0.2215519113 -0.3749999808 0.4264420537 0.0047235964 -0.2358292409
0.0319604211 0.1935483730 -0.2071742511 0.4273258440 -0.0080535720 -0.2298387172
-0.1356931716 0.2258064352 0.2858415599 0.4274193520 -0.0080645155 -0.2298387172
0.1627499519 0.1935483892 0.3609881351 0.4270611424 -0.0036894030 -0.2360885071
-0.4999999355 0.4373820812 -0.3357962014 0.4194877558 0.0003722903 -0.2294635237
0.4838709608 0.1493993279 -0.0715289142 0.4231371991 -0.0049536125 -0.2298387172
0.4983166372 0.4193547760 -0.0198125631 0.4320104082 -0.0020269999 -0.2298475398
-0.1875718856 0.3595961352 0.0199487486 0.4276830778 0.0080539833 -0.2298388785
0.0918054490 0.2258064352 -0.2866094066 0.4274193520 -0.0080645155 -0.2298387172
0.4807057514 0.6311606316 -0.2379032327 0.4274684004 0.0000122661 -0.2217758226
0.0260378247 0.6159638021 -0.2379032327 0.4272760053 0.0000394194 -0.2217786694
0.3153826586 0.2510095060 0.3749999486 0.4274193520 0.0000000000 -0.2217742016
-0.3008237806 0.1935483730 -0.2565884491 0.4290488358 -0.0077807414 -0.2298387172
-0.4752233566 0.3467741684 -0.1172577737 0.4274109246 0.0080642655 -0.2298399914
0.1121801733 0.3525735551 -0.0782292282 0.4268258924 0.0080419107 -0.2298800236
0.1053909399 0.4701872481 -0.2327210638 0.4270466021 -0.0001045403 -0.2217847258
-0.3053938448 0.3581350143 -0.1772101323 0.4270537150 0.0080486768 -0.2299900478
-0.4838709044 0.3338159193 -0.1508237713 0.4193548365 0.0000000000 -0.2298387172
0.2567389370 0.2258064352 0.3055157359 0.4273624891 0.0080592172 -0.2295596446
-0.1041031174 0.2258064352 0.0181159422 0.4274433843 0.0080608462 -0.2296075479
-0.4281531907 0.4193548083 -0.3497830230 0.4286172229 -0.0064237818 -0.2316712654
-0.0423967913 0.1935483730 -0.0732090431 0.4276058520 -0.0080432172 -0.2298387172
-0.4919354199 0.4347961781 0.1503955133 0.4353807869 -0.0000134597 -0.2298387172
0.4999999919 0.6585611699 -0.3526180470 0.4352737870 0.0000000000 -0.2308141607
-0.0185126640 0.3467741684 -0.0499881819 0.4277075698 0.0080554026 -0.2298584349
0.2403802043 0.0847541793 -0.3588709659 0.4269392956 -0.0016507015 -0.2219964032
0.3818193070 0.3537535227 -0.2873828340 0.4270630859 -0.0080561849 -0.2298387172
0.2013033846 0.2033317514 0.3749999486 0.4274114891 0.0005725161 -0.2223260323
-0.0466832829 0.6854838212 -0.3519515551 0.4274193520 0.0069242737 -0.2314932816
0.4919354764 0.4644076115 -0.3111060258 0.4354838676 0.0000000000 -0.2298387172
0.4999999919 0.1427353203 0.1289804181 0.4354808515 -0.0001305645 -0.2298889027
-0.2337082451 0.4447810564 -0.2298387172 0.4274198198 -0.0002591048 -0.2217797178
-0.4838709044 0.5968516099 -0.2523450220 0.4193548365 0.0000000000 -0.2298387172
-0.1778852573 0.1295997809 0.3749999486 0.4274193520 -0.0002443548 -0.2217807420
-0.4838709044 0.2974297123 -0.0895387758 0.4193548365 0.0000000000 -0.2298387172
-0.0786033693 0.2900415677 -0.3185483882 0.4274193520 0.0000000000 -0.2379032327
-0.4999999355 0.1362164337 0.2155829037 0.4193573849 -0.0001298710 -0.2299020720
-0.4256642312 0.2258064514 0.3533164744 0.4275122875 0.0080585962 -0.2295471930
0.4919354764 0.2850215438 0.1571894886 0.4354838676 0.0000000000 -0.2298387172
-0.4373807626 0.3473348700 -0.0903161709 0.4269081424 0.0080480397 -0.2298697736
0.1277721319 0.2258064352 0.1801815272 0.4273919811 0.0080601123 -0.2295827656
0.1653230565 0.7338709145 -0.2431883453 0.4274193520 0.0080645155 -0.2298387172
-0.4635340188 0.2258064352 -0.1857259785 0.4276652875 0.0080581446 -0.2297201124
-0.4086410792 0.6053741980 -0.3266129037 0.4274193520 0.0000000000 -0.2379032327
0.2950448616 0.1598524965 0.3749999486 0.4274193520 -0.0001287500 -0.2217776452
0.2354653982 0.3518278132 0.3689081829 0.4273608440 0.0077818220 -0.2280344834
-0.2408724946 0.2258064352 -0.2529677558 0.4274193520 -0.0080645155 -0.2298387172
-0.4877561702 0.0806451554 0.3497413617 0.4318635372 -0.0005087338 -0.2260057739
0.0080645438 0.3228813637 -0.0125363055 0.4354838676 0.0000000000 -0.2298387172
0.3778624524 0.2258064352 0.1058638472 0.4274193520 -0.0080645155 -0.2298387172
-0.4769797194 0.2258064352 0.1549821017 0.4275766343 0.0080582897 -0.2296116446
-0.4838709044 0.1122023467 0.0525196172 0.4337252548 -0.0025731853 -0.2298387172
-0.3376552295 0.6499740980 -0.3266129037 0.4274193520 0.0000000000 -0.2379032327
0.1206712614 0.2258064352 -0.0225838290 0.4273936020 0.0080609994 -0.2296134027
-0.4919354199 0.0377067150 0.3398841850 0.4337509967 -0.0034929352 -0.2304923623
0.4622936802 0.3946349875 -0.2379032327 0.4277538198 -0.0000796371 -0.2217851694
0.0568358144 0.2258064352 -0.2520439253 0.4274421020 0.0080619349 -0.2296665559
0.4351867708 0.2770394154 0.3749999486 0.4274193520 0.0000000000 -0.2217742016
0.1135258426 0.3526958696 0.2738062221 0.4268228843 0.0080404188 -0.2296864349
0.3766748396 0.2258064352 -0.1302855793 0.4272890053 0.0080586607 -0.2297052817
0.1380110585 0.6727695560 -0.3749999970 0.4268750698 -0.0004682258 -0.2344347733
-0.0249023409 0.2258064352 0.0558215766 0.4274264166 0.0080608865 -0.2296043866
0.1853711519 0.2258064352 -0.2859030115 0.4274663843 0.0080599188 -0.2297595801
0.4215543041 0.2731895850 -0.3185483882 0.4274193520 0.0000000000 -0.2379032327
0.3269022222 0.3955179390 -0.2316129832 0.4275693359 -0.0004810806 -0.2217956371
-0.2239284717 0.1935483730 0.0722190190 0.4281054649 -0.0079978785 -0.2298387172
0.4991607339 0.4516128704 -0.1647338187 0.4338243677 0.0021447015 -0.2289657898
0.3355602942 0.3548387162 -0.2691529401 0.4271913763 -0.0080599591 -0.2298387172
-0.0266970989 0.7338708500 -0.2593666989 0.4274193520 0.0080645155 -0.2298387172
0.1571796378 0.1039456054 0.3749999486 0.4273645456 -0.0004126371 -0.2217920162
-0.1636042664 0.1148488142 -0.3749999970 0.4276058036 -0.0009829999 -0.2378070714
-0.1646039598 0.2258064352 -0.3028492038 0.4274193520 -0.0080645155 -0.2298387172
-0.2839834270 0.4516128704 -0.3658773767 0.4272626504 0.0063746366 -0.2325489831
0.4973414115 0.3098508243 0.3266128553 0.4302281260 0.0002294919 -0.2312395719
-0.4838709044 0.1638614155 0.0962466543 0.4308480131 -0.0058869109 -0.2298387172
0.4999999919 0.2169950972 -0.3017000829 0.4351251902 0.0018130160 -0.2295128866
-0.0983773195 0.3767853114 -0.2362991361 0.4276535133 -0.0006228790 -0.2218121694
-0.1110855444 0.3521942083 0.2974329462 0.4280020052 0.0080347172 -0.2295520640
-0.1184563422 0.1935483730 0.2739937220 0.4276959085 -0.0080459914 -0.2298387172
-0.2680643878 0.3548620307 -0.2932162932 0.4272886827 0.0079931204 -0.2307381687
-0.3782892588 0.2258064352 -0.2179077745 0.4274193520 -0.0080645155 -0.2298387172
0.1188471002 0.3531796276 -0.2540608929 0.4277857230 -0.0080557252 -0.2298387172
-0.3878333227 0.3518391599 -0.2145060328 0.4268574972 0.0080431768 -0.2299733301
-0.4919354199 0.5868873203 -0.3530576599 0.4316833759 -0.0016730725 -0.2309205881
-0.4919354199 0.0342127233 0.3710671827 0.4325815210 -0.0012145725 -0.2267352739
-0.0849930221 0.3515682567 -0.0042990319 0.4280123520 0.0080424026 -0.2298455962
0.4753412518 0.3467741684 -0.0873588001 0.4275514649 0.0080603462 -0.2298568140
0.4999999919 0.1062929358 0.2845873503 0.4354799886 -0.0001976613 -0.2299351365
0.4999999919 0.0830048972 -0.1398807640 0.4354573192 -0.0006384677 -0.2298008220
0.3857082906 0.7338709145 -0.2486322481 0.4274193520 0.0080645155 -0.2298387172
0.0430696783 0.3467741684 0.1534526502 0.4270066585 0.0080516526 -0.2298032575
-0.2521714373 0.6854838212 -0.3556428129 0.4274193520 0.0076082172 -0.2305504913
0.0891576508 0.3504806117 0.2661122226 0.4268709166 0.0080443139 -0.2297244914
0.0080645438 0.3102436146 0.2063914528 0.4354838676 0.0000000000 -0.2298387172
-0.4713467601 0.7338709145 -0.2672892225 0.4274193520 0.0080645155 -0.2298387172
-0.3486539868 0.3552509823 -0.2017288079 0.4268326021 0.0080399672 -0.2300086204
0.1680535160 0.1935483730 -0.2117863717 0.4267932876 -0.0079912575 -0.2298387172
0.4838709608 0.1031042022 0.1167005722 0.4206113203 -0.0020848063 -0.2298387172
0.3702546546 0.3652472074 -0.2361764022 0.4275610375 -0.0008459999 -0.2218248629
0.0491122182 0.1935483730 0.2016717434 0.4272587230 -0.0080457172 -0.2298387172
-0.4999999355 0.5423045816 -0.3269847988 0.4194387800 0.0004882177 -0.2289205963
-0.0588507498 0.4193548083 -0.3622680785 0.4259762392 -0.0067696689 -0.2310070397
-0.4999999355 0.2534534171 -0.3719866907 0.4194089171 -0.0000285161 -0.2306107978
-0.4862859768 0.0806451554 -0.2425946840 0.4331967952 -0.0030585724 -0.2297815236
0.3071946108 0.2914975514 -0.3185483882 0.4274193520 0.0000000000 -0.2379032327
-0.4150179578 0.2258064352 -0.0924536949 0.4274193520 -0.0080645155 -0.2298387172
0.4151381594 0.7338709145 -0.2563792636 0.4274193520 0.0080645155 -0.2298387172
-0.4938505246 0.0000000000 -0.3592617401 0.4314517550 -0.0007830645 -0.2308903623
0.4999999919 0.0491884884 0.3334109516 0.4354512789 -0.0004320000 -0.2300631365
0.0549022823 0.5857470301 -0.3266129037 0.4274193520 0.0000000000 -0.2379032327
-0.2379748013 0.2258064352 0.3681355217 0.4274193520 -0.0080645155 -0.2298387172
-0.3926198465 0.2258064191 0.2781464556 0.4274193520 -0.0080645155 -0.2298387172
0.2126834483 0.3602377400 0.1345967322 0.4272067956 0.0080550559 -0.2297555720
0.4999999919 0.0513324963 -0.3745286341 0.4351996015 -0.0002980484 -0.2316784590
0.0867602961 0.3502626439 -0.0102425315 0.4268452876 0.0080437655 -0.2298472656
-0.4838709044 0.0920918804 -0.3262206134 0.4349150612 -0.0016570644 -0.2298387172
-0.3299901494 0.1935483730 -0.2588047635 0.4292351906 -0.0077437252 -0.2298387172
-0.4009062249 0.3467741684 -0.2998210105 0.4270986666 0.0080368139 -0.2302306526
0.4838709608 0.0989847589 0.3140778240 0.4204104735 -0.0020761934 -0.2298387172
-0.2941313214 0.4193548083 -0.3714347311 0.4274782714 -0.0062000802 -0.2340990637
0.3474826966 0.3564043693 -0.0456789564 0.4279375939 0.0080432172 -0.2298892252
0.2393513415 0.1935483730 -0.0417551905 0.4265142876 -0.0079586043 -0.2298387172
0.3324815041 0.2258064352 -0.1141432578 0.4274193520 -0.0080645155 -0.2298387172
0.4838709608 0.1211654509 0.2950098173 0.4216151428 -0.0034027094 -0.2298387172
0.3334640605 0.2258064352 0.0950537915 0.4274193520 -0.0080645155 -0.2298387172
0.4999999919 0.4196021147 0.3650637719 0.4353982386 -0.0003889032 -0.2292942253
0.4187771914 0.3998527855 -0.2351818297 0.4278268117 -0.0002524597 -0.2217925242
-0.4266887795 0.3483068457 -0.1296688293 0.4269092714 0.0080479672 -0.2298808382
-0.1523730010 0.1935483730 -0.3064412842 0.4283253439 -0.0078983704 -0.2298387172
-0.0686412329 0.4516128704 -0.3524428051 0.4255734651 0.0057137980 -0.2314387816
-0.0326235662 0.2258064514 0.3057836230 0.4274280698 0.0080598059 -0.2295666688
-0.4999999355 0.2247627176 0.0933393319 0.4194538446 0.0011270241 -0.2300630962
-0.4513819955 0.3467741684 0.0337905298 0.4270167876 0.0080512010 -0.2298350882
-0.3137158522 0.3575801918 0.1470797393 0.4270111182 0.0080477655 -0.2297465882
0.3846322826 0.2258064352 -0.2194010970 0.4274193520 -0.0080645155 -0.2298387172
-0.2625969447 0.7338709145 -0.2519594172 0.4274193520 0.0080645155 -0.2298387172
-0.4781254209 0.2258064352 0.3191777672 0.4274193520 -0.0080645155 -0.2298387172
-0.4948529278 0.0000000000 0.3743440051 0.4297626180 -0.0007864516 -0.2285383544
-0.0459564846 0.3480194828 -0.0150466844 0.4279624085 0.0080460155 -0.2298486123
0.4919354764 0.4448325564 0.0581103022 0.4194586268 0.0007653790 -0.2298387172
0.1343902685 0.1935483730 -0.1106636533 0.4269250214 -0.0080066688 -0.2298387172
0.4981576050 0.2463670063 -0.3749999970 0.4333179242 0.0013093951 -0.2318248219
0.4711447198 0.6854838212 -0.3549413371 0.4274193520 0.0070618301 -0.2288183705
-0.4168581835 0.5786828854 -0.2354768539 0.4269656988 0.0000283629 -0.2217877742
-0.0325177436 0.3467977974 0.1682802297 0.4279168601 0.0080489107 -0.2297993140
0.0989119807 0.2258064352 -0.1038686134 0.4274193520 -0.0080645155 -0.2298387172
-0.2645574526 0.0907028805 -0.3749999970 0.4277154569 -0.0012332499 -0.2377848779
0.4919354764 0.2406028454 -0.0787433088 0.4354838676 0.0000000000 -0.2298387172
-0.2738896777 0.5661904347 -0.3266129037 0.4274193520 0.0000000000 -0.2379032327
0.0409578720 0.1935483569 0.2694283917 0.4272906343 -0.0080494510 -0.2298387172
0.0298755341 0.2258064352 -0.2542402961 0.4274193520 -0.0080645155 -0.2298387172
-0.0483180328 0.2258064352 0.3332537500 0.4274193520 -0.0080645155 -0.2298387172
-0.0936661666 0.6352195265 -0.2323206767 0.4277869488 0.0001534677 -0.2217856452
0.4312158679 0.3488138940 0.1787647693 0.4279662714 0.0080455478 -0.2297976285
-0.0119701241 0.2903068096 -0.3749999970 0.4242937878 0.0023588305 -0.2345346281
-0.1866727808 0.0972116139 -0.3749999970 0.4276308601 -0.0012196773 -0.2377831844
-0.0517427664 0.7001766831 -0.3266129037 0.4274193520 0.0000000000 -0.2379032327
0.2205367380 0.5784276112 -0.2298387172 0.4273345617 0.0000767581 -0.2217775807
-0.1103821089 0.6633297260 -0.2308010478 0.4277591020 0.0002670080 -0.2217870887
0.4516540519 0.3467741684 -0.2127996862 0.4279233520 0.0080484349 -0.2299024914
-0.0861020542 0.1645111493 -0.3749999970 0.4275216262 -0.0003299113 -0.2378724182
0.0742054503 0.1908546716 0.3749999486 0.4274193520 -0.0000102903 -0.2217744758
0.4838709608 0.1009001701 -0.2348209830 0.4204749251 -0.0017127176 -0.2298387172
-0.3942105157 0.2258064352 0.1382196432 0.4274880778 0.0080588139 -0.2296136527
0.4297499970 0.3489604505 0.2649026905 0.4279591101 0.0080455075 -0.2297489753
-0.0028421974 0.3467741684 0.0144384344 0.4274650133 0.0080630317 -0.2298403301
0.4852526866 0.2226554516 -0.3749999970 0.4263879650 0.0049850238 -0.2357144587
-0.4043662166 0.3503361762 -0.3233628556 0.4278557552 -0.0080519107 -0.2298387172
-0.3191197389 0.6269210835 -0.3266129037 0.4274193520 0.0000000000 -0.2379032327
-0.3580920345 0.7182530527 -0.2355960152 0.4272095295 0.0008163064 -0.2218261533
0.1594990328 0.2258064352 -0.3592983691 0.4291097390 0.0062809350 -0.2330440799
0.3719960899 0.0806451554 0.3682988200 0.4271260779 -0.0005278709 -0.2351794426
0.2719750649 0.3614381996 0.0208580630 0.4275361827 0.0080598462 -0.2298382091
0.4602100916 0.7325094388 -0.3266129037 0.4274193520 0.0000000000 -0.2379032327
-0.1787954346 0.0809607844 0.3749999486 0.4276142553 -0.0005073145 -0.2217972258
0.0241935749 0.2370266118 -0.3414293623 0.4296053841 0.0063702415 -0.2309516445
-0.2992085630 0.3585473691 0.0237279176 0.4270852714 0.0080516526 -0.2298361285
-0.4838709044 0.1521769728 -0.2270154109 0.4322687146 -0.0049778464 -0.2298387172
-0.4838709689 0.0989920009 -0.0627132696 0.4346435451 -0.0017094031 -0.2298387172
-0.3749797026 0.3530076599 -0.3208537751 0.4277807230 -0.0080558543 -0.2298387172
0.4999999919 0.2217235404 -0.1581004643 0.4352329079 0.0016384434 -0.2296585559
-0.3998785960 0.1935483730 0.3145787756 0.4283110617 -0.0080047978 -0.2298387172
-0.0886444250 0.1935483730 -0.3563045387 0.4277765617 -0.0031480159 -0.2228794838
-0.1702025239 0.1935483730 0.1698617861 0.4278090214 -0.0080384188 -0.2298387172
0.4999999919 0.2189315970 -0.2686848918 0.4351279402 0.0018803950 -0.2295258946
-0.4999999355 0.4213559533 -0.1914157361 0.4194861671 -0.0007949919 -0.2295113059
0.4838709608 0.1853548011 0.3076640261 0.4251093683 -0.0073247414 -0.2298387172
0.0881568121 0.3503895794 0.0622127939 0.4268462311 0.0080437978 -0.2298275317
-0.3042003368 0.1935483730 0.1535967792 0.4282193117 -0.0079973785 -0.2298387172
0.3474260272 0.7338709145 -0.2434122727 0.4274193520 0.0080645155 -0.2298387172
-0.2050671262 0.3754655776 -0.3266129037 0.4274193520 0.0000000000 -0.2379032327
0.0402947350 0.1450465621 0.3669354330 0.4273962472 -0.0013009838 -0.2377684827
0.1502624205 0.2258064352 -0.0169016197 0.4273868359 0.0080608865 -0.2296115559
-0.1857300631 0.3594645868 0.0858222922 0.4276935698 0.0080530075 -0.2297910075
0.0080645438 0.2341874185 0.0109999347 0.4354838676 0.0000000000 -0.2298387172
0.2484693650 0.1180498705 0.3749999486 0.4273302311 -0.0004027419 -0.2217959920
0.3936497577 0.2374992489 0.3749999486 0.4274193520 0.0000000000 -0.2217742016
-0.4355212224 0.1935483730 -0.0877426549 0.4292502309 -0.0078171043 -0.2298387172
0.3596513005 0.1935483892 -0.0343285298 0.4260435296 -0.0079035156 -0.2298387172
-0.5000000000 0.4195703083 -0.2816453183 0.4194174736 -0.0006340322 -0.2293536527
0.3473615353 0.3564124338 0.1527003276 0.4279369085 0.0080427333 -0.2297426124
-0.0350658644 0.2175409439 0.3749999486 0.4274285940 0.0053060157 -0.2268970964
0.4919354764 0.6660237017 -0.2734069237 0.4354838676 0.0000000000 -0.2298387172
-0.4838709044 0.1934470827 -0.0517945366 0.4294188922 -0.0077950801 -0.2298387172
0.0080645438 0.2601080698 0.2457429983 0.4193548365 0.0000000000 -0.2298387172
0.0708338457 0.7338709145 -0.2469446998 0.4274193520 0.0080645155 -0.2298387172
-0.4999999355 0.0912096627 0.0625596245 0.4193705381 -0.0004599274 -0.2298638462
-0.4930278392 0.0030303466 -0.3266129037 0.4331661581 -0.0010124354 -0.2288886044
-0.4838709044 0.6207791807 -0.2595258441 0.4193548365 0.0000000000 -0.2298387172
-0.2042603199 0.1935483730 -0.0297846591 0.4282040778 -0.0079749026 -0.2298387172
0.0824307722 0.3498690553 0.2221839839 0.4268841424 0.0080457414 -0.2297652736
-0.3646437840 0.2258064352 0.2162473311 0.4274992149 0.0080593381 -0.2295696608
-0.0214853896 0.2258064352 -0.2745789075 0.4274193520 -0.0080645155 -0.2298387172
0.2126155370 0.1935483730 0.1286066681 0.4266189086 -0.0079708462 -0.2298387172
0.4838709608 0.1575136095 -0.2410330632 0.4235801104 -0.0054515964 -0.2298387172
0.4243922636 0.3017737604 0.3749999486 0.4274193520 0.0000000000 -0.2217742016
0.1767064348 0.1935483730 0.1703576409 0.4267594247 -0.0079872897 -0.2298387172
0.1789033217 0.5784943693 -0.2298387172 0.4272147472 0.0000769274 -0.2217800000
0.3271137625 0.3577622805 -0.1785087048 0.4278292391 0.0080463381 -0.2299909994
-0.4345655128 0.6660136694 -0.3266129037 0.4281162713 -0.0044894997 -0.2263184997
-0.4030194506 0.3313842663 0.3749999486 0.4274193520 0.0000000000 -0.2217742016
0.2196426978 0.1935483730 -0.2635706502 0.4265914086 -0.0079676285 -0.2298387172
0.0031406006 0.4771760138 -0.3266129037 0.4274193520 0.0000000000 -0.2379032327
0.2535598001 0.3626658608 -0.2123230894 0.4274382795 0.0080616365 -0.2300172252
-0.3569287443 0.3493475472 -0.2881510113 0.4269071666 0.0080219914 -0.2304171204
0.1811167973 0.1031573554 0.3749998841 0.4273341585 -0.0004546129 -0.2217968952
0.3542599622 0.1935483892 0.2924064707 0.4260646263 -0.0079059833 -0.2298387172
-0.4838709044 0.2494500383 0.1266867731 0.4193548365 0.0000000000 -0.2298387172
-0.3306268994 0.1014209523 -0.3749999970 0.4277872149 -0.0010042661 -0.2378115150
-0.2277707294 0.6984488041 -0.3266129037 0.4274193520 0.0000000000 -0.2379032327
0.0428670412 0.1935483730 0.3082698244 0.4272831666 -0.0080485801 -0.2298387172
-0.3799626216 0.4879062388 -0.3266129118 0.4274193520 0.0000000000 -0.2379032327
-0.2343968580 0.2258064352 -0.3542456436 0.4271209892 0.0065100318 -0.2330950960
0.2478536393 0.7338709790 -0.2698251982 0.4274193520 0.0080645155 -0.2298387172
-0.2373516481 0.2258064352 0.2763625606 0.4274719407 0.0080594107 -0.2295646446
0.2470733409 0.1341183128 -0.3588709659 0.4272613843 -0.0011813144 -0.2218675887
0.1281850754 0.1935483730 -0.2603735134 0.4269492956 -0.0080095075 -0.2298387172
-0.1451499290 0.3622300302 -0.2369592247 0.4274967875 -0.0009059032 -0.2218285404
0.4321318356 0.7338709145 -0.2994949218 0.4274193520 0.0080645155 -0.2298387172
-0.0164537770 0.1935483892 0.2707942062 0.4274729488 -0.0080609268 -0.2298387172
-0.0942798359 0.3524125389 -0.0477284401 0.4280113601 0.0080422897 -0.2298578059
0.4999999919 0.1804391966 0.3333174274 0.4354728998 0.0000000000 -0.2297085962
0.1964486027 0.4527997655 -0.2298387172 0.4272678762 -0.0002345887 -0.2217821694
0.3095034896 0.2258064352 -0.0845425100 0.4274193520 -0.0080645155 -0.2298387172
0.4810668643 0.1935483730 0.0978950090 0.4255684086 -0.0078479188 -0.2298387172
-0.4343973596 0.3640418284 -0.3266129037 0.4274193520 0.0000000000 -0.2379032327
-0.4883684283 0.0806451554 -0.1202644832 0.4309622066 -0.0049054351 -0.2298387172
-0.4838709044 0.5369430901 -0.2647576743 0.4193548365 0.0000000000 -0.2298387172
0.0730696842 0.1935483730 -0.3522909018 0.4271649730 -0.0038895239 -0.2238355805
-0.0446533395 0.1935483892 0.0666383016 0.4275345859 -0.0080567978 -0.2298387172
-0.4999998710 0.2607645375 -0.3294438713 0.4198398123 0.0022474837 -0.2293365721
0.0305925421 0.5263112199 -0.2379032327 0.4271893924 -0.0000185968 -0.2217816936
0.4919354764 0.2625682067 -0.3466295636 0.4240614329 0.0047232980 -0.2306709268
-0.4082066357 0.4516265882 -0.2346903620 0.4270149247 -0.0000953790 -0.2217857339
-0.4838708399 0.0826308246 0.2751802220 0.4353649402 -0.0005085806 -0.2298387172
0.3467218337 0.7153783674 -0.3266129037 0.4274193520 0.0000000000 -0.2379032327
0.3134758603 0.1935483730 0.0938070013 0.4262242231 -0.0079246607 -0.2298387172
-0.1369496876 0.2258064352 0.3466229748 0.4274193520 -0.0080645155 -0.2298387172
-0.1154968102 0.4706506997 -0.2303360720 0.4277453198 -0.0001665081 -0.2217842420
-0.0716781924 0.1935483730 -0.0047714432 0.4277140698 -0.0080308623 -0.2298387172
0.1670325322 0.1935483730 0.0676922935 0.4267972795 -0.0079917172 -0.2298387172
-0.4006963620 0.3752513760 -0.3266129037 0.4274193520 0.0000000000 -0.2379032327
0.2072850051 0.3598521190 -0.0680896241 0.4271760456 0.0080539914 -0.2299064752
-0.1337130346 0.3557490710 -0.0611732859 0.4279898197 0.0080409914 -0.2299010398
-0.2896953217 0.2258064352 -0.0701082772 0.4274193520 -0.0080645155 -0.2298387172
0.4689333652 0.4299887349 -0.3749999970 0.4264148924 -0.0012113467 -0.2350991926
-0.1822062085 0.2258064352 0.0869868163 0.4274193520 -0.0080645155 -0.2298387172
0.4486660199 0.4497831690 -0.3749999970 0.4262814005 0.0062665802 -0.2333342411
-0.1439887839 0.3564830306 -0.1615148834 0.4279312310 0.0080424188 -0.2299778946
-0.4174783770 0.2006893483 -0.3749999970 0.4274193520 0.0000000000 -0.2379032327
-0.2894759185 0.3591962078 -0.0794921233 0.4271350375 0.0080526849 -0.2299152333
-0.1599540327 0.3576234095 0.1712230843 0.4278403439 0.0080464268 -0.2297291043
0.4402768995 0.5310509211 -0.3266129037 0.4274193520 0.0000000000 -0.2379032327
0.4999999919 0.4485550239 -0.2644489405 0.4353037224 0.0010876128 -0.2289774511
0.2971213776 0.5088346808 -0.2298387172 0.4275459891 -0.0000989113 -0.2217788549
-0.1849826277 0.3594111836 -0.2170219278 0.4276977552 0.0080512333 -0.2300206043
-0.1030323514 0.3532082082 0.2743518107 0.4280269326 0.0080395236 -0.2296785317
0.4254672473 0.2258064352 -0.1645720042 0.4274193520 -0.0080645155 -0.2298387172
-0.0520498793 0.6404573567 -0.2361039748 0.4278617391 0.0000861855 -0.2217873065
-0.4999999355 0.6820845553 -0.3487416279 0.4199005703 0.0021298708 -0.2293427172
0.1313369380 0.4228126145 -0.3749999970 0.4285608439 -0.0057079351 -0.2337124911
0.4692712119 0.2258064352 0.1005099524 0.4274193520 -0.0080645155 -0.2298387172
0.4021603297 0.0806688651 -0.3749999970 0.4269592714 -0.0008082983 -0.2378356360
-0.3654848001 0.3324008226 0.3749999486 0.4274193520 0.0000000000 -0.2217742016
0.4919354764 0.3967451889 -0.3321991775 0.4238762071 -0.0056058383 -0.2281019673
-0.2227535443 0.3621090947 -0.2254797417 0.4274826666 0.0080597414 -0.2300272817
-0.4622720914 0.7023505619 -0.2379032327 0.4272235537 0.0000538468 -0.2217802984
-0.2970441518 0.4719483125 -0.2298387172 0.4272573279 -0.0001890887 -0.2217813307
-0.3154149892 0.3573979176 -0.2305982010 0.4270038601 0.0080460155 -0.2300353704
-0.4999999355 0.5629416608 -0.3457297491 0.4193952720 0.0000645081 -0.2297200317
-0.4272339166 0.2258064352 0.1654867299 0.4274193520 -0.0080645155 -0.2298387172
0.2069301584 0.1935483730 -0.1648028832 0.4266411586 -0.0079734510 -0.2298387172
-0.0144764385 0.4194151067 -0.3185634607 0.4241435216 -0.0027965321 -0.2231654274
0.3882960242 0.6750424994 -0.3749999970 0.4256166425 0.0019960482 -0.2339500072
0.4287437310 0.2258064352 0.0062832415 0.4274193520 -0.0080645155 -0.2298387172
0.1553688799 0.1935483730 -0.1732009471 0.4268429247 -0.0079970639 -0.2298387172
0.0501612020 0.3469354345 0.0097314186 0.4268836989 0.0080466688 -0.2298416527
0.0079362615 0.2120205975 0.3749999486 0.4274193762 0.0034671288 -0.2251224917
-0.2458867846 0.6769024751 -0.3266129037 0.4274193520 0.0000000000 -0.2379032327
-0.0785747322 0.7042206908 -0.2368154425 0.4277477230 0.0005110403 -0.2218097097
-0.4392996738 0.1813108578 -0.3749999970 0.4274782149 -0.0001236129 -0.2378924424
-0.1087961171 0.3537321759 -0.1556619645 0.4280381181 0.0080391768 -0.2299566769
0.0208753412 0.6004221096 -0.3266129037 0.4302763922 -0.0023913063 -0.2239275402
-0.4999999355 0.6137905925 -0.3445496121 0.4194357075 0.0000000000 -0.2299515640
-0.1249207772 0.2258064352 -0.1153463949 0.4274478440 0.0080613623 -0.2296269027
0.2796575563 0.2258064352 0.1350527725 0.4274193520 -0.0080645155 -0.2298387172
-0.2657315815 0.3091266469 -0.3185483882 0.4274193520 0.0000000000 -0.2379032327
-0.4434089638 0.1935483730 0.2928545675 0.4284209568 -0.0079957333 -0.2298387172
-0.1821276360 0.2258064352 -0.2341660314 0.4274193520 -0.0080645155 -0.2298387172
0.4125971918 0.3501859262 -0.2352266603 0.4279784488 0.0080412494 -0.2300036527
0.0080645115 0.4806891667 -0.3023947361 0.4354838676 0.0000000000 -0.2298387172
-0.4838709044 0.2395932084 0.0350121910 0.4193548365 0.0000000000 -0.2298387172
-0.0097581807 0.5255037361 -0.3749999970 0.4252254732 0.0016685725 -0.2364190232
-0.3133087877 0.2258064352 -0.0168521681 0.4274437875 0.0080592333 -0.2296599914
0.1660943307 0.6739478059 -0.3266129037 0.4274193520 0.0000000000 -0.2379032327
-0.3262796174 0.1056595085 0.3669354330 0.4280794810 -0.0013240886 -0.2377034989
0.4999999919 0.0813619054 -0.3745117148 0.4350762466 -0.0000076452 -0.2323507493
0.4109609016 0.1935483730 -0.0688563982 0.4258427473 -0.0078800236 -0.2298387172
0.0928672554 0.6854838212 -0.3708726021 0.4274193520 0.0062994270 -0.2342223459
0.0771499662 0.2258064352 0.0889197032 0.4274193520 -0.0080645155 -0.2298387172
-0.4919354199 0.4875335372 -0.3381123787 0.4321981662 0.0031738546 -0.2277691609
-0.1990920864 0.6361971958 -0.2298387172 0.4275194407 0.0002243629 -0.2217810968
0.4919354764 0.3420830719 -0.0326463363 0.4354838676 0.0000000000 -0.2298387172
0.3074489495 0.2258064352 0.2411588131 0.4274193520 -0.0080645155 -0.2298387172
-0.3144445860 0.6854838212 -0.3501049020 0.4274193520 0.0075185801 -0.2292188624
-0.3864697502 0.2258064352 -0.1803485111 0.4275764327 0.0080586526 -0.2297152656
-0.0257662522 0.6761475961 -0.3749999970 0.4269091505 0.0008353628 -0.2343554507
-0.1592267183 0.2550043121 -0.3185483882 0.4274193520 0.0000000000 -0.2379032327
-0.4115876838 0.6612902746 -0.3630925301 0.4299659809 -0.0058279431 -0.2326940234
-0.4233289572 0.3486122973 0.1387857561 0.4268956343 0.0080471365 -0.2298071607
0.4401136414 0.3935215843 -0.3266129037 0.4274193520 0.0000000000 -0.2379032327
0.2063435697 0.1241043136 0.3749999486 0.4274059730 -0.0002825000 -0.2217834194
-0.0779709661 0.2258064352 0.0780431072 0.4274377875 0.0080606607 -0.2295993866
-0.1496467190 0.3568525386 0.2786070766 0.4278981585 0.0080431204 -0.2296494269
-0.4863569203 0.2258064191 -0.3432373138 0.4274167714 0.0080644752 -0.2298376124
-0.1519393559 0.2258064352 -0.1335007000 0.4274193520 -0.0080645155 -0.2298387172
0.1370612925 0.3548354259 -0.0632676970 0.4267763763 0.0080380801 -0.2299025236
0.2535979937 0.3626633366 0.0446341177 0.4274384811 0.0080635478 -0.2298209349
-0.4717981230 0.1935483730 0.1164272335 0.4289222390 -0.0079113946 -0.2298387172
-0.0725720310 0.2258064352 -0.0570850604 0.4274366343 0.0080612494 -0.2296198140
0.4999999919 0.3043016392 -0.3473032893 0.4353512870 0.0003252258 -0.2298307414
0.1325237686 0.7338708500 -0.3265521940 0.4274193520 0.0080645155 -0.2298387172
-0.0136111805 0.3467741684 0.3498789988 0.4275093440 0.0080618462 -0.2298255156
-0.1454895015 0.1791124386 0.3749999486 0.4274193520 -0.0000551613 -0.2217756775
-0.5000000000 0.1501850375 -0.1263731521 0.4193628365 -0.0002224919 -0.2298387172
-0.2405643656 0.1935483730 0.2072414769 0.4279628197 -0.0080281204 -0.2298387172
-0.2558363161 0.2258064352 0.0633005680 0.4274759004 0.0080602655 -0.2295960075
0.3161616827 0.1935483730 0.1631249720 0.4262137150 -0.0079234349 -0.2298387172
0.4242775700 0.3495077085 -0.0641966970 0.4279918681 0.0080438543 -0.2298618140
-0.2087831340 0.3611112157 -0.0832339133 0.4275622553 0.0080578623 -0.2299181043
0.0080645115 0.2822691811 0.0825772117 0.4193548365 0.0000000000 -0.2298387172
-0.1931838529 0.7338709145 -0.3077333567 0.4274193520 0.0080645155 -0.2298387172
0.4999999919 0.1366720707 0.2631736744 0.4354813353 -0.0001288387 -0.2299015640
-0.4309287550 0.1935483730 -0.1801579224 0.4295623922 -0.0077155478 -0.2298387172
0.0556392258 0.7286988019 -0.3266129037 0.4274193520 0.0000000000 -0.2379032327
-0.3262695287 0.5770503855 -0.3266129037 0.4274193520 0.0000000000 -0.2379032327
-0.4424878429 0.5089228744 -0.2378068295 0.4269044650 -0.0000332500 -0.2217910000
0.4919354764 0.2892795758 -0.2052343641 0.4354838676 0.0000000000 -0.2298387172
-0.2210577219 0.7232491330 -0.3266129037 0.4274193520 0.0000000000 -0.2379032327
-0.2276514875 0.1935483730 -0.3374469674 0.4288595455 -0.0060371528 -0.2273058706
0.1010800854 0.1800553014 0.3669354330 0.4272948682 -0.0019042660 -0.2376043699
0.2051282069 0.2258064352 0.3168889447 0.4273742875 0.0080593139 -0.2295596769
-0.2869547090 0.3593642642 -0.0319599574 0.4271479327 0.0080536123 -0.2298787414
0.4838709608 0.0863996873 -0.1965972599 0.4196824171 -0.0008050725 -0.2298387172
0.1918584578 0.6412837922 -0.2298387172 0.4272525859 0.0002373064 -0.2217827097
0.3449371887 0.1935483730 0.2205040404 0.4261011102 -0.0079102575 -0.2298387172
-0.1566274927 0.1935483730 -0.0164303859 0.4280280294 -0.0079950075 -0.2298387172
0.2352463337 0.7129487144 -0.3266129037 0.4274193520 0.0000000000 -0.2379032327
0.4838709608 0.1796927773 -0.3447533943 0.4263578844 -0.0042110884 -0.2253890643
-0.4838709044 0.0997931782 0.2977084058 0.4343573596 -0.0016292983 -0.2298387172
0.3971722978 0.1935483730 0.2152590166 0.4258967070 -0.0078863381 -0.2298387172
-0.3755042268 0.3529600066 -0.1828381641 0.4268363601 0.0080417655 -0.2299659107
-0.1040281094 0.1935483730 -0.1660186250 0.4278336343 -0.0080172091 -0.2298387172
-0.4838709044 0.3603156029 -0.2730028995 0.4194164494 -0.0008669193 -0.2298387172
-0.4838709044 0.4112907847 -0.2654399404 0.4193548365 0.0000000000 -0.2298387172
-0.2110596500 0.1935483730 0.3270928956 0.4278892310 -0.0079695559 -0.2299290640
0.3013936354 0.3594769578 0.0129180313 0.4276925778 0.0080535397 -0.2298442817
0.4196871591 0.4414956776 -0.2347106604 0.4278479568 -0.0001162903 -0.2217875404
-0.3620946390 0.5121049548 -0.3266129037 0.4274193520 0.0000000000 -0.2379032327
-0.4999999355 0.1279217891 -0.1701346489 0.4193684252 -0.0003538548 -0.2298296124
0.0160907287 0.1935483730 -0.2984908170 0.4273879408 -0.0080608381 -0.2298387172
0.0421149284 0.3821911658 -0.3266129037 0.4274193520 0.0000000000 -0.2379032327
0.4771057920 0.1935483730 0.0313376187 0.4255839086 -0.0078497333 -0.2298387172
-0.1163200520 0.3505809262 0.3204137267 0.4279635052 0.0080297010 -0.2294099672
-0.1295049382 0.7338709145 -0.2849547051 0.4274193520 0.0080645155 -0.2298387172
-0.0009224798 0.1935483730 -0.1897288007 0.4274525698 -0.0080607252 -0.2298387172
0.4195644816 0.3499790069 -0.1868286719 0.4279759568 0.0080442897 -0.2299230801
0.1380362521 0.3864178510 -0.2326512250 0.4271865456 -0.0005536209 -0.2218027984
0.3072552479 0.2258064352 0.2079883317 0.4274193520 -0.0080645155 -0.2298387172
0.2257156328 0.3611685867 0.0912207353 0.4272810295 0.0080583946 -0.2297870882
0.0124233580 0.1935483569 -0.1042018957 0.4274022956 -0.0080625236 -0.2298387172
-0.2425197042 0.2765621170 -0.3185483962 0.4274193520 0.0000000000 -0.2379032327
0.4919354764 0.2894004145 0.2894586322 0.4354803434 0.0000000000 -0.2297539107
0.4014491604 0.2678065289 0.3749999486 0.4274193520 0.0000000000 -0.2217742016
0.3720774044 0.1067575487 0.3669354330 0.4271583924 -0.0006973548 -0.2378408456
-0.1426103243 0.6022409160 -0.3266129037 0.4274193520 0.0000000000 -0.2379032327
-0.1744677252 0.1935483730 0.3513909745 0.4275347553 -0.0045717174 -0.2345639507
-0.0722987891 0.6642696776 -0.3749999970 0.4266743118 -0.0054184835 -0.2332746282
-0.3744599769 0.3964680761 -0.3266128956 0.4274193520 0.0000000000 -0.2379032327
0.1979705461 0.1935483730 0.0595567134 0.4266762150 -0.0079775559 -0.2298387172
-0.4838709044 0.3119083645 0.3699780860 0.4202460219 0.0000000000 -0.2276872093
-0.3145775457 0.1935483730 -0.3229441540 0.4293771422 -0.0076876849 -0.2298387172
-0.2216642621 0.2258064352 0.2230307903 0.4274193520 -0.0080645155 -0.2298387172
-0.4999999355 0.2745647543 -0.3495900553 0.4195506994 0.0007213790 -0.2298904269
0.0972284728 0.2258064191 -0.0798166071 0.4273989649 0.0080613059 -0.2296227656
0.0293798406 0.3467741684 0.1328100629 0.4272270859 0.0080588139 -0.2298105156
-0.1965494011 0.7221339557 -0.2359470796 0.4274722149 0.0009945161 -0.2218456533
0.0997034081 0.2685138434 0.3749999486 0.4274193520 0.0000000000 -0.2217742016
0.3070129334 0.2258064352 0.3233507346 0.4273509891 0.0080590075 -0.2295552898
0.3757435010 0.5096865275 -0.2303162897 0.4277514004 -0.0000766210 -0.2217826533
0.4489794876 0.2258064352 0.1810356482 0.4274193520 -0.0080645155 -0.2298387172
0.1188716809 0.3531818453 -0.1257968941 0.4268126102 0.0080404188 -0.2299255559
-0.1629960648 0.1935483730 0.2609228520 0.4277932714 -0.0080394752 -0.2298387172
-0.4999999355 0.4481881368 0.2430720953 0.4194983365 0.0009789999 -0.2298387172
-0.0696075151 0.4522555881 -0.2345078217 0.4278251746 -0.0000987500 -0.2217858629
0.4063114020 0.1370757562 0.3669354330 0.4268776263 -0.0020406531 -0.2373332166
-0.3742486946 0.4516128704 -0.3342287580 0.4304059970 0.0056732012 -0.2270720238
-0.1444334452 0.1935483730 -0.0434539162 0.4279829649 -0.0080001526 -0.2298387172
-0.2702030167 0.2258064352 -0.1619312544 0.4274193520 -0.0080645155 -0.2298387172
0.4391472947 0.3849369801 -0.2379032327 0.4277456101 -0.0002263145 -0.2217938307
0.3304811010 0.1935483730 -0.1220061766 0.4261576828 -0.0079168785 -0.2298387172
-0.4999999355 0.4469455240 -0.0840775181 0.4197080703 0.0020122418 -0.2296398704
-0.3387205762 0.1935483730 -0.3100598727 0.4294772229 -0.0076740801 -0.2298387172
-0.3996514992 0.2258064352 0.3427367171 0.4274193520 -0.0080645155 -0.2298387172
-0.0471097587 0.5534295969 -0.2365530715 0.4279178117 0.0000047177 -0.2217900484
0.2816217417 0.1935483730 -0.1273058133 0.4263488763 -0.0079392494 -0.2298387172
-0.1051053351 0.4020513740 -0.2314764913 0.4277512149 -0.0003125403 -0.2217884758
0.1081452139 0.5671216524 -0.2324706767 0.4270349327 0.0000175403 -0.2217839839
0.4794050257 0.4537287009 -0.2379032327 0.4274885778 -0.0000164839 -0.2217764758
-0.4999999355 0.1808759062 -0.3083668647 0.4193580300 -0.0000749355 -0.2298334430
-0.4838709044 0.4992944315 -0.3094108646 0.4193548365 0.0000000000 -0.2298387172
0.2870201364 0.1080358389 -0.3588709659 0.4269961021 -0.0015288709 -0.2219636452
-0.1660253710 0.7338709145 -0.3216127992 0.4274193520 0.0080645155 -0.2298387172
-0.0097913178 0.1935483730 0.1804152046 0.4274583843 -0.0080619026 -0.2298387172
0.0080645438 0.2893594387 -0.1195821284 0.4354838676 0.0000000000 -0.2298387172
-0.3680271709 0.5152690594 -0.2310376687 0.4270851182 -0.0000448468 -0.2217820162
-0.1095510525 0.1935483730 -0.3110090097 0.4280805213 -0.0079436607 -0.2298387172
0.1295323737 0.2258064352 0.2730470608 0.4273915779 0.0080597091 -0.2295687817
-0.0017013910 0.6511256463 -0.3749999970 0.4266891424 -0.0024437740 -0.2359719990
-0.3815086215 0.2258064352 -0.0845997922 0.4275416262 0.0080587494 -0.2296844269
0.1982177155 0.1935483569 0.1030948070 0.4266752473 -0.0079774430 -0.2298387172
0.1875034017 0.3584391433 0.1003643476 0.4270633682 0.0080496204 -0.2297804430
-0.3682955499 0.1248272248 -0.3588709659 0.4277375133 -0.0013930160 -0.2219723468
0.1539886703 0.2258064352 0.1599561900 0.4274193520 -0.0080645155 -0.2298387172
-0.4838709044 0.2775729153 0.0002031532 0.4193548365 0.0000000000 -0.2298387172
0.0094811808 0.3467741684 0.2106525895 0.4274193520 0.0080645155 -0.2298387172
-0.4673989217 0.1935483569 0.3073281470 0.4284771020 -0.0079915478 -0.2298387172
-0.4361314482 0.7338709145 -0.2991668896 0.4274193520 0.0080645155 -0.2298387172
0.2718129117 0.2258064191 -0.1995213081 0.4274193520 -0.0080645155 -0.2298387172
0.4721400988 0.0998560169 -0.3588709659 0.4265354408 -0.0020329757 -0.2221048548
0.4188135382 0.4869800937 -0.3266129037 0.4274193520 0.0000000000 -0.2379032327
0.1173748423 0.2258064352 0.2528249252 0.4274193520 -0.0080645155 -0.2298387172
0.2198806413 0.6288334786 -0.2298387172 0.4273326746 0.0002055484 -0.2217804113
0.1278893415 0.1871693816 0.3669354330 0.4271848521 -0.0023311934 -0.2374311360
0.3058293367 0.1878894864 0.3669354330 0.4267679408 -0.0033929272 -0.2369193699
-0.2555119452 0.3614604415 0.1207945719 0.4273086988 0.0080594188 -0.2297656043
-0.0928482231 0.2963614704 0.3749999486 0.4274193520 0.0000000000 -0.2217742016
0.3938545964 0.3795222305 -0.2360779990 0.4276793682 -0.0005922661 -0.2218116533
-0.3347761168 0.3561762000 0.0603524795 0.4269034166 0.0080443623 -0.2298095156
0.4999999919 0.1424358929 0.3520536841 0.4354460853 0.0000000000 -0.2293651285
-0.4838709044 0.3314510808 -0.2667363193 0.4193548365 0.0000000000 -0.2298387172
0.2728301858 0.1935483730 0.2574691668 0.4263832795 -0.0079432736 -0.2298387172
0.0272584375 0.2258064352 0.1677100846 0.4274193520 -0.0080645155 -0.2298387172
0.4267199085 0.1935483892 0.2433427001 0.4257810780 -0.0078728059 -0.2298387172
-0.0015117620 0.1093059840 0.3750000131 0.4274193520 -0.0003218951 -0.2217828145
0.1237315112 0.1935483730 0.1232999023 0.4269667230 -0.0080115478 -0.2298387172
-0.0927065215 0.0806451554 0.3687882071 0.4276837230 -0.0006639112 -0.2341495959
0.2803871046 0.3608774093 0.2693027546 0.4275808601 0.0080559672 -0.2296578301
0.4058255068 0.1935483730 -0.1816168497 0.4258628441 -0.0078823704 -0.2298387172
0.2807778466 0.3352799031 0.3749999486 0.4274193520 0.0000000000 -0.2217742016
0.3528617123 0.4669374016 -0.3266129037 0.4274193520 0.0000000000 -0.2379032327
0.1700625885 0.3548386839 -0.2457092886 0.4276475617 -0.0080599510 -0.2298387172
0.1398689697 0.3539141759 0.2905733176 0.4268184327 0.0080350478 -0.2295792011
-0.3087770542 0.6612902746 -0.3462412087 0.4278608036 -0.0073869108 -0.2295604914
-0.3592538570 0.2258064352 0.0152401521 0.4274860053 0.0080589591 -0.2296515882
0.4999999919 0.0998919202 -0.1122482177 0.4354640531 -0.0005099274 -0.2298230962
0.2138199966 0.2256688868 -0.3749999970 0.4296198519 0.0055648383 -0.2343374911
0.0120973580 0.2258064352 -0.1570971821 0.4274193520 -0.0080645155 -0.2298387172
-0.4999998710 0.0885954936 -0.2250480804 0.4193836510 -0.0006479838 -0.2297805156
-0.4598136400 0.7338709145 -0.2451532564 0.4274193520 0.0080645155 -0.2298387172
0.0085241566 0.3083601389 -0.3185483882 0.4275265859 0.0047319755 -0.2263521529
0.4083785550 0.2258064352 -0.2764570686 0.4274193520 -0.0080645155 -0.2298387172
-0.4799965902 0.7338709145 -0.3196540978 0.4274193520 0.0080645155 -0.2298387172
0.0022528184 0.5996325855 -0.3749999970 0.4266592150 0.0008624596 -0.2375252408
-0.4838709044 0.3209949364 -0.0912737595 0.4193548365 0.0000000000 -0.2298387172
-0.3612741714 0.3491057489 0.3348527821 0.4269276585 0.0080278784 -0.2293202253
-0.2483460344 0.6605782827 -0.2298387172 0.4273819569 0.0002866613 -0.2217811533
-0.4030914990 0.3485903295 0.2987049622 0.4269246101 0.0080409510 -0.2295931124
-0.1246298176 0.2258064352 -0.0154745311 0.4274477875 0.0080609349 -0.2296119430
-0.2250588506 0.1935483730 0.1143477982 0.4280149972 -0.0080146768 -0.2298387172
-0.1390606875 0.3548386839 -0.2686212870 0.4271486827 -0.0080591043 -0.2298387172
-0.2791677418 0.6854838212 -0.3515640874 0.4274193520 0.0077297333 -0.2297105156
-0.0550055000 0.5203106397 -0.2358352813 0.4278881181 -0.0000236532 -0.2217885081
-0.4838709044 0.1618821092 -0.3500725794 0.4303299728 -0.0018592015 -0.2242411128
0.2338464951 0.2258064352 -0.2863672453 0.4274193520 -0.0080645155 -0.2298387172
0.1786592572 0.3578074095 -0.0878704614 0.4270129972 0.0080472978 -0.2299216285
0.0916892877 0.6812261280 -0.2339666685 0.4270232069 0.0002256774 -0.2217882581
0.0481385489 0.2258064352 -0.0604241005 0.4274193520 -0.0080645155 -0.2298387172
0.0640479268 0.2258064352 0.3278118391 0.4274065537 0.0080596607 -0.2295627656
-0.1515855737 0.2258064191 -0.2816109392 0.4274193520 -0.0080645155 -0.2298387172
-0.4838709044 0.1751750357 0.1270746682 0.4300791341 -0.0066659834 -0.2298387172
-0.2887412815 0.2258064352 -0.1791866483 0.4274193520 -0.0080645155 -0.2298387172
0.3402292616 0.4217191549 -0.3749999970 0.4273360779 -0.0050611448 -0.2351165394
-0.1133168345 0.6895871435 -0.2312181364 0.4277401020 0.0003893629 -0.2217929275
0.1589815248 0.1935483730 -0.1213783622 0.4268287876 -0.0079954107 -0.2298387172
0.4212195138 0.3467741684 0.3495295230 0.4276889649 0.0080439026 -0.2295485962
0.4919354764 0.2495840867 0.0604697214 0.4354838676 0.0000000000 -0.2298387172
-0.0795126273 0.4253127836 -0.3749999970 0.4259541263 -0.0050370964 -0.2338693217
-0.4999999355 0.1909066313 0.2574131426 0.4193549575 -0.0000059839 -0.2298416365
0.4482821973 0.3471072167 0.2062780818 0.4279439568 0.0080471365 -0.2297905075
-0.2807633949 0.6960768688 -0.2316042251 0.4273334488 0.0005035564 -0.2217965162
0.3712684851 0.6854838212 -0.3537372082 0.4274193520 0.0074434591 -0.2293937898
-0.4489261892 0.1342919499 -0.3749999970 0.4277043762 -0.0005985483 -0.2378509908
-0.2329348420 0.1935483730 0.1383339335 0.4279902149 -0.0080211930 -0.2298387172
0.4999999919 0.2055791544 -0.0155288134 0.4354658757 0.0002173468 -0.2298387172
-0.3568539862 0.4479122175 -0.2300219269 0.4271138521 -0.0002273790 -0.2217847258
-0.4714607682 0.3231287346 -0.3185483801 0.4274193520 0.0000000000 -0.2379032327
-0.1111145927 0.6576653313 -0.3266129037 0.4274193520 0.0000000000 -0.2379032327
0.0732422084 0.3490337005 0.1935838166 0.4268989811 0.0080471365 -0.2297925882
0.0080645438 0.5002976330 -0.2832373746 0.4193548365 0.0000000000 -0.2298387172
0.0572142418 0.3467741684 0.2871352937 0.4269530779 0.0080476446 -0.2297064672
0.4112479419 0.1116859354 0.3749999486 0.4271187714 -0.0006981532 -0.2218300323
-0.4769500017 0.2725017705 0.3749999486 0.4266106908 0.0000000000 -0.2221091613
-0.1100031573 0.4438772178 -0.2308354913 0.4277521262 -0.0002151855 -0.2217855081
-0.4209674735 0.6344828572 -0.3266129037 0.4274193520 0.0000000000 -0.2379032327
0.3172527310 0.2258064352 -0.3731756987 0.4282375617 0.0057290883 -0.2345890394
0.4919354764 0.3602175303 -0.2577453119 0.4354838676 0.0000000000 -0.2298387172
-0.1656384194 0.3776567226 -0.2346320152 0.4274809972 -0.0007100564 -0.2218117178
-0.2845692898 0.4318583396 -0.3216742670 0.4282806262 -0.0008555967 -0.2249254837
-0.1676104999 0.2258064352 0.2573354652 0.4274569972 0.0080596688 -0.2295696930
-0.4369864320 0.1935483892 0.2647121663 0.4284604407 -0.0079869026 -0.2298387172
-0.0832602238 0.3514107164 -0.1472745700 0.4279873117 0.0080433301 -0.2299154107
-0.2411778494 0.2258064352 0.3434243460 0.4274727553 0.0080591123 -0.2295544672
0.3864227986 0.3532931760 -0.0922898804 0.4280349165 0.0080401446 -0.2299012333
-0.2283637939 0.3625098205 0.0311253203 0.4274507230 0.0080631688 -0.2298307494
0.3026933853 0.6201219389 -0.3266129037 0.4274193520 0.0000000000 -0.2379032327
0.1117349959 0.3525330712 -0.1743200599 0.4268268440 0.0080411123 -0.2299529591
-0.3942644109 0.1935483730 -0.0420436582 0.4289063035 -0.0078947172 -0.2298387172
-0.2651248558 0.2258064352 -0.3196037107 0.4273145214 0.0080628220 -0.2297937898
-0.4999999355 0.1001600008 0.1692491571 0.4193637800 -0.0003096129 -0.2299040962
-0.2404482608 0.1599783029 0.3669354330 0.4275764730 -0.0019099515 -0.2376132328
0.3673731870 0.5364899369 -0.3266129037 0.4274193520 0.0000000000 -0.2379032327
-0.4999999355 0.1788259951 0.0605452779 0.4193554897 -0.0000333468 -0.2298549833
0.3316921574 0.3906479797 -0.3266129037 0.4274193520 0.0000000000 -0.2379032327
-0.3240651257 0.3548386839 -0.2840115762 0.4276504488 -0.0080600720 -0.2298387172
-0.4258646183 0.2258064352 -0.2999918089 0.4274193520 -0.0080645155 -0.2298387172
-0.4818037674 0.1935483730 -0.3520775148 0.4288445697 -0.0033139433 -0.2237662418
-0.4838709044 0.5106528097 -0.2523157559 0.4193548365 0.0000000000 -0.2298387172
0.4150010465 0.1935483569 -0.0398668519 0.4258269409 -0.0078781688 -0.2298387172
0.4730815020 0.1935483730 -0.3225893717 0.4255996586 -0.0078515801 -0.2298387172
0.3402457535 0.6860028696 -0.2299252252 0.4276578520 0.0003577661 -0.2217872339
0.4999999919 0.4278514286 0.2535153526 0.4352826902 -0.0011434757 -0.2301102252
0.0328868404 0.4206797114 -0.3188796220 0.4309645534 -0.0028428788 -0.2235967499
0.1093262300 0.3523140954 0.2245528547 0.4268311263 0.0080414914 -0.2297277091
0.3107755944 0.3533256356 0.3390101286 0.4276476262 0.0080204510 -0.2291680801
-0.2376907852 0.5954950616 -0.3266129118 0.4274193520 0.0000000000 -0.2379032327
-0.1867750389 0.4525637736 -0.2298387172 0.4275531020 -0.0002366210 -0.2217818791
-0.2970872163 0.1361906191 -0.3588709659 0.4276664972 -0.0016471289 -0.2220288468
0.1794120717 0.1935483730 0.2072274850 0.4267488360 -0.0079860559 -0.2298387172
-0.4436570444 0.2258064352 -0.0219579903 0.4274193520 -0.0080645155 -0.2298387172
-0.4616713334 0.1935483730 0.2236355725 0.4286439568 -0.0079596365 -0.2298387172
0.0241935749 0.3253392909 -0.3658066670 0.4307854324 -0.0004654355 -0.2315728461
0.4838709608 0.1850247285 -0.1442876508 0.4250897232 -0.0072801124 -0.2298387172
-0.4999999355 0.1222106040 -0.2349745152 0.4193733446 -0.0004279596 -0.2298057898
0.1813477086 0.3549837646 0.3113983080 0.4270988763 0.0080406688 -0.2294565398
-0.4506318504 0.2258064352 0.1707990682 0.4275419972 0.0080584672 -0.2296055156
0.4231229653 0.3496231601 0.1473302474 0.4279820617 0.0080444672 -0.2298057736
-0.4838709044 0.3161749771 -0.1337447000 0.4193548365 0.0000000000 -0.2298387172
-0.4409980769 0.3470060071 0.2468165627 0.4269406101 0.0080499752 -0.2297784269
-0.2627541463 0.3609776351 0.2416614905 0.4272716827 0.0080569752 -0.2296778382
-0.1626806777 0.3578181756 0.2400221842 0.4278247714 0.0080464752 -0.2296792656
-0.3042488852 0.5102516243 -0.3266129037 0.4274193520 0.0000000000 -0.2379032327
-0.3023204902 0.3583399014 0.2388914665 0.4270694327 0.0080492333 -0.2296800237
-0.1611357907 0.1561087225 -0.3588709659 0.4275191746 -0.0021074595 -0.2221313065
-0.3702025336 0.2898465193 0.3749999486 0.4274193520 0.0000000000 -0.2217742016
-0.5000000000 0.1641691574 0.2761234316 0.4193561429 -0.0000665484 -0.2298711849
0.3114672637 0.3588053852 0.2644560615 0.4277460536 0.0080494107 -0.2296614995
0.3449442613 0.2258064352 -0.2177250810 0.4274193520 -0.0080645155 -0.2298387172
0.2964360067 0.1935483730 -0.2209053469 0.4262909005 -0.0079324672 -0.2298387172
-0.1161867859 0.2472206998 0.3749999486 0.4274193520 0.0000000000 -0.2217742016
0.0877103122 0.3157572997 -0.3185483882 0.4274193520 0.0000000000 -0.2379032327
-0.3778193718 0.2258064352 0.1640689558 0.4274193520 -0.0080645155 -0.2298387172
