-0.0267806048 0.0475161987 0.4303765184 -0.0183597862 0.0021597300 0.0065324600
-0.4774271102 1.9320078898 0.4648200540 -0.0203034276 0.0009284579 0.0065014644
-0.3401668531 1.8353386177 -0.2392874903 -0.0184792527 -0.0021563326 0.0065249719
0.0908856890 1.8526004924 -0.1175042441 -0.0183594881 0.0021595594 0.0064825119
-0.3634662678 0.0000000000 0.2042127408 -0.0183585313 -0.0021598272 0.0065163931
-0.2257390194 0.0000000000 0.0621165853 -0.0183585313 -0.0021598272 0.0065163931
-0.3719141987 0.6944366523 -0.1047305119 -0.0178995162 -0.0020949093 0.0067047991
0.2061289050 2.5405233888 -0.5768866976 -0.0183642073 -0.0004558035 0.0044052333
0.3073662916 2.5111606004 -0.5712686285 -0.0183673175 -0.0004541663 0.0044049244
0.2497207603 0.0475161987 -0.1608514644 -0.0183508402 0.0021597667 0.0065097559
0.4666594471 1.7766652441 -0.3406026674 -0.0163543801 -0.0005678834 0.0064179849
-0.2964969568 1.9367323801 0.2881850713 -0.0181584816 0.0021505421 0.0065163931
-0.0211321663 1.6394066695 0.1018595270 -0.0195426393 0.0000033823 0.0083122095
0.0810921663 0.6786441685 0.3135523952 -0.0165191231 0.0007237603 0.0058060864
-0.0174085464 1.7278393607 0.0126792138 -0.0191581274 0.0000506458 0.0045206911
-0.4439212138 0.0000000000 -0.0811603780 -0.0183977300 -0.0021593283 0.0065037106
-0.4385346652 1.9438444924 0.0865819374 -0.0183373110 0.0021592484 0.0064989374
-0.3615911490 0.0466126544 -0.2140504255 -0.0183943866 0.0021592311 0.0064905184
-0.1607652505 1.7797978121 0.2649232613 -0.0183584212 -0.0021595616 0.0065502117
0.4069637019 2.5506354514 -0.5806499827 -0.0182855767 -0.0004525443 0.0044063607
0.1043936890 0.0000000000 0.3664841469 -0.0183585313 -0.0021598272 0.0065163931
-0.4502525572 0.0466107387 0.0245889957 -0.0184047343 0.0021591987 0.0065127862
-0.0499970562 0.4217906652 0.0309165572 -0.0202544104 0.0000100583 0.0054936307
-0.0281561814 2.4130147516 -0.4648951296 -0.0183519460 0.0003666609 0.0086447581
0.0449353369 1.9179595227 -0.0326727711 -0.0184330691 0.0021582700 0.0065434730
-0.0634889287 1.7724137430 -0.2424940432 -0.0183584276 -0.0021595680 0.0065498164
0.4757222786 1.8382141253 0.3380448942 -0.0162033499 0.0000685140 0.0065088963
-0.3860925464 1.7719629006 -0.4387757732 -0.0183747127 -0.0017788035 0.0054698445
-0.1594061793 1.9224792873 0.1339083888 -0.0182048035 0.0021540173 0.0064815335
-0.0354705572 1.3037850238 0.0258437775 -0.0198725227 0.0000041512 0.0049833153
-0.2736421102 1.8466523996 -0.4321094946 -0.0183651058 0.0021224039 0.0061180022
-0.4193079633 1.8149780540 0.5788706048 -0.0183585313 0.0000150065 0.0086759071
-0.2193614384 0.0361546631 -0.3935026156 -0.0192298488 0.0008314816 0.0047382225
-0.2063928855 1.9324405421 -0.3211747689 -0.0181693564 0.0021455659 0.0063983499
0.1871934406 0.0000000000 0.3709679892 -0.0183585313 -0.0021598272 0.0065163931
0.3847219914 0.0000000000 0.1474715508 -0.0183585313 -0.0021598272 0.0065163931
-0.3659046415 2.4639069978 -0.4578428985 -0.0162237171 0.0000367732 0.0068400432
-0.0707011339 1.9200863931 0.3332039028 -0.0183113801 0.0021592095 0.0065108704
-0.0478974125 2.4597278704 -0.5585380540 -0.0183616566 -0.0004611015 0.0044063780
-0.0149585961 1.3160732592 0.1048419374 -0.0191337106 0.0000402570 0.0085289654
0.1513458315 0.7572296350 -0.3255982354 -0.0185387559 0.0021027041 0.0069456177
-0.0360334039 0.8305383283 0.0901552700 -0.0198187257 0.0000341145 0.0080914752
0.1423309201 0.6178957322 -0.0326100950 -0.0170912138 -0.0015889201 0.0071874795
0.3082467516 0.6998534903 0.3807414255 -0.0175159719 -0.0017639568 0.0074228164
0.4284957646 1.8433836566 -0.1638136955 -0.0181238812 -0.0021465205 0.0065466199
0.0853544773 0.7189485940 0.4421210734 -0.0187665313 -0.0006525032 0.0045036199
-0.3376095724 0.7266128575 0.2403755119 -0.0164633261 0.0001029806 0.0055163952
0.4639071965 2.1391215313 -0.4149118186 -0.0162193175 0.0000063715 0.0062226199
0.2002942484 0.0000000000 0.0011138596 -0.0183585313 -0.0021598272 0.0065163931
0.3494662462 1.9434009006 0.2269782786 -0.0185016825 0.0021543844 0.0064901253
-0.1544161598 1.9280771210 -0.2315187711 -0.0182114579 0.0021541836 0.0065565810
0.1400381965 1.8535773197 -0.0602025313 -0.0183597603 0.0021595594 0.0064825162
-0.0943172441 1.8358531317 0.4814864752 -0.0183627581 -0.0021597840 0.0065230281
0.4684412657 1.9401450756 0.4819978596 -0.0167739741 0.0014437041 0.0064645227
0.0176054428 0.0674144924 -0.0059559222 -0.0177835032 0.0005156026 0.0045120194
0.0250642829 0.9229464773 0.0992381231 -0.0171570626 0.0000058661 0.0083110540
-0.1193467581 1.7733958423 -0.1748416307 -0.0183584276 -0.0021595659 0.0065499957
0.0059242376 1.7753009827 -0.0444952829 -0.0183584212 -0.0021595702 0.0065496566
-0.1023367192 1.7821937387 0.4292267041 -0.0183584190 -0.0021595464 0.0065512138
-0.4416509179 2.4421507991 -0.5425688898 -0.0201430173 -0.0003466566 0.0056310022
0.2792863629 0.0464000670 0.4247391037 -0.0183276933 0.0021590929 0.0065566976
0.4657332419 0.0013604665 0.2044773650 -0.0178024924 -0.0020381145 0.0066850907
-0.0929626156 1.9250044039 -0.2737720734 -0.0182673931 0.0021575464 0.0065451512
-0.3270137127 1.7709593153 -0.3394903585 -0.0183584795 -0.0021535032 0.0065139244
0.4597212786 2.0415141879 -0.4444327624 -0.0162288315 0.0000042181 0.0061588337
-0.2217138790 0.0000000000 0.1814698294 -0.0183585313 -0.0021598272 0.0065163931
-0.1886620907 1.7798844212 0.2709843607 -0.0183584233 -0.0021595616 0.0065502959
0.0451207214 0.4597270799 0.0955406177 -0.0165685421 0.0000102721 0.0077166501
-0.4031642981 0.7511014017 0.2226914816 -0.0195072073 0.0017572376 0.0069851641
0.3645103240 1.7754686652 -0.0340528790 -0.0183585162 -0.0021595508 0.0065508229
0.3442318207 1.9055045270 0.5853500864 -0.0183914255 0.0000633477 0.0086741901
-0.0081236911 1.8460922743 0.5766544881 -0.0183487192 0.0003287473 0.0086460065
-0.4770676868 1.8634226976 0.0110535421 -0.0201644255 -0.0011692743 0.0065412700
-0.4587407624 2.3313441771 -0.4037147343 -0.0190755529 0.0003567365 0.0084890497
0.0688832829 1.8501435313 -0.2620327905 -0.0183595810 0.0021595702 0.0064831469
0.0046715594 0.0000000000 -0.3186325832 -0.0183585313 -0.0021598143 0.0065152052
0.3777399244 1.9447949525 0.2055028013 -0.0184595680 0.0021569028 0.0064727581
-0.3721998315 2.6346944384 -0.5337320086 -0.0184982138 0.0021521728 0.0064034471
-0.4082841317 2.0631707279 -0.3610439417 -0.0183155205 0.0005734752 0.0085848510
-0.3699136156 1.7790387603 0.2132597041 -0.0183585227 -0.0021595313 0.0065520648
0.0763602117 0.0000000000 0.3239310086 -0.0183585313 -0.0021598272 0.0065163931
-0.4045475400 2.2811028834 -0.4923847754 -0.0183711793 -0.0002651793 0.0043738272
-0.3516438359 1.8791147970 -0.3534647408 -0.0183705896 -0.0003886177 0.0043920065
-0.1278635940 1.8576794622 0.1822738812 -0.0183576501 0.0021595356 0.0064808985
0.2620048769 1.9368152981 -0.1631527063 -0.0185714060 0.0021477106 0.0065972743
0.0285204039 0.7188449806 0.4494068315 -0.0185006156 -0.0004903197 0.0044203132
-0.3630660454 2.2311004579 -0.4625861749 -0.0162117927 0.0000462981 0.0067286069
-0.0212682354 1.0850822829 0.1017688143 -0.0194733175 0.0000056544 0.0083549762
-0.0104419892 1.9164068834 0.0533268769 -0.0183457991 0.0021593996 0.0064903737
-0.0818938963 1.8336933045 0.3290949050 -0.0183613715 -0.0021597430 0.0065227559
0.3270599158 0.7578440065 0.3377823305 -0.0180693801 0.0021248531 0.0067478099
-0.3162544536 1.8546308683 -0.0201729136 -0.0183594298 0.0021595313 0.0064806868
0.4749841555 1.8000440821 0.0338623521 -0.0161991404 -0.0000086393 0.0064909806
-0.0335917775 1.9176929719 -0.0025766479 -0.0183142937 0.0021591685 0.0065290540
0.0407208834 0.0475161987 -0.2317163952 -0.0183582894 0.0021598078 0.0065132030
0.4523733974 2.6208316803 -0.4958561015 -0.0165907538 0.0010082700 0.0061789784
0.2483756976 0.7359464903 -0.3168644428 -0.0172603391 0.0006868920 0.0048059978
0.3507629460 1.9431404125 -0.0940367689 -0.0185211382 0.0021531879 0.0065574708
-0.1939620151 0.0458192851 -0.3771386695 -0.0183871793 0.0021587581 0.0064582333
-0.0352306199 0.5614340605 0.0127248553 -0.0196896501 0.0000123844 0.0048203866
-0.1434603499 1.8469314730 -0.4307811901 -0.0183628812 0.0021279676 0.0061622873
0.1203553456 1.7774430151 0.1021449957 -0.0183584190 -0.0021595529 0.0065506890
-0.1484961123 0.6239106609 0.0485554989 -0.0189544665 -0.0004727214 0.0085312635
0.3983600518 1.9442166350 0.1570704816 -0.0184633585 0.0021567365 0.0064722289
0.4059947862 2.2157794471 -0.3824248337 -0.0183425961 0.0006343737 0.0084630086
0.2332499028 1.7798881123 0.2696078402 -0.0183584147 -0.0021595140 0.0065529827
0.2456694039 1.8303243758 -0.2760746004 -0.0182622009 -0.0021570626 0.0065163931
0.1557088078 0.0000000000 -0.0545777063 -0.0183585313 -0.0021598272 0.0065163931
0.1841757754 1.8562685356 0.0980292505 -0.0183598121 0.0021595508 0.0064819482
0.1199117387 0.0000000000 -0.2114429676 -0.0183585313 -0.0021598272 0.0065163931
0.3747526307 1.8080122678 -0.4431016566 -0.0183309136 -0.0007215097 0.0047727300
0.4391149266 1.8323946933 -0.4436993844 -0.0180874449 -0.0004212181 0.0045118078
0.3922652700 1.9585630605 -0.4590414212 -0.0183966933 -0.0002393305 0.0043710562
-0.4726253369 1.7911985983 0.1672759266 -0.0204780216 -0.0004032203 0.0065146242
-0.0171930626 2.6414686825 -0.5343713607 -0.0183582786 0.0021561836 0.0064457603
0.1532851814 1.8401727862 0.5347015853 -0.0183157171 -0.0021570173 0.0066131793
0.1987630626 0.6957198402 0.4456887970 -0.0180232873 -0.0020195724 0.0071933391
0.3254662786 1.9414124449 -0.1214609914 -0.0185456069 0.0021507430 0.0065730346
-0.3105495119 1.9411789827 -0.2290379827 -0.0181584665 0.0021493888 0.0065842829
0.0118387300 1.9108132678 -0.3469323305 -0.0183648618 0.0011212073 0.0046877430
-0.2289859287 1.9342871512 -0.2437886998 -0.0181644752 0.0021504125 0.0065671339
-0.3484469719 1.9430199244 -0.1390907343 -0.0181480821 0.0021489914 0.0065636307
-0.4127082570 0.0000000000 -0.0872523261 -0.0183807711 -0.0021595443 0.0065091987
-0.4800365940 1.8731552354 0.2308542073 -0.0203647689 -0.0007809028 0.0065303952
-0.3292555011 1.9374566285 -0.0143200670 -0.0181700389 0.0021513348 0.0065410130
-0.3705573844 0.7095885961 -0.0334428898 -0.0182884190 -0.0004713650 0.0044136436
-0.0997757797 2.6399405616 -0.5100488855 -0.0183643326 0.0017483391 0.0075935335
0.1984606393 1.8593249071 0.2778748251 -0.0183595940 0.0021595378 0.0064810778
-0.3130969719 1.8454107365 0.5563587819 -0.0184971901 -0.0021458467 0.0067144298
-0.0946632937 0.0475161987 0.3997866004 -0.0183617624 0.0021597538 0.0065284989
-0.2033565853 2.5214073888 -0.4837859719 -0.0183530842 0.0003785184 0.0086426566
0.1109162700 2.3837793067 -0.4601503369 -0.0183500756 0.0003679806 0.0086445680
0.3481448618 1.7795609222 0.2469459676 -0.0183584946 -0.0021595248 0.0065524968
0.3330908294 1.8516318402 -0.2119716695 -0.0183458855 0.0021594600 0.0064802073
-0.3822845400 1.7839166955 0.5481999784 -0.0183605032 -0.0021594795 0.0065544147
0.0105964168 0.1431014557 0.1166675810 -0.0178091469 0.0000090151 0.0085898726
-0.0450156544 1.2928215011 0.0748339050 -0.0204050562 0.0000072268 0.0071709352
-0.3049502937 1.9375072505 0.3176737192 -0.0181597495 0.0021506458 0.0065170886
-0.1428782419 0.0475161987 -0.1599799330 -0.0183585313 0.0021598272 0.0065163931
0.0262353737 0.8561313045 0.0984573866 -0.0171224579 0.0000064276 0.0082849698
0.3695183369 2.2261182484 -0.4861676263 -0.0191931706 -0.0002476739 0.0045643737
0.1556205659 1.8615780670 -0.3520149244 -0.0183466523 -0.0002699568 0.0043793607
-0.0066767257 2.4607091793 -0.4735835745 -0.0183507689 0.0003767300 0.0086430194
-0.0432031987 1.8564412268 0.1090731037 -0.0183581490 0.0021595335 0.0064808229
0.2317732937 2.4655244968 -0.4753653931 -0.0183482484 0.0003830086 0.0086418963
0.0620962354 0.0472078143 -0.3779798467 -0.0183541425 0.0021595486 0.0064870950
-0.2173623737 0.0000000000 -0.1144824924 -0.0183585313 -0.0021598272 0.0065163931
-0.1192643261 0.0000000000 -0.1115030324 -0.0183585313 -0.0021598272 0.0065163931
-0.3642945248 2.4292456220 -0.4672857495 -0.0162227624 0.0000354406 0.0068346847
0.4652829266 1.9760394168 -0.4066143326 -0.0162197516 0.0000047106 0.0062188121
0.2737639006 0.0000000000 0.3411494147 -0.0183511102 -0.0021597019 0.0065238143
-0.1400785184 1.8315334773 0.1580215680 -0.0183955702 -0.0021590194 0.0065599006
0.0901120302 1.8610461512 0.3795985313 -0.0183587646 0.0021595292 0.0064805205
-0.0464362851 1.1556968596 0.0613098056 -0.0205179935 0.0000283089 0.0065165508
-0.0002396177 1.9077710022 0.5763889914 -0.0183736501 0.0009292916 0.0084656911
0.3673398251 1.8386309568 -0.1842712829 -0.0182284363 -0.0021557149 0.0065330713
0.4545160540 2.2633760583 -0.4715205076 -0.0162486566 -0.0000213823 0.0060621015
-0.0457535940 1.7831746501 0.4963692657 -0.0183584168 -0.0021595292 0.0065522354
-0.4822814147 0.0207480173 -0.0754131210 -0.0204458013 0.0000000000 0.0059689503
-0.1138093434 0.6193399460 0.0557180950 -0.0185781706 0.0004890907 0.0085798121
-0.2456545076 0.7415239568 0.4320987840 -0.0193946674 0.0010353823 0.0080553693
-0.1358628661 0.0475161987 -0.2475495313 -0.0183632462 0.0021597667 0.0065074212
0.3475951490 2.4564050799 -0.5599013909 -0.0183477754 -0.0004675486 0.0044079482
0.4324096285 1.9451463996 0.1392746544 -0.0183677041 0.0021590065 0.0064615832
0.1657374406 1.9237419114 -0.0233266587 -0.0185301404 0.0021523693 0.0065494168
0.2108340821 0.7260421857 0.4646038942 -0.0173867905 0.0000001922 0.0084322354
0.0124882527 1.0787820173 0.0115283045 -0.0179288337 0.0001082700 0.0044208575
-0.2502770475 1.9288515961 0.5738857603 -0.0182070670 0.0015520886 0.0079946760
-0.1228160972 1.8554686177 0.0521253261 -0.0183577343 0.0021595356 0.0064809546
-0.1992123888 1.7838316674 0.5420750410 -0.0183584190 -0.0021595464 0.0065512160
-0.0664576458 0.7358266609 -0.3832962657 -0.0186945119 0.0005634320 0.0044772160
0.1464926955 0.0294442073 -0.4254933758 -0.0177305313 0.0001569222 0.0044601037
0.1040996112 0.0000000000 0.1851252311 -0.0183585313 -0.0021598272 0.0065163931
0.2974076069 0.0053044816 -0.3418641058 -0.0175050778 -0.0016094190 0.0054174406
-0.2128218121 1.7801244752 0.2875460475 -0.0183584233 -0.0021595594 0.0065503693
0.2344131965 1.8600209438 0.5723911231 -0.0183492052 0.0004228445 0.0086224233
-0.3281468164 1.7697481037 -0.3976270367 -0.0183584924 -0.0020573499 0.0060403089
-0.2024573045 0.7403820194 0.3914173045 -0.0173043996 0.0009241577 0.0048977538
0.1689590713 1.9299084384 -0.2635243780 -0.0185519870 0.0021502916 0.0065585637
0.1010448294 2.5474423758 -0.4896490367 -0.0183493456 0.0003910194 0.0086404579
-0.0953688812 0.0000000000 0.2714303110 -0.0183585313 -0.0021598272 0.0065163931
0.3603767084 2.1764517149 -0.4710211857 -0.0205097214 -0.0000359719 0.0066821620
0.1403279158 1.8488119633 -0.4111605616 -0.0183592073 0.0021587624 0.0064527084
0.1863516026 1.7791653132 0.2201707149 -0.0183584168 -0.0021595292 0.0065521836
0.3802661598 0.7538723715 0.2117079374 -0.0193114600 0.0018932354 0.0061217754
0.4503709050 1.9481485918 -0.1960906652 -0.0181166220 0.0021453650 0.0065613564
0.4267745551 0.0000000000 0.1621810389 -0.0183444298 -0.0021595788 0.0065196868
0.3712440972 2.0190616890 -0.3779570734 -0.0204825119 0.0000581361 0.0068932419
-0.2020934838 0.0475161987 0.1931722160 -0.0183585313 0.0021598272 0.0065163931
-0.0120958704 1.7719594730 -0.2738816847 -0.0183584255 -0.0021595702 0.0065496587
-0.1715921685 1.8626643067 0.4758355486 -0.0183572786 0.0021595335 0.0064808164
-0.3277384557 2.6314905551 -0.5588158099 -0.0184477711 0.0018256760 0.0054026523
0.0625012613 1.7754908121 -0.0316794168 -0.0183584212 -0.0021595724 0.0065494924
0.2690516371 1.7837287127 0.5332034881 -0.0183584125 -0.0021594752 0.0065553261
0.4269091490 0.7294673391 -0.1039170670 -0.0163822441 0.0002808769 0.0057382937
-0.3077004363 1.8381047084 0.0601434730 -0.0184971749 -0.0021550432 0.0065533391
-0.4103243931 2.5582307019 -0.4420121857 -0.0183905313 0.0004318445 0.0086300259
0.3730157646 1.8578464838 0.1923162894 -0.0183464579 0.0021595140 0.0064820086
-0.0362457732 0.0000000000 -0.3088740432 -0.0183585313 -0.0021598272 0.0065163931
0.0767476544 0.0475161987 0.2529354708 -0.0183585313 0.0021598272 0.0065163931
-0.2106146587 1.8488120950 -0.4184771015 -0.0183591339 0.0021594276 0.0064771274
0.2484624881 0.0000000000 -0.0491564276 -0.0183585313 -0.0021598272 0.0065163931
0.0110848553 1.6847869006 0.1055270346 -0.0177268920 0.0000567495 0.0085762981
0.2068487711 1.7814843866 0.3793296739 -0.0183584147 -0.0021595054 0.0065535896
0.4361251274 2.0261577171 -0.3600150130 -0.0183096717 0.0012189892 0.0081030799
0.1300089201 1.9229735011 -0.1185596371 -0.0184886393 0.0021550130 0.0065721447
-0.3939204363 2.2524959827 -0.4891878790 -0.0183373132 -0.0002537797 0.0043721685
0.1261679395 0.0000000000 -0.2877677775 -0.0183585313 -0.0021598272 0.0065163931
0.2642325292 1.9348862981 0.3871090864 -0.0185649762 0.0021495594 0.0064765119
-0.0251908099 1.8488120950 -0.3861695659 -0.0183600821 0.0021595464 0.0064821598
0.0506782203 1.7717598898 -0.2878279870 -0.0183584233 -0.0021595745 0.0065494730
-0.2646133715 0.7453575702 0.3462562657 -0.0172277862 0.0014011620 0.0053344600
-0.0828192613 0.0475162030 -0.2110910756 -0.0183585313 0.0021598272 0.0065163931
0.2647923585 2.4490347214 -0.5574364536 -0.0183683974 -0.0004647538 0.0044072030
0.3182495637 1.8359497603 -0.3159758078 -0.0182156760 -0.0021527343 0.0064494384
0.3465902441 0.0475161987 -0.0697472743 -0.0183437365 0.0021597343 0.0065106026
-0.1399066091 1.8583399071 0.2211870886 -0.0183575659 0.0021595356 0.0064808963
-0.4766663456 1.9339130302 0.2929263693 -0.0200994233 0.0012584536 0.0065361987
-0.5000000000 0.0268284320 0.0949201490 -0.0205117127 0.0000000000 0.0066805745
-0.2059335572 2.4634437646 -0.5591507775 -0.0183590194 -0.0004530691 0.0044047192
0.4341203931 2.1814352419 -0.4810966350 -0.0181740302 -0.0002370756 0.0043799633
-0.4763910605 1.9413864752 -0.2704792052 -0.0201361922 0.0012227819 0.0065464514
0.2709923693 0.7565684644 -0.2751053218 -0.0179884644 0.0020643369 0.0060271210
0.0870134017 1.7803172030 0.2996350281 -0.0183584168 -0.0021595335 0.0065519093
-0.0953521555 0.0475161987 0.3677689158 -0.0183606134 0.0021597905 0.0065231512
0.4192167408 2.0035888143 -0.3573477235 -0.0183257991 0.0011476415 0.0081933629
0.3084120950 1.8350909179 -0.1968781231 -0.0182035270 -0.0021541404 0.0065272570
0.1108980691 0.0475161944 0.0827738553 -0.0183585313 0.0021598272 0.0065163931
0.0896205032 1.7712100454 -0.3257274903 -0.0183584233 -0.0021595745 0.0065493499
0.1686850886 2.4655310886 -0.4751248769 -0.0183487797 0.0003820389 0.0086420821
0.4451510130 1.7817944384 0.4003091901 -0.0183196479 -0.0021590691 0.0065547862
-0.1750897279 0.0475161987 0.1579515702 -0.0183585313 0.0021598272 0.0065163931
-0.0183967387 1.5636359395 0.0130213456 -0.0192782549 0.0000458898 0.0045648272
0.3114929849 1.7778605054 0.1301808855 -0.0183584471 -0.0021595227 0.0065525097
0.0603069784 1.8291581166 -0.0654105140 -0.0183116933 -0.0021589676 0.0065545745
-0.0450772246 0.1187680540 0.0234228164 -0.0201144708 0.0000108683 0.0052694557
-0.0497658639 0.5142379330 0.0304541749 -0.0202350799 0.0000099201 0.0054598553
-0.4690586026 1.8551813715 0.2738378704 -0.0198172851 0.0013485961 0.0064957473
-0.3363044363 1.7807940151 0.3337874276 -0.0183584860 -0.0021595400 0.0065515119
0.0496091317 0.4080798683 0.0301407019 -0.0164122441 0.0000099374 0.0055821901
0.0561046566 0.0778006112 0.0495095270 -0.0162464471 0.0000093283 0.0060732181
0.1116548207 1.8272138229 -0.3082331080 -0.0183070886 -0.0021587711 0.0064843240
0.2792401231 1.8387382613 0.2243858661 -0.0182301080 -0.0021555421 0.0065604708
-0.3170941145 1.9386637538 0.2309348186 -0.0181660626 0.0021509482 0.0064895421
-0.0521678229 1.7792270065 0.2253139158 -0.0183584190 -0.0021595637 0.0065500950
-0.2777622635 0.0000000000 0.2036745464 -0.0183585313 -0.0021598272 0.0065163931
0.2489243715 1.9393604514 -0.3168115464 -0.0185844017 0.0021446328 0.0064031317
0.2015391728 1.8380129590 0.3417197235 -0.0183104449 -0.0021590410 0.0065460799
0.2745987819 1.8359912851 0.0557563456 -0.0182035724 -0.0021541944 0.0065216415
0.4483479784 0.0433654363 0.2666433348 -0.0170871296 0.0016168553 0.0070986479
0.0188384082 1.9179265659 -0.0525913693 -0.0183854579 0.0021590259 0.0065562700
0.0211138877 0.4008852009 0.0066652765 -0.0178234946 0.0000077927 0.0044243240
0.3561748402 0.0459185443 0.3693513477 -0.0183117322 0.0021588423 0.0065565616
-0.0632890734 1.7819502570 0.4123566803 -0.0183584190 -0.0021595421 0.0065514320
-0.3676902160 1.9174269482 -0.4253615832 -0.0162191857 0.0002049525 0.0067128575
0.1425897084 0.0475161987 -0.1685201598 -0.0183585313 0.0021598272 0.0065163931
-0.3084424147 1.7832632376 0.5033354471 -0.0183584557 -0.0021595400 0.0065515421
0.4145601404 2.5807570259 -0.4471554190 -0.0183479158 0.0004205184 0.0086321339
-0.0426177689 0.6093664320 0.0468657019 -0.0174844082 0.0019457214 0.0063422829
0.3311523693 1.9467799806 -0.2786625961 -0.0185158790 0.0021536566 0.0065366415
0.1227674881 1.8488366156 -0.3391554903 -0.0183601361 0.0021595810 0.0064838985
-0.1295297106 1.7788820194 0.2019251425 -0.0183584212 -0.0021595637 0.0065501058
0.0355568920 0.0000000000 0.3934352203 -0.0183585313 -0.0021598272 0.0065163931
0.3018109374 1.7836885054 0.5303860173 -0.0183584320 -0.0021594795 0.0065550713
0.0808495680 0.0000000000 -0.2043502678 -0.0183585313 -0.0021598272 0.0065163931
-0.0091733952 1.9200863931 0.2474213629 -0.0183587322 0.0021596674 0.0065010886
-0.0464362851 1.6195728812 0.0675091339 -0.0205102786 0.0000073283 0.0066769158
-0.4760237624 1.8021701620 -0.2897955486 -0.0205172052 -0.0000243348 0.0065068121
-0.0744237559 0.7572996328 0.4674787430 -0.0182454017 0.0021012894 0.0060587387
0.2659179482 0.7270091253 -0.2251989957 -0.0197940194 0.0000943650 0.0081032073
-0.2125189762 0.6614002873 0.0335513844 -0.0183714903 0.0009788618 0.0084333499
-0.0327359201 1.8540739050 -0.0303068553 -0.0183583801 0.0021595400 0.0064812678
0.1729637624 2.5252767279 -0.4859241447 -0.0183487408 0.0003894147 0.0086407387
0.3939102203 1.8588479611 0.2530598488 -0.0183469482 0.0021593974 0.0064816566
-0.4304067063 1.9490708423 0.5373788272 -0.0183095011 0.0021580238 0.0064646717
-0.1712190691 1.7786401210 0.1854673844 -0.0183584233 -0.0021595616 0.0065502246
-0.4227846285 0.0000000000 0.1008900518 -0.0183645659 -0.0021597538 0.0065173283
0.2023253801 0.6787274147 -0.0814566803 -0.0182352073 0.0017804298 0.0077144168
0.3891722505 1.9436671879 0.0391864255 -0.0184384752 0.0021582721 0.0065174147
-0.1402225032 1.9216112181 0.1558693715 -0.0182148164 0.0021545313 0.0064717041
-0.0955389028 0.6181188467 0.0215515745 -0.0176934428 0.0005972721 0.0045522765
-0.0552322225 0.2261765313 0.0706846890 -0.0204701706 0.0000100151 0.0069689028
0.2219084039 0.0475161987 -0.2189641015 -0.0183493564 0.0021597430 0.0065059654
-0.0903292052 2.6118601728 -0.5853810648 -0.0183634341 0.0012459071 0.0047778855
0.0513013261 0.3825327991 0.0845320022 -0.0164159978 0.0000110130 0.0074412484
0.1838378898 0.0475161987 0.2900512894 -0.0183560648 0.0021598056 0.0065191965
0.1162802851 2.6411704924 -0.5161967257 -0.0183528812 0.0021048013 0.0067918272
-0.2708205680 1.8550430864 0.0276422354 -0.0183569287 0.0021595400 0.0064811598
-0.0171694989 0.0000000000 -0.2199250410 -0.0183585313 -0.0021598272 0.0065163931
0.1855235097 1.9248767970 0.0886815529 -0.0185551922 0.0021507883 0.0065035421
0.1148369546 2.4858762268 -0.5647847970 -0.0183641274 -0.0004600734 0.0044061641
0.0098315832 0.0475161987 -0.0455322462 -0.0183585313 0.0021598272 0.0065163931
-0.1919461253 2.5844586825 -0.5864767970 -0.0183574816 -0.0004231317 0.0043984989
0.2184205853 1.7727534579 -0.2202425594 -0.0183584190 -0.0021595788 0.0065490886
-0.1356066048 0.7155830259 -0.3660791123 -0.0190004881 -0.0006283931 0.0045783153
-0.1624947171 1.8615502505 0.4102304017 -0.0183573564 0.0021595335 0.0064808359
0.1039724255 1.7738381166 -0.1453209827 -0.0183584212 -0.0021595745 0.0065493456
-0.2942448531 1.9343278855 0.0565790043 -0.0181559330 0.0021503002 0.0065137797
0.1016744276 0.0262413737 0.5552653909 -0.0179304968 0.0000000000 0.0086326566
-0.1424053348 1.8523368423 -0.1321365659 -0.0183577235 0.0021595378 0.0064811210
0.3159716220 2.3539540756 -0.5197697883 -0.0184128445 -0.0015635443 0.0051212613
0.0796319136 1.8375129460 0.5120552678 -0.0183100886 -0.0021581728 0.0065820432
0.0717377970 1.8349733283 0.2649961274 -0.0183059892 -0.0021587559 0.0065595162
0.4005366544 2.4430688315 -0.5556832419 -0.0183189287 -0.0004697689 0.0044089179
0.1913458078 0.7534105875 0.4191450281 -0.0188541102 0.0018522700 0.0055351015
0.1112212549 1.9200862613 0.0222575011 -0.0184422851 0.0021579978 0.0065336350
-0.2300892743 0.0000000000 0.0177143175 -0.0183585313 -0.0021598272 0.0065163931
-0.3144487408 0.0000000000 0.1873942937 -0.0183585313 -0.0021598272 0.0065163931
0.0025411210 1.9200863931 0.2136786782 -0.0183591037 0.0021593715 0.0064728272
0.4459850734 0.7320546091 0.1679853607 -0.0163080497 0.0004180475 0.0070171598
0.1258167084 0.0475161987 -0.3171986199 -0.0183526717 0.0021597365 0.0064999352
-0.2949329158 0.0000000000 0.3771257516 -0.0183715745 -0.0021596091 0.0065294363
0.4296390864 2.5463339892 -0.4403279503 -0.0182798121 0.0004057235 0.0086352916
0.1008725421 0.0475161987 0.3341661296 -0.0183584341 0.0021598251 0.0065165832
0.2773935464 1.7773330713 0.0940047127 -0.0183584147 -0.0021595313 0.0065520281
-0.1893217775 1.7779650432 0.1391857883 -0.0183584255 -0.0021595616 0.0065502678
0.2968241814 2.4719354298 -0.4769152635 -0.0182888553 0.0003808855 0.0086370842
-0.0568037214 1.8358530000 0.4577318359 -0.0183585313 -0.0021596242 0.0065360022
-0.1144349114 0.0000000000 -0.0184597019 -0.0183585313 -0.0021598272 0.0065163931
0.3313471425 1.7799321425 0.2724388575 -0.0183584730 -0.0021595140 0.0065531037
-0.0040504622 1.6915491490 0.0108360475 -0.0183585313 0.0000044665 0.0043565702
-0.4588677754 0.0000000000 -0.0541349568 -0.0184136847 -0.0021588661 0.0065030583
-0.4637656156 1.7834351382 0.3492212160 -0.0189808207 -0.0020352225 0.0065538143
0.4044325896 1.8505651102 -0.2338744579 -0.0183413348 0.0016693261 0.0074873737
-0.3465805551 1.7813615248 0.3727455227 -0.0183584968 -0.0021595292 0.0065522160
0.3127081188 1.8356092549 -0.1525126177 -0.0182226544 -0.0021551296 0.0065581641
0.0530698467 0.1537079784 0.0373702916 -0.0163513521 0.0000116458 0.0057243240
0.2734571749 2.6378711685 -0.5547956631 -0.0183465875 0.0019132657 0.0055361555
0.3900004449 1.7766955637 0.0501915616 -0.0183540259 -0.0021595270 0.0065507624
-0.4226054449 0.0000000000 -0.0364203801 -0.0183657430 -0.0021597387 0.0065152441
0.1444471793 0.6436409006 -0.0744373909 -0.0197507754 0.0002173542 0.0048831922
-0.3704103672 2.4243962916 -0.4251413693 -0.0163732376 0.0001449957 0.0073345248
0.4142637646 2.0793420130 -0.4716357235 -0.0183225011 -0.0002359698 0.0043711879
0.2671041793 2.3785229028 -0.4597986933 -0.0183479546 0.0003729071 0.0086437300
-0.3758953261 1.9893988661 -0.3694610929 -0.0162453132 0.0000251210 0.0069520734
-0.2904594212 1.9340308834 0.1621959352 -0.0181577063 0.0021499374 0.0064685356
0.2371061425 1.7752452225 -0.0492196998 -0.0183584168 -0.0021595551 0.0065505680
-0.0674691987 0.0000000000 0.3957145140 -0.0183585313 -0.0021598272 0.0065163931
0.1151957667 1.9265658747 -0.3022429287 -0.0184466695 0.0021575853 0.0065148812
-0.3669798099 1.7805399892 0.3163349978 -0.0183585205 -0.0021595205 0.0065526695
-0.1439884428 0.0000000000 0.1573626242 -0.0183585313 -0.0021598272 0.0065163931
0.1698252959 1.7750208553 -0.0643576998 -0.0183584190 -0.0021595680 0.0065498510
-0.4416613326 2.2003300389 -0.4794455205 -0.0188758726 -0.0002416587 0.0044836091
0.4708367970 1.7782294838 -0.0881160302 -0.0166109417 0.0006682333 0.0064864600
0.4118631253 1.9453718207 -0.0793719201 -0.0184278661 0.0021580972 0.0065593499
0.3006065810 0.0026938898 0.4519273996 -0.0178245378 -0.0019718661 0.0072075940
-0.3958812743 0.0000000000 0.2491345335 -0.0183788790 -0.0021595529 0.0065265680
-0.4587994233 2.4409137495 -0.4457065248 -0.0204986717 -0.0000030562 0.0062305378
-0.4028399071 2.1681469784 -0.3739274017 -0.0182915788 0.0004777689 0.0086100259
-0.3277396091 1.8434889849 0.5046846134 -0.0184765680 -0.0021558402 0.0065574168
0.3715484816 1.8434462743 0.1176988683 -0.0182155270 -0.0021547322 0.0065546760
-0.2922656587 2.6409350540 -0.5311853715 -0.0185711663 0.0020504536 0.0064664946
-0.3598360259 0.6974995486 0.3010032765 -0.0191735205 -0.0019287991 0.0070413499
-0.0303093585 0.5166218639 0.0094440151 -0.0192880562 0.0000087257 0.0045817171
0.2481428445 1.9370488942 0.5456542981 -0.0185576134 0.0021486048 0.0065728164
0.1815385918 1.8515775292 -0.1780590108 -0.0183602937 0.0021595724 0.0064834082
-0.0474967581 0.3383051166 0.0900556350 -0.0200972009 0.0000099676 0.0077966415
0.2955848251 0.7425367711 0.3252841965 -0.0197101404 0.0010827235 0.0052642721
0.2238630778 1.8773409546 -0.3541747516 -0.0183585313 0.0000000000 0.0043565659
-0.4611495421 0.0000000000 0.0925602937 -0.0184022117 -0.0021590950 0.0065196976
-0.3971900367 2.4999736350 -0.5688108769 -0.0183665832 -0.0004587127 0.0044059978
-0.4522177127 0.0000000000 0.0041610173 -0.0183846566 -0.0021594968 0.0065123197
-0.4003416523 1.7818498056 0.4062753758 -0.0183669935 -0.0021594730 0.0065524255
-0.4743662225 0.0000000000 -0.0228593737 -0.0184104730 -0.0021591361 0.0065074536
0.3142569028 1.8442867927 0.4065067624 -0.0182320346 -0.0021559935 0.0065240713
-0.2611849568 0.0000000000 -0.1557628056 -0.0183585313 -0.0021598272 0.0065163931
-0.4022509784 1.9425116069 0.0767839417 -0.0182466307 0.0021567948 0.0065087754
-0.0866701037 1.7719552549 -0.2738870238 -0.0183584276 -0.0021595680 0.0065498790
-0.2899625702 0.0454211015 0.4489299546 -0.0184021598 0.0021585853 0.0065746134
0.3288801296 1.8621064212 0.4332330108 -0.0183549914 0.0021595335 0.0064813672
-0.3250537970 2.3410307063 -0.4515355140 -0.0184253650 0.0003330778 0.0086482916
0.4292347451 1.7715707214 -0.3017181663 -0.0183414276 -0.0021594860 0.0065490605
0.3098355443 1.8352265659 -0.2546145140 -0.0181983024 -0.0021538747 0.0065163931
0.2036065918 1.9265206587 0.0416454212 -0.0185564579 0.0021506955 0.0065241037
0.1721363607 1.8336664125 0.1117070583 -0.0183295464 -0.0021594320 0.0065430173
-0.1909547149 1.9309702937 -0.2395885616 -0.0181837063 0.0021522160 0.0065534752
0.0754702505 0.0461787797 -0.4032172570 -0.0183499136 0.0021590065 0.0064628143
0.4007985594 0.7039539179 0.0233682138 -0.0198976825 -0.0014614471 0.0066819568
0.0538609719 2.3517681469 -0.5144798315 -0.0183606587 -0.0015466220 0.0050465940
0.0667442829 0.5913613240 -0.0069133909 -0.0190521404 -0.0013125810 0.0049623974
0.4291833672 1.9438444924 0.0524004816 -0.0183612484 0.0021597862 0.0065200540
0.2609470432 0.0000000000 0.4196071749 -0.0183392073 -0.0021594298 0.0065426199
-0.3968761922 0.0465618985 -0.1594318855 -0.0183993737 0.0021592009 0.0064951857
0.3725100821 1.8584141253 -0.3635945659 -0.0204952678 0.0000710281 0.0068218704
-0.4169656242 2.4180641922 -0.5499810691 -0.0183876911 -0.0004734579 0.0044094190
-0.4632770043 2.1598690022 -0.4068924514 -0.0204995508 0.0000048186 0.0062383089
0.2647087797 1.7797964924 0.2632101901 -0.0183584147 -0.0021595097 0.0065532138
0.2303746263 1.7735669525 -0.1644193175 -0.0183584190 -0.0021595702 0.0065496220
0.4649508575 0.0369491296 0.2364696739 -0.0166006263 0.0010629741 0.0071685659
-0.0312226803 1.8336933045 0.2806853931 -0.0183553218 -0.0021594730 0.0065514298
-0.0620701663 1.8250539957 -0.2928301015 -0.0183562657 -0.0021593672 0.0064948639
-0.0672393413 0.0475161987 -0.0469956112 -0.0183585313 0.0021598272 0.0065163931
0.1389287365 0.6933045356 0.4600740432 -0.0183841210 -0.0021331857 0.0065564060
0.2629998618 2.4480818877 -0.4723370022 -0.0183479870 0.0003813564 0.0086421922
0.0337679849 1.9174011102 0.0060597430 -0.0184380821 0.0021578294 0.0065236544
0.3772423823 2.6080978747 -0.4571445205 -0.0189359136 0.0004035702 0.0085313844
0.2446611382 2.3359857473 -0.4552333153 -0.0183668207 -0.0009628099 0.0083716112
-0.1937984039 1.8596241490 0.2969816479 -0.0183572354 0.0021595356 0.0064809309
0.0211836328 0.0000000000 -0.0625985400 -0.0183585313 -0.0021598272 0.0065163931
-0.0073403672 1.8619495508 0.4331415572 -0.0183582030 0.0021595313 0.0064806220
-0.2973968315 1.7813209222 0.3699620302 -0.0183584428 -0.0021595616 0.0065502181
-0.1444024233 1.8260645702 -0.2147457862 -0.0184053650 -0.0021591706 0.0065329741
-0.0908108877 0.0475161987 0.4817359222 -0.0183640475 0.0021596825 0.0065406004
0.3852596069 0.7062462289 0.1735488207 -0.0199611253 -0.0013670626 0.0060407948
-0.1271715011 2.5604242765 -0.4911176717 -0.0183512635 0.0003890886 0.0086408380
-0.2889290929 1.7803278812 0.3017742246 -0.0183584341 -0.0021595594 0.0065503715
0.0724450799 1.8532902030 -0.0768379806 -0.0183592721 0.0021595551 0.0064821793
0.0436417840 1.2901874989 0.0787427019 -0.0164113110 0.0000040605 0.0074345616
-0.2548507624 1.9370554838 -0.2543774276 -0.0181591965 0.0021500238 0.0065638229
-0.0296503952 1.9202399698 0.4312169395 -0.0183203672 0.0021586695 0.0064680475
-0.3234303672 1.7823749978 0.4423449460 -0.0183584708 -0.0021595378 0.0065517387
-0.1301903369 0.7519139719 -0.3557196803 -0.0187515659 0.0017854989 0.0053924060
-0.1474026220 0.0000000000 0.1062847991 -0.0183585313 -0.0021598272 0.0065163931
0.1281115248 2.5213137927 -0.4850370929 -0.0183491188 0.0003882376 0.0086409590
-0.1503957084 1.8144104125 0.5783835097 -0.0183512786 0.0000095508 0.0086759935
0.1272486782 2.6061133758 -0.5003383305 -0.0183491231 0.0003986026 0.0086390756
-0.0169341447 0.0475161944 -0.3681960302 -0.0183582073 0.0021596998 0.0064934665
0.4774737106 1.8879927106 0.1529144557 -0.0162488639 -0.0004610194 0.0065169870
-0.0557910389 1.9179266976 0.0363543024 -0.0183098639 0.0021592549 0.0065103348
-0.3812466782 2.2396561879 -0.3866226156 -0.0175314406 0.0002599698 0.0083468769
0.3279382700 1.9411291533 0.1843626717 -0.0185382138 0.0021516112 0.0064735788
-0.4549008207 1.7831509222 0.4468902527 -0.0185725378 -0.0021389827 0.0065524622
0.1200087127 1.7726979590 -0.2236742225 -0.0183584212 -0.0021595767 0.0065492829
0.2293657667 1.9331885184 0.4569860346 -0.0185885097 0.0021466976 0.0064601577
-0.0262213931 1.8358531317 0.4526635788 -0.0183547041 -0.0021596134 0.0065378380
-0.0803447840 2.3779861080 -0.5356123974 -0.0183546177 -0.0013449611 0.0048265464
0.0672457797 1.8293736501 0.0344048164 -0.0183121037 -0.0021591231 0.0065440821
-0.0173244363 0.9482528661 0.1040533153 -0.0192048143 0.0000165054 0.0085018445
-0.2017604752 1.8284719654 -0.1162797495 -0.0184177624 -0.0021585702 0.0065569611
-0.3439386091 0.0000000000 0.0687973153 -0.0183585313 -0.0021598272 0.0065163931
0.0332623715 0.0475161987 -0.1764887732 -0.0183585313 0.0021598272 0.0065163931
-0.0454598618 1.3512325421 0.0436474168 -0.0204398121 0.0000080497 0.0059694708
-0.3902469914 2.6339567451 -0.5126699698 -0.0185149935 0.0021515875 0.0064226393
-0.2110750929 0.0000000000 -0.2624433607 -0.0183585313 -0.0021598272 0.0065163931
-0.2838529244 2.3486533780 -0.5117669978 -0.0183414341 -0.0015222289 0.0049968164
0.4038027279 1.7758393585 -0.0086005184 -0.0183496436 -0.0021595097 0.0065504341
0.3478321382 1.7805511944 0.3149572246 -0.0183584946 -0.0021595184 0.0065527948
0.1784589870 0.0475161987 -0.2459336803 -0.0183515983 0.0021597473 0.0065051037
0.0518451641 1.8635040346 0.5244001555 -0.0183584903 0.0021595292 0.0064805032
0.0464362851 1.0850516998 0.0597860454 -0.0162674860 0.0002914406 0.0065163931
0.1745383348 1.7835929330 0.5242341879 -0.0183584147 -0.0021594903 0.0065544147
0.2950864600 1.8540756199 -0.0391088855 -0.0183598380 0.0021595637 0.0064827948
0.1208190086 1.8336933045 0.1720778790 -0.0183252052 -0.0021593132 0.0065457516
-0.2738053909 0.0475161987 0.2715404017 -0.0183674665 0.0021597624 0.0065234557
-0.0638054168 1.8250539957 -0.2035819719 -0.0183585313 -0.0021595702 0.0065468855
-0.2019021879 1.7788054298 0.1969342160 -0.0183584233 -0.0021595616 0.0065503175
0.4303636652 1.7695135853 -0.4095012419 -0.0183434298 -0.0020011879 0.0058440821
-0.4073300778 1.9503239741 -0.2972692894 -0.0182508963 0.0021563585 0.0065323089
0.3341597365 1.9401652462 0.0135616933 -0.0185436415 0.0021512743 0.0065415032
-0.0203605205 0.8647764125 0.1023739590 -0.0193770864 0.0000066220 0.0084081469
0.0222758337 0.0475161987 0.4738654838 -0.0183585421 0.0021596998 0.0065382765
-0.3452290799 1.8541328315 -0.0552332657 -0.0183744708 0.0021589546 0.0064813434
-0.0961156069 1.8283759957 0.0387278445 -0.0183783952 -0.0021592246 0.0065538207
-0.3532572808 1.8566300000 0.0994380691 -0.0183647257 0.0021595140 0.0064805767
0.2123000475 1.8389419330 -0.4433430950 -0.0183558467 0.0005685270 0.0044441123
-0.1799495356 2.4059191188 -0.4630353024 -0.0183546523 0.0003578488 0.0086462419
0.4448421469 1.9948192613 -0.4602968618 -0.0183180562 -0.0002265788 0.0043846393
0.4075442937 1.9440891598 -0.0215451512 -0.0184289114 0.0021579201 0.0065551857
0.0497671339 0.6455749784 0.2084955508 -0.0174920497 0.0017763909 0.0056465486
0.0023214622 2.3789363067 -0.4588619093 -0.0183520065 0.0003617214 0.0086456220
0.4430755227 1.7734742786 -0.1710001404 -0.0183351728 -0.0021594147 0.0065498575
0.3561286674 0.7579937603 0.2985604212 -0.0180664384 0.0021309503 0.0066989222
-0.1784995875 1.7759995270 0.0041689114 -0.0183584255 -0.0021595616 0.0065502073
0.3747133456 1.7746977516 -0.0869838467 -0.0183585313 -0.0021595594 0.0065502959
0.2148219006 1.8631159417 0.5009383672 -0.0183593996 0.0021595248 0.0064803002
0.1724575702 1.7822330216 0.4308720842 -0.0183584147 -0.0021595032 0.0065536782
0.1734584039 0.0000000000 -0.2655831771 -0.0183585313 -0.0021598272 0.0065163931
0.0190024622 1.9204817365 0.4173482160 -0.0183963780 0.0021590670 0.0064763218
-0.2801561469 1.8589730648 0.2582079762 -0.0183568661 0.0021595378 0.0064810432
0.2424778445 0.0467379006 -0.3223580994 -0.0183343153 0.0021592765 0.0064806998
0.4570589006 1.8516455508 0.0217792549 -0.0175362873 -0.0019946976 0.0065581749
-0.2520709438 0.7104705076 -0.2320672311 -0.0170608510 -0.0008496026 0.0079557581
0.0428418769 1.4908766285 0.0367619309 -0.0164361080 0.0000054903 0.0055556199
0.4447224816 2.3898535572 -0.5285521922 -0.0163265486 -0.0001199676 0.0058063477
-0.3766561879 2.6333274104 -0.4780661987 -0.0177706415 0.0018571296 0.0073343996
0.3541490454 2.4303239525 -0.4960681425 -0.0164672117 -0.0005692786 0.0059749719
0.0308213542 1.8552683758 0.5788590691 -0.0183556501 -0.0005978683 0.0085890562
0.3242378639 0.0000000000 0.0595349827 -0.0183585313 -0.0021598272 0.0065163931
0.1429800605 1.8542985356 -0.0177571598 -0.0183597063 0.0021595572 0.0064823089
-0.1776464320 2.3767121490 -0.4577737235 -0.0183551123 0.0003524449 0.0086471793
0.0490651231 1.7772659741 0.0902749179 -0.0183584190 -0.0021595659 0.0065499611
-0.1199027905 0.0475161987 0.3220765875 -0.0183596048 0.0021598099 0.0065189546
0.1782130670 0.0000000000 -0.1114351663 -0.0183585313 -0.0021598272 0.0065163931
-0.3574478121 1.8602725983 0.3194063002 -0.0183648186 0.0021595227 0.0064808683
-0.2539947538 0.0000000000 -0.0104327538 -0.0183585313 -0.0021598272 0.0065163931
-0.3186085918 1.9399946631 -0.1845640173 -0.0181494730 0.0021485443 0.0065819266
-0.4059329935 0.0475161987 -0.0276295227 -0.0183811166 0.0021596911 0.0065115032
-0.4848812095 1.8909200259 -0.0225183996 -0.0205176587 -0.0000273564 0.0065199611
0.1350613585 2.3459396199 -0.5102872570 -0.0183684514 -0.0016662311 0.0052082225
-0.2868914838 1.9352378769 -0.0843704428 -0.0181589633 0.0021501685 0.0065587862
-0.1407282203 1.8345978898 0.2904698013 -0.0183965983 -0.0021591469 0.0065511274
-0.1159891080 1.8632472397 0.5099297473 -0.0183575702 0.0021595313 0.0064807279
0.0287951814 1.2670272268 0.0967508575 -0.0170853456 0.0000068445 0.0082588553
-0.2687288942 2.3304535637 -0.4748639957 -0.0183375529 -0.0019720238 0.0060930626
-0.3256451987 1.9418607840 -0.3339763326 -0.0181582959 0.0020252873 0.0058357516
-0.1889684687 1.8274944795 -0.1416936587 -0.0184003348 -0.0021587192 0.0065581404
0.3968698661 0.6998310799 0.1488053758 -0.0195705508 -0.0017497343 0.0062603261
0.2514215400 2.4110658445 -0.4656119957 -0.0183480864 0.0003766479 0.0086430518
-0.3440131231 0.0463948963 0.3641075313 -0.0183967257 0.0021590929 0.0065500562
-0.3713629050 2.0317762462 -0.3969013391 -0.0162221058 0.0001138855 0.0067929525
0.2286080173 1.8512469093 -0.1977000065 -0.0183606911 0.0021595788 0.0064838099
-0.3826807732 1.9434672073 0.1753353844 -0.0182233283 0.0021551037 0.0064763348
0.3451838315 1.7695367862 -0.4084081123 -0.0183585032 -0.0020825594 0.0060474946
0.0106073758 1.8321919460 0.2296626371 -0.0183482181 -0.0021592354 0.0065614428
0.3667923866 1.9413705248 -0.4495666371 -0.0203838207 -0.0001209568 0.0058251102
-0.3981630734 2.1546819374 -0.4784907430 -0.0183364622 -0.0002440108 0.0043709590
-0.0015563002 1.9179265659 0.1204388920 -0.0183585724 0.0021596328 0.0064888877
-0.4708800346 1.7806544125 -0.0804036911 -0.0204675594 -0.0004381145 0.0065098099
-0.2451699503 1.8545602095 -0.0008695853 -0.0183570821 0.0021595378 0.0064811382
0.0918709438 0.0000000000 -0.4109682937 -0.0183493521 -0.0021591296 0.0064685702
-0.1123256156 1.8517481102 -0.1668931706 -0.0183580173 0.0021595443 0.0064814968
-0.4517524341 0.0461344579 -0.0489476199 -0.0184144017 0.0021589395 0.0065033089
-0.0222639503 2.5140093477 -0.5705688337 -0.0183608488 -0.0004523844 0.0044045378
-0.1933714039 0.0000000000 0.4916308683 -0.0183776890 -0.0021591685 0.0065569978
-0.4729563844 1.8372929287 0.2404988164 -0.0205116566 0.0001253931 0.0065232981
0.2784738229 0.6937648035 0.3871767451 -0.0181013175 -0.0021127883 0.0068512549
0.2187090691 1.9061284579 -0.3520149244 -0.0184285486 0.0003526782 0.0043870302
-0.3367394924 0.0000000000 -0.2871518229 -0.0183933369 -0.0021592138 0.0064812311
0.2019090259 1.7753040151 -0.0450334492 -0.0183584168 -0.0021595594 0.0065502851
-0.3612532160 1.8451473499 0.3925414125 -0.0184767495 -0.0021565270 0.0065191641
0.4742741102 1.8197061037 -0.2596609892 -0.0161993305 0.0000425767 0.0065040432
0.2111673045 1.9303719374 0.4204675659 -0.0185787235 0.0021478337 0.0064741879
-0.0021918186 0.0000000000 0.3467128423 -0.0183585313 -0.0021598272 0.0065163931
0.3201077084 1.7840882009 0.5533081793 -0.0183584147 -0.0021581188 0.0065672743
-0.3812546868 2.3071136156 -0.3958424838 -0.0173969287 0.0002702160 0.0083311058
0.3879455832 1.7789636199 0.2059386976 -0.0183547927 -0.0021595205 0.0065514233
0.4022531857 0.0475161987 0.1723623909 -0.0183367646 0.0021596998 0.0065222959
-0.0918836328 1.7968950367 0.5781389741 -0.0183507862 -0.0002209957 0.0086636998
0.1802493888 0.0475161987 -0.2737089287 -0.0183506890 0.0021597387 0.0065024752
-0.4999991771 0.0305878531 0.0583361231 -0.0204643024 0.0004390864 0.0065163240
0.2413206652 1.7741021641 -0.1277243197 -0.0183584168 -0.0021595637 0.0065500022
-0.1438506760 1.8538633801 -0.0422747019 -0.0183576609 0.0021595378 0.0064810259
0.4676562786 1.9350978769 -0.0181121037 -0.0166365032 0.0012967473 0.0065240281
-0.4177162376 0.7134788294 0.2104711015 -0.0202415637 -0.0007802657 0.0071897840
0.1004046609 0.0000000000 -0.2711515810 -0.0183585313 -0.0021598272 0.0065163931
-0.3613020562 0.0475161987 0.2412883197 -0.0183755702 0.0021597279 0.0065247279
0.2115111555 1.9293990670 0.3080263089 -0.0185414687 0.0021519352 0.0065163931
-0.1562064060 1.7709560194 -0.3400231641 -0.0183584320 -0.0021556933 0.0065206263
0.4382678834 0.7545852829 0.0153333737 -0.0174366825 0.0019388920 0.0064013326
0.2216549374 1.9368131901 -0.3097808035 -0.0186009806 0.0021445594 0.0064580086
0.1775060194 1.8527390410 -0.1096786933 -0.0183601382 0.0021595680 0.0064830173
0.4762419006 1.9200306307 0.1804558942 -0.0162365788 0.0004022268 0.0065079611
0.0856676544 1.8593570713 0.2801951015 -0.0183587840 0.0021595292 0.0064805745
-0.2415598467 1.8555209525 0.0556652009 -0.0183570778 0.0021595378 0.0064811080
0.0785832009 0.0000000000 0.4065632829 -0.0183585313 -0.0021598272 0.0065163931
-0.1484757300 0.6952846847 0.4616186415 -0.0185857279 -0.0020670950 0.0070906091
-0.3279314147 1.7721089633 -0.2625904449 -0.0183584795 -0.0021595724 0.0065495680
0.0616284773 1.7708263024 -0.3469552678 -0.0183584276 -0.0021507927 0.0064826199
-0.4446608877 1.7707671123 -0.3487177408 -0.0183613132 -0.0021129525 0.0064009806
0.1733812873 1.8622217689 0.4484678078 -0.0183591944 0.0021595270 0.0064803801
-0.3678230972 2.0568540497 -0.4229426544 -0.0162188834 0.0001383888 0.0067448942
-0.4533182570 1.8531316177 0.4390597581 -0.0186166955 -0.0021431123 0.0065358553
0.2057551641 1.8315334773 -0.0400454384 -0.0183228769 -0.0021591706 0.0065353801
-0.0130047473 1.8468173132 -0.4319647171 -0.0183594860 0.0021251361 0.0061405076
0.2150359179 0.0475162030 -0.2979323391 -0.0183461879 0.0021596847 0.0064962916
0.3450395162 1.7833217689 0.5051969201 -0.0183584903 -0.0021595054 0.0065536825
-0.4704289611 1.8364176091 0.5688982117 -0.0204676458 0.0000155486 0.0069658186
0.1605976004 0.0475161987 -0.0930320216 -0.0183585313 0.0021598272 0.0065163931
0.3027057019 0.0468995205 -0.2682073931 -0.0183319676 0.0021593758 0.0064888035
-0.2305609114 0.0475161987 0.3599281404 -0.0183687214 0.0021597365 0.0065289525
-0.4369263283 2.5195133218 -0.5671675421 -0.0198631490 -0.0002610022 0.0052595529
-0.3282483888 2.3258146285 -0.4920222570 -0.0182233132 -0.0020756609 0.0062920626
0.4372949460 2.3578244687 -0.5243202030 -0.0177297149 -0.0011109935 0.0048387343
0.0821886501 1.8018179244 -0.4423583585 -0.0183585292 -0.0007935832 0.0046868726
0.0327240259 0.0000000000 0.3413850518 -0.0183585313 -0.0021598272 0.0065163931
0.2840422268 1.9425576134 -0.2744822808 -0.0185742073 0.0021482095 0.0065715659
-0.3097934276 1.8488119633 -0.4192703931 -0.0177188229 0.0015843952 0.0065487279
-0.0401421166 1.5692242808 0.0839922030 -0.0201614017 0.0000011166 0.0077044752
0.0522961555 1.8315334773 0.1348587516 -0.0183046717 -0.0021588272 0.0065523132
0.3466378337 0.0000000000 -0.0198061533 -0.0183585313 -0.0021598272 0.0065163931
-0.1693978683 0.0000000000 0.4421469114 -0.0183612570 -0.0021597559 0.0065215983
-0.2291359957 0.0000000000 -0.0703861728 -0.0183585313 -0.0021598272 0.0065163931
-0.0755009287 1.9244060475 0.5294887797 -0.0183077387 0.0021586285 0.0064813866
-0.1038474622 1.9199734190 -0.0636043672 -0.0182618510 0.0021568510 0.0065596263
0.0066794255 0.7181772181 -0.3897879093 -0.0183535119 -0.0004228790 0.0044114082
0.2460811771 1.8531828985 -0.0838196415 -0.0183606177 0.0021595724 0.0064833110
-0.1111365659 1.8358531317 0.5092990950 -0.0183888056 -0.0021587235 0.0065671166
0.4709542203 1.8636665767 -0.3692299698 -0.0162137019 0.0000090497 0.0062636955
-0.1926376307 0.0000000000 0.2832635335 -0.0183585313 -0.0021598272 0.0065163931
0.3314537559 1.8488120950 -0.3743687862 -0.0183514536 0.0021594946 0.0064891555
-0.2869152786 1.9380211058 0.5595887689 -0.0181625032 0.0021361922 0.0067560194
0.2141492613 1.8505690648 -0.2375347559 -0.0183606523 0.0021595810 0.0064839309
0.1412216091 1.8431557322 -0.4427276350 -0.0183584471 0.0005820281 0.0045976501
-0.0064117408 0.1535629698 0.0024497819 -0.0187387279 0.0000108056 0.0043914968
0.4672692376 0.0458221058 -0.0080096112 -0.0182958402 0.0021588078 0.0065070194
0.4068171123 0.0000000000 -0.1645572073 -0.0183284687 -0.0021594212 0.0065013607
-0.3704103672 2.3785998877 -0.4172839158 -0.0163130324 0.0000986479 0.0071927063
-0.3667813132 1.9565548337 -0.4349036976 -0.0162163715 0.0001742678 0.0066504687
-0.0303977797 1.9131112484 0.5737189352 -0.0183482894 0.0010880518 0.0083792981
0.4172406782 2.0148911274 -0.4643695076 -0.0183114190 -0.0002333866 0.0043712354
0.3117770043 0.6954207279 -0.1805045529 -0.0176843456 -0.0019710626 0.0059586415
-0.1968076976 1.7733000065 -0.1811278898 -0.0183584298 -0.0021595616 0.0065502225
-0.2099564384 0.0453563715 0.5032095853 -0.0184390173 0.0021443823 0.0066913909
-0.0613878596 1.8575356393 0.1735536976 -0.0183580194 0.0021595335 0.0064808164
-0.2730696091 0.0475161987 0.0690743477 -0.0183592268 0.0021598229 0.0065164557
-0.0163396523 1.3532477559 0.1043815702 -0.0192171490 0.0000255162 0.0084922117
