-0.1161233385 0.9947162544 0.1322927236 -0.4814900421 0.6923689076 -0.5475534697
0.0729690248 1.8793859163 -0.5180757940 -0.4810410974 0.6779016253 -0.5295451366
0.1794592953 0.9776976692 0.3365154387 -0.4808430709 0.6923075340 -0.5463815436
-0.1047972074 0.6731670109 -0.0120567674 -0.4809005786 0.6539336678 -0.5481855543
-0.4695701392 0.8917464743 0.5515425228 -0.4972502474 0.6746598453 -0.5387506955
0.2909178846 0.6731670109 0.0288782878 -0.4809005786 0.6539336678 -0.5481855543
-0.2252843126 0.9778634221 -0.1999635297 -0.4813104988 0.6923128039 -0.5497487058
0.4126164788 1.4754416077 -0.4212898799 -0.4809144843 0.6770469725 -0.5293496105
0.1217105478 1.3981169518 -0.5161748858 -0.4809005786 0.6708162540 -0.5672709546
0.3669047844 1.3761072371 -0.5141740026 -0.4801713656 0.6708454695 -0.5672500095
0.0049764064 1.9323512737 -0.5825040124 -0.4809943796 0.6740906153 -0.5667877745
-0.4809005786 0.7091620204 0.3769050554 -0.5000827611 0.6722638324 -0.5479392329
-0.4182954119 0.9656901969 -0.2865815639 -0.4834321482 0.6921644379 -0.5493975434
-0.0984658985 0.8276081409 0.5865816927 -0.4809005786 0.6731670109 -0.5289522111
0.0624845063 0.6731670109 0.1187688368 -0.4809005786 0.6539336678 -0.5481855543
0.0193574271 1.3762120204 -0.4032481385 -0.4809005786 0.6768443300 -0.5293121631
0.0882134688 0.7271777198 -0.4163783572 -0.4809005786 0.6686267880 -0.5668678429
0.2706239764 0.9755108381 0.3627574698 -0.4802210838 0.6922939360 -0.5466001498
-0.4900868272 0.8412624105 0.1777994097 -0.5001255553 0.6731670109 -0.5477549582
0.3979536704 0.9124139132 -0.3154242507 -0.4809181002 0.6765382506 -0.5292545977
-0.4048562095 0.0434092901 0.5096483970 -0.4884298554 0.6722503113 -0.5310365478
0.0340937838 1.8193365916 -0.5658526879 -0.4809036367 0.6709626006 -0.5672814560
0.0386082726 1.6223246107 -0.5373179268 -0.4809367181 0.6709080933 -0.5672791672
-0.0175846706 0.6731670109 0.4875306870 -0.4809005786 0.6539336678 -0.5481855543
-0.2898055434 1.4913739898 -0.4241866907 -0.4808832494 0.6774210995 -0.5294333140
-0.3590073622 1.6928445482 -0.5436383881 -0.4813373678 0.6708065797 -0.5672614341
0.2755685612 0.9169137654 -0.3162423987 -0.4809682415 0.6766589590 -0.5292747351
-0.2176635619 0.6731670109 0.0950681650 -0.4809005786 0.6539336678 -0.5481855543
0.3045672304 0.6731670109 -0.3119989077 -0.4809005786 0.6539336678 -0.5481855543
0.3643296706 1.9905214431 -0.5590697994 -0.4825517226 0.6908090065 -0.5536025677
0.1961796676 1.3819544812 -0.4042922206 -0.4809290247 0.6768534274 -0.5293136633
0.3178652024 1.1526104619 -0.3625316319 -0.4810512911 0.6768024975 -0.5292995845
0.0287275849 1.7002008596 -0.4812454998 -0.4809517201 0.6777144657 -0.5294978803
-0.0186151162 1.5276619808 -0.4307845160 -0.4809005786 0.6775486935 -0.5294593367
0.2937742861 0.7852895737 -0.4269441366 -0.4808609194 0.6691990953 -0.5669806850
0.3486279539 0.7500976525 -0.2859121858 -0.4805217587 0.6748280409 -0.5290674188
0.2339709751 1.4744698238 -0.4211132217 -0.4809714535 0.6772725988 -0.5294010789
0.3505567697 0.9755392265 -0.1441956819 -0.4789796677 0.6922558540 -0.5488914757
-0.3331700775 0.6731670109 -0.0040075940 -0.4809005786 0.6539336678 -0.5481855543
0.0433951055 1.8674668404 -0.5753656340 -0.4808745559 0.6712853553 -0.5673184225
0.4309217747 0.6731670109 -0.0171847036 -0.4809005786 0.6539336678 -0.5481855543
0.3461331777 0.6349972297 -0.3486681804 -0.5001339218 0.6731670109 -0.5481855543
-0.1945108481 0.8788158208 -0.3093155101 -0.4809005786 0.6763618231 -0.5292359606
0.4999999231 0.8453498229 0.1225436112 -0.4616715052 0.6731670109 -0.5479787382
0.3284408869 0.9783037118 -0.0249259511 -0.4789265837 0.6922682595 -0.5486352299
-0.1448527410 1.2152679817 -0.3739855878 -0.4809005786 0.6766912133 -0.5292780240
-0.1877512127 0.7858351659 -0.4270433230 -0.4809092913 0.6691892094 -0.5669789347
-0.3344876000 1.9402506578 -0.5855377838 -0.4812089853 0.6713324770 -0.5673165953
-0.1332242809 1.3687866613 -0.4018980732 -0.4809005786 0.6768043054 -0.5293036428
0.3651913244 0.6731670109 0.4403206383 -0.4860728862 0.6752218629 -0.5567518161
0.3743089292 1.4609575347 -0.5218876695 -0.4802374899 0.6711306807 -0.5672870721
-0.0361922570 1.2929095261 -0.5035022860 -0.4809005786 0.6705574117 -0.5672409506
0.4212692906 0.6731670109 0.1243206951 -0.4809005786 0.6539336678 -0.5481855543
-0.3163248039 1.9562222952 -0.5413891640 -0.4801870793 0.6812089333 -0.5309265330
0.4999999231 0.7992375172 0.1140048915 -0.4616710821 0.6731670109 -0.5480051263
-0.4198417150 0.8467935545 -0.3034932694 -0.4816187132 0.6762160151 -0.5292216126
0.2189766992 1.0134455494 -0.4610433539 -0.4808985976 0.6704553981 -0.5672267756
-0.3691389296 1.0954419265 -0.3506058243 -0.4808111051 0.6766906748 -0.5292800050
-0.0046046835 1.7556493378 -0.4954152230 -0.4809671837 0.6777809169 -0.5295139978
-0.2254513157 0.6731670109 0.2063191880 -0.4809005786 0.6539336678 -0.5481855543
-0.1146627777 0.9384004102 -0.4535388303 -0.4809005786 0.6704513398 -0.5672261986
-0.2547824718 1.1085970524 -0.3544647446 -0.4808030078 0.6767322188 -0.5292859673
-0.2495125550 0.6731670109 0.5324861456 -0.4810443863 0.6543025248 -0.5466036888
-0.4809005786 0.8599511231 0.4258181590 -0.5001282095 0.6731670109 -0.5479031126
0.4755582290 0.6732225376 -0.2214211129 -0.4728712925 0.6557344088 -0.5488336218
-0.0799040298 1.8390332660 -0.5678278176 -0.4809754925 0.6709468677 -0.5672809367
0.0980479003 1.8470960373 -0.5115937342 -0.4810415205 0.6778696595 -0.5295374241
-0.4189825038 1.0173308963 -0.3351091928 -0.4811145880 0.6766297051 -0.5292721963
-0.3918996102 0.6731670109 0.4382552850 -0.4809005786 0.6539336678 -0.5481855543
0.1989931595 0.6731670109 0.0123407477 -0.4809005786 0.6539336678 -0.5481855543
0.3376730263 0.3770606339 0.4337562790 -0.4946098940 0.6742097274 -0.5591901809
-0.0469946449 0.9966091039 0.1095781453 -0.4811447651 0.6923825248 -0.5478114465
-0.3655005196 0.5263867909 -0.3287653630 -0.4616672354 0.6731670109 -0.5481855543
-0.4467547590 0.6731670109 0.4433265790 -0.4809005786 0.6539336678 -0.5481855543
0.4315314717 0.5475359289 0.4298032115 -0.4670744975 0.6727903452 -0.5594996646
-0.4589759714 1.6144266307 -0.4534470680 -0.4843159972 0.6773478974 -0.5302684065
-0.2677223958 0.7875225263 -0.2927167118 -0.4809005786 0.6755306350 -0.5291208298
-0.1719679659 0.6925405075 0.5673482726 -0.4809827819 0.6643712377 -0.5311044607
0.4096249823 1.3672491286 -0.4016185358 -0.4809790699 0.6767856106 -0.5292972188
0.0655205280 0.7476608456 -0.2854691458 -0.4809005786 0.6750895375 -0.5290640722
0.3323367352 1.0292896697 -0.4626277582 -0.4802029275 0.6705539112 -0.5672027147
0.2860472520 1.0400457630 -0.3407545060 -0.4810209216 0.6767793021 -0.5292949878
-0.3004915696 0.9654128713 0.4839331671 -0.4817739455 0.6922360821 -0.5459537941
-0.1898630338 0.9871031587 -0.0890867684 -0.4814486904 0.6923513476 -0.5490019328
-0.2166047856 0.7872230055 -0.4327854953 -0.4820579643 0.6731670109 -0.5673839505
-0.1353811657 0.8456539982 -0.4351045749 -0.4820024568 0.6731670109 -0.5673815078
0.3974265998 0.9089249656 0.5679996483 -0.4792224886 0.6818549044 -0.5314693557
-0.0160085943 0.9656616931 0.4809470944 -0.4809419880 0.6922110211 -0.5455641266
0.1653155179 1.7573257544 -0.5529718871 -0.4808144902 0.6705753757 -0.5672397966
-0.3948412154 0.9704336971 0.2584064664 -0.4835610308 0.6921524940 -0.5475468342
-0.0248157345 0.9904878232 0.1830337256 -0.4810293458 0.6923640608 -0.5473415760
0.0080357966 0.9662174405 0.4742781827 -0.4809005786 0.6922143292 -0.5455777822
-0.4724835099 0.9614935391 -0.0358072535 -0.4851076609 0.6918666096 -0.5483186106
-0.1782813300 0.9918295604 -0.0323698897 -0.4815519735 0.6923624837 -0.5486017638
0.3363934704 0.0922765606 0.5096483201 -0.4920255674 0.6718103102 -0.5341231339
0.4807665799 1.6603957633 -0.5015526982 -0.4626079767 0.6742189017 -0.5438464736
0.1623115390 0.9828968458 -0.1267949301 -0.4803712001 0.6923502705 -0.5493481330
0.0500492845 0.9692156302 -0.3037372636 -0.4808056621 0.6922563156 -0.5504180261
0.3681356222 1.8159769305 -0.5041242923 -0.4812474904 0.6775499437 -0.5294623563
0.1383580641 0.6731670109 -0.2119209569 -0.4809005786 0.6539336678 -0.5481855543
0.4432695426 0.8894419351 -0.4135521521 -0.4784981994 0.6731670109 -0.5672189284
-0.3246198371 0.9702510765 0.4006457710 -0.4822161393 0.6922500455 -0.5466089779
-0.0211238558 0.9928418113 0.1547857145 -0.4810101510 0.6923726389 -0.5475434684
0.2974513551 0.9760103857 -0.2222001787 -0.4798012969 0.6923106306 -0.5494446459
0.2333603357 0.9579108289 0.5326380313 -0.4806479871 0.6911195673 -0.5431968290
-0.0526125698 0.9135119448 -0.3156238928 -0.4809005786 0.6766717300 -0.5292789279
0.0681680362 0.6731670109 0.0560274403 -0.4809005786 0.6539336678 -0.5481855543
-0.1356562602 0.6731670109 0.0871572601 -0.4809005786 0.6539336678 -0.5481855543
-0.4171889369 1.9966612840 -0.5671792692 -0.4812733016 0.6850729697 -0.5628674037
0.2575475726 1.1018899433 -0.3531233343 -0.4810222872 0.6768102293 -0.5293009116
-0.4924249863 0.7251146552 0.1520796216 -0.4998436137 0.6705540843 -0.5476669080
0.3890178784 1.3915963292 -0.4060452821 -0.4809463732 0.6768300589 -0.5293062777
-0.1636337544 1.7419023250 -0.5501676465 -0.4809029058 0.6705011926 -0.5672318147
0.2874458815 0.9834280707 0.1239795149 -0.4792550892 0.6923182470 -0.5481784187
0.3932750635 0.9691421012 -0.1747970272 -0.4783861267 0.6921782475 -0.5489635623
-0.4331245310 0.5102533433 0.4467003190 -0.4962890226 0.6730243957 -0.5552129948
0.1486729830 0.8701335434 -0.3077368950 -0.4809073487 0.6762799852 -0.5292244976
-0.4124306655 1.6375285877 -0.5379395870 -0.4813395412 0.6711214487 -0.5672970158
0.1690078967 0.6731670109 0.0778408980 -0.4809005786 0.6539336678 -0.5481855543
-0.4809005786 1.5097360818 -0.4844919727 -0.5001339218 0.6731670109 -0.5481855543
-0.1141828673 0.7725531769 -0.2899950399 -0.4809005786 0.6753396479 -0.5290971536
-0.4809005786 1.4168783088 -0.4360140812 -0.5001339218 0.6731670109 -0.5481855543
-0.0357041532 0.6731670109 0.4638672895 -0.4809005786 0.6539336678 -0.5481855543
-0.4408803190 0.6459795456 0.4474213963 -0.4966107387 0.6736696551 -0.5532877371
-0.4809005786 1.1938331132 -0.4755803762 -0.4945825250 0.6714578399 -0.5609109496
0.3499309167 1.8193371878 -0.5628490359 -0.4806720288 0.6708449117 -0.5672679927
-0.3722747146 0.9073041140 -0.4235748973 -0.4827649820 0.6746830408 -0.5669563548
-0.1313599737 1.0368810895 -0.4633868983 -0.4809005786 0.6704494934 -0.5672259486
0.3739767885 0.6731670109 0.3062943750 -0.4809005786 0.6539336678 -0.5481855543
0.3461331777 0.4500835218 -0.3067050646 -0.5001339218 0.6731670109 -0.5481855543
0.1064080383 1.2837563204 -0.3864380235 -0.4809005786 0.6766407451 -0.5292686189
0.3679894681 0.9370953124 -0.3199117551 -0.4809540281 0.6766717877 -0.5292745427
0.0651690964 1.9618010033 -0.5540619561 -0.4814496521 0.6920285736 -0.5501919382
-0.4809005786 0.8833424458 0.3413258901 -0.5001189775 0.6731670109 -0.5475426606
-0.2563250628 0.9809005017 0.1720784326 -0.4822193705 0.6923243439 -0.5475205422
-0.4809005786 0.8009675949 -0.2937485038 -0.5001278056 0.6731670109 -0.5484862291
0.1800488935 1.7095756334 -0.4840579531 -0.4809773773 0.6776105672 -0.5294730885
0.4999999231 0.8128223352 0.2288098517 -0.4616829106 0.6731670109 -0.5475072327
0.0457073573 0.9718198057 -0.2724869661 -0.4808090856 0.6922743373 -0.5502646979
0.2413778509 0.9354398409 -0.3198333023 -0.4809568361 0.6767362194 -0.5292864482
0.1844589067 0.7513289134 -0.2861360619 -0.4809144266 0.6751802419 -0.5290723426
-0.0259530405 0.7189386557 -0.4487830785 -0.4807326715 0.6704710925 -0.5671076443
0.1154146860 0.6731670109 -0.2792016724 -0.4809005786 0.6539336678 -0.5481855543
0.1818977947 0.6731670109 -0.0485367263 -0.4809005786 0.6539336678 -0.5481855543
-0.4847857524 0.6962855279 -0.1037154953 -0.4992470338 0.6674686714 -0.5484885371
0.3892566988 1.2509656052 -0.3804178717 -0.4810414051 0.6767512406 -0.5292897371
-0.4809005786 1.8200019114 -0.5388767124 -0.5001339218 0.6731670109 -0.5481855543
-0.1923531170 1.4285250405 -0.5189392750 -0.4809105415 0.6709470023 -0.5672862066
-0.2991128274 0.6731670109 0.0300000533 -0.4809005786 0.6539336678 -0.5481855543
-0.4368977091 1.1628289447 -0.3614644506 -0.4806731635 0.6767114084 -0.5292831977
-0.0223383068 0.6731670109 -0.0087260332 -0.4809005786 0.6539336678 -0.5481855543
0.1021581234 0.6731670109 0.2532225611 -0.4809005786 0.6539336678 -0.5481855543
-0.1688236989 0.9797401348 -0.1774430928 -0.4809573747 0.6923251710 -0.5498316400
0.4427114871 0.9940994988 -0.4580525882 -0.4788954833 0.6705597774 -0.5670533870
0.2230142972 0.8074914295 -0.2963474477 -0.4809340446 0.6756783663 -0.5291405825
0.1823621453 0.9840309206 0.2605169411 -0.4805442617 0.6923434234 -0.5470312652
0.3072079300 0.6731670109 0.3735016000 -0.4809005786 0.6539336678 -0.5481855543
0.3048375936 0.6731670109 -0.2335258867 -0.4809005786 0.6539336678 -0.5481855543
-0.0454213190 0.9764413857 0.3515910908 -0.4810183828 0.6923022064 -0.5463587137
-0.0976400573 1.8886162862 -0.5204222811 -0.4808057582 0.6777336028 -0.5295026694
0.1311961056 0.9701825289 -0.2921342685 -0.4807067450 0.6922611047 -0.5503539983
0.2630462507 0.6731670109 -0.2796457318 -0.4809005786 0.6539336678 -0.5481855543
0.0650719872 1.7204934407 -0.5471347983 -0.4809083104 0.6704322603 -0.5672219865
0.3853056700 0.8177997513 -0.4206764324 -0.4791484787 0.6731670109 -0.5673327513
0.3941085404 0.6731670109 -0.1465867903 -0.4809005786 0.6539336678 -0.5481855543
-0.4449937348 0.6731670109 0.4711892693 -0.4809005786 0.6539336678 -0.5481855543
0.3485881216 0.6445400837 -0.3715071023 -0.4852041161 0.6829111419 -0.5620539103
0.2569400105 0.9667268548 -0.3336025681 -0.4801629030 0.6922426407 -0.5503398618
0.3461331777 0.1813334596 -0.3363310678 -0.5000905506 0.6731670109 -0.5483639820
-0.0202963412 1.9332680887 -0.5816853452 -0.4809030020 0.6745864701 -0.5666704127
-0.2732091300 1.4095092457 -0.5172105629 -0.4809161191 0.6708739925 -0.5672775132
-0.4905380222 0.9068465528 -0.0133164936 -0.4998260152 0.6762362294 -0.5486255747
-0.0287367400 1.7622693006 -0.4967392271 -0.4809397377 0.6777661841 -0.5295103820
-0.4819916285 0.6934914040 -0.0010282530 -0.4991733509 0.6671932307 -0.5481502034
0.3461332546 0.2801082745 -0.3173460656 -0.5001327485 0.6731666455 -0.5481788996
-0.3881149691 0.3966070767 -0.3558521226 -0.4768645385 0.6733592097 -0.5653778359
0.3484446794 0.0130604786 0.5096483201 -0.4869937594 0.6715877419 -0.5330229674
0.1084742764 0.6731670109 -0.0928021694 -0.4809005786 0.6539336678 -0.5481855543
0.4458246345 0.9627437064 0.3761398953 -0.4775663632 0.6920490763 -0.5473818698
-0.3956474771 0.7607526746 -0.4224828665 -0.4825177758 0.6687285323 -0.5667587130
0.0362823652 1.9239817306 -0.5858258223 -0.4808819415 0.6715936081 -0.5673535426
-0.4116640629 0.1295407207 -0.3536089762 -0.4968678693 0.6686006114 -0.5465747426
0.0255411969 1.0001118419 0.0675453278 -0.4807682532 0.6923972191 -0.5482278292
0.1840396006 0.9801346876 0.3072711981 -0.4806960897 0.6923290561 -0.5466566381
-0.0363339298 0.6731670109 0.3854283115 -0.4809005786 0.6539336678 -0.5481855543
-0.2533580504 0.8267988018 -0.4344912620 -0.4809221776 0.6695678947 -0.5670524446
-0.0473410182 1.3180480057 -0.5080729361 -0.4809005786 0.6705747025 -0.5672433740
0.4186371692 0.9670291838 0.2375884111 -0.4773399098 0.6920388634 -0.5481117367
0.1496053001 1.3498387217 -0.3984529968 -0.4809113108 0.6767103505 -0.5292838709
0.1818695602 1.0215817728 -0.4618569627 -0.4809005786 0.6704526092 -0.5672263909
-0.0349478597 1.6289424579 -0.4598680043 -0.4809389299 0.6776907510 -0.5294920718
-0.2287431985 0.7165413156 0.5698021972 -0.4812726861 0.6680433445 -0.5296848284
0.3830439251 0.6731670109 0.2413852077 -0.4809005786 0.6539336678 -0.5481855543
0.1009194192 0.9696602282 -0.2984021650 -0.4807395186 0.6922585851 -0.5503824252
0.1067290236 1.4254991355 -0.4122094340 -0.4809005786 0.6770901129 -0.5293639970
0.3826133097 0.3527953481 -0.2789187499 -0.4808270688 0.6731302560 -0.5289539037
0.3600446741 0.3141255385 0.4339983307 -0.4820487130 0.6730006425 -0.5621534236
-0.4171061950 0.6481770512 0.4149095838 -0.4877740754 0.6737995571 -0.5613244088
-0.4623125141 0.6731670109 0.0986298147 -0.4809005786 0.6539336678 -0.5481855543
0.3822558580 0.9715768116 -0.0522755536 -0.4782698227 0.6921542250 -0.5486076685
-0.1123829341 0.9697998430 0.4312895258 -0.4810695628 0.6922499878 -0.5459343299
-0.3650685002 0.9616671585 0.4806498047 -0.4829325621 0.6920966019 -0.5459919530
-0.2865557431 0.9794016665 -0.1815046748 -0.4818888839 0.6923288638 -0.5492787968
-0.2846545464 1.1954415977 -0.4857808567 -0.4809585287 0.6704749007 -0.5672292759
0.3220687457 0.6838164938 -0.4199971685 -0.4797572910 0.6603816461 -0.5613482004
0.1878999249 0.6731670109 0.1908415590 -0.4809005786 0.6539336678 -0.5481855543
0.1075983130 0.6731670109 -0.3082526371 -0.4809005786 0.6539336678 -0.5481855543
0.4519903827 1.1065453548 -0.3507208782 -0.4767815274 0.6765841606 -0.5302412875
0.1374110143 0.9661308905 0.4753167256 -0.4809005786 0.6922193684 -0.5456095557
-0.3857489409 0.4052919505 -0.2789187499 -0.4803271749 0.6734537032 -0.5289832922
-0.3770148490 1.7825669401 -0.4980634043 -0.4805473198 0.6774715485 -0.5294452194
0.4046901681 1.3700236730 -0.5136209671 -0.4798452451 0.6708835323 -0.5672429124
0.4420163941 1.5475838199 -0.4352172246 -0.4809143881 0.6772418063 -0.5293892504
0.4537999518 1.2348421013 -0.4889929597 -0.4722629803 0.6710494583 -0.5639417783
-0.4104342060 1.9760100203 -0.5477324744 -0.4801885987 0.6809796911 -0.5306730953
-0.4736362603 0.6731670109 0.1589190561 -0.4812398740 0.6541166923 -0.5481855543
0.4059449898 0.6433075342 -0.2945997331 -0.4786823779 0.6755207490 -0.5292612717
-0.2663217276 0.6731670109 0.0078137380 -0.4809005786 0.6539336678 -0.5481855543
-0.4253349693 0.3739357542 0.4331582375 -0.4956814028 0.6722032281 -0.5598911208
0.2241593736 1.5266560769 -0.4306016261 -0.4809644718 0.6775341915 -0.5294562593
-0.4095655513 1.3535183487 -0.3991220094 -0.4808913274 0.6768394640 -0.5293086819
-0.3825295485 0.0260236750 0.5096483201 -0.4803204817 0.6718892246 -0.5321536011
0.4999999231 0.8758937566 -0.0117194915 -0.4616714860 0.6731670109 -0.5484222206
0.4944416023 0.7067453508 0.3455480898 -0.4619790464 0.6715197136 -0.5472497175
-0.1358195128 1.7052663452 -0.4827651454 -0.4808537839 0.6776916934 -0.5294921872
-0.0770988275 0.6731670109 -0.1391370241 -0.4809005786 0.6539336678 -0.5481855543
0.3424786502 0.5011086772 0.4233135354 -0.4923502840 0.6746802712 -0.5621150915
-0.2545222831 1.9226522834 -0.5253312265 -0.4806197910 0.6777901296 -0.5295187485
0.2013426662 0.9150956567 0.5754531650 -0.4804037044 0.6829473006 -0.5324585650
0.2970343185 0.9749407810 0.3695985007 -0.4800380016 0.6922905510 -0.5466700630
-0.3956588248 0.0596314803 0.4485407191 -0.4902509068 0.6712693531 -0.5605196472
0.2202823162 0.9633763680 -0.3738083525 -0.4804235340 0.6922133099 -0.5507194511
-0.2817456763 0.9761700032 0.3548475843 -0.4818512443 0.6923078802 -0.5468798603
-0.4797621378 0.8102553186 0.5311585449 -0.4989197016 0.6731670109 -0.5418645930
0.4607093765 0.6731670109 0.3284544945 -0.4799362957 0.6541645256 -0.5481571851
-0.4632482162 0.9787947776 -0.4517197215 -0.4891130238 0.6707708634 -0.5639360275
-0.1011259853 1.6133610842 -0.4551935902 -0.4809252165 0.6776804419 -0.5294895138
-0.4809166192 0.7398227005 0.2786717553 -0.5000914930 0.6726248999 -0.5474685353
-0.3670655559 0.0557401903 0.4487631143 -0.4742377639 0.6722479649 -0.5576008528
-0.3328841739 0.9671972255 -0.3243747178 -0.4818192015 0.6922261385 -0.5502479264
-0.0092900029 0.9683248572 0.4489891638 -0.4809245433 0.6922320816 -0.5457363419
-0.1039219749 0.6731670109 0.4142178566 -0.4809005786 0.6539336678 -0.5481855543
0.4643650772 0.6731670109 -0.3171777738 -0.4747924535 0.6551190187 -0.5490063757
-0.2852224108 0.9755248592 -0.4572512695 -0.4809570477 0.6704537055 -0.5672264102
0.2645403353 0.6731670109 0.0578626282 -0.4809005786 0.6539336678 -0.5481855543
-0.4327180151 1.3382527481 -0.5107326959 -0.4822245442 0.6702959729 -0.5671485151
-0.1397707339 0.8447894402 -0.3031288937 -0.4809005786 0.6760236432 -0.5291905699
-0.4303779135 0.4621875454 0.4357175223 -0.4959369947 0.6726510188 -0.5581917011
0.4975362472 0.7882690493 0.3084126970 -0.4616915656 0.6731670109 -0.5472425050
-0.3537613909 1.2439766891 -0.4946054223 -0.4814652888 0.6703833115 -0.5671951367
-0.1196509452 0.9955791391 -0.4592567109 -0.4809005786 0.6704507821 -0.5672261217
0.2966866951 0.6799813267 -0.3818998008 -0.4807748310 0.6566151035 -0.5570325267
-0.1452423700 0.6731670109 -0.0822708370 -0.4809005786 0.6539336678 -0.5481855543
0.3523142549 0.8185448895 -0.4248003497 -0.4793637383 0.6731670109 -0.5673509653
0.0486471930 1.1633995019 -0.4799550194 -0.4809005786 0.6704779011 -0.5672298914
-0.1603201378 0.9903212047 -0.0504701196 -0.4813442534 0.6923577330 -0.5488377954
0.1980943854 0.8033266990 -0.2955902118 -0.4809310634 0.6756518243 -0.5291365243
0.0414538650 0.6731670109 0.3889672851 -0.4809005786 0.6539336678 -0.5481855543
0.3299411454 0.1064466493 0.4656479701 -0.4978459040 0.6729230745 -0.5501178129
-0.4549803213 0.9628229670 -0.1189353398 -0.4847837521 0.6919955499 -0.5484049683
0.3886546182 0.5923819113 -0.2811841108 -0.4821835772 0.6750077381 -0.5292883523
0.3164661882 0.6731670109 -0.1355248292 -0.4809005786 0.6539336678 -0.5481855543
0.0581266924 0.6731670109 0.4757885772 -0.4809005786 0.6539336678 -0.5481855543
0.3066052724 1.8202515025 -0.5062999104 -0.4811857706 0.6776518611 -0.5294852825
0.0045185182 0.7432190012 0.5831409630 -0.4809005786 0.6690609614 -0.5294198314
0.4427629363 0.6731670109 0.1027688686 -0.4809005786 0.6539336678 -0.5481855543
-0.2784040560 1.5977816724 -0.5348636368 -0.4809825896 0.6710873865 -0.5673012086
0.3774699676 0.9721750647 0.1547904074 -0.4779176602 0.6921343570 -0.5482626992
-0.4809005786 1.1797135505 -0.4537756312 -0.4983262952 0.6726345935 -0.5524449128
0.4807665799 1.2109114564 -0.4043442660 -0.4623130526 0.6738593921 -0.5443280381
0.1325183788 1.7461785896 -0.5509983153 -0.4808207602 0.6705071165 -0.5672315839
0.2490507432 0.7836235815 0.5865816927 -0.4800244998 0.6715891075 -0.5291354472
-0.4809005786 1.2371540645 -0.4485395459 -0.5001339218 0.6731670109 -0.5481855543
0.4701044030 0.8566240624 -0.3284752088 -0.4648778382 0.6742843528 -0.5382089307
0.1394831762 0.6731670109 0.4566494389 -0.4809005786 0.6539336678 -0.5481855543
-0.3368273554 1.8099979957 -0.5617947217 -0.4813600247 0.6706846787 -0.5672407967
0.0939264064 0.7775627511 0.5865816927 -0.4809005786 0.6711394896 -0.5291582387
-0.2432470049 0.9094494204 -0.3148852363 -0.4809005786 0.6766424761 -0.5292749082
-0.4352830507 0.9658545843 0.2126977147 -0.4842591819 0.6920588853 -0.5477122602
0.3160841563 0.9798482839 0.2094484722 -0.4792231041 0.6923025333 -0.5478032147
-0.3428606436 0.6731670109 0.1821834580 -0.4809005786 0.6539336678 -0.5481855543
0.2809206428 0.6731670109 0.1624094463 -0.4809005786 0.6539336678 -0.5481855543
-0.1295114956 0.6731670109 -0.0279223521 -0.4809005786 0.6539336678 -0.5481855543
0.2006563628 0.9499713048 -0.4060146626 -0.4801884256 0.6880331350 -0.5582288407
0.0983673084 0.9748801768 0.3703253672 -0.4809005786 0.6922872236 -0.5461893641
0.3901773989 1.0788312421 -0.4667593880 -0.4799474318 0.6704247209 -0.5671809425
0.4699670385 1.6541538703 -0.4727156852 -0.4684508548 0.6761200600 -0.5354125949
0.1549849623 0.6731670109 0.4200574073 -0.4809005786 0.6539336678 -0.5481855543
-0.4505750010 0.9630685960 -0.1452699218 -0.4847332261 0.6920046088 -0.5484350300
0.3868114292 1.7192738928 -0.4832782333 -0.4811821163 0.6776986751 -0.5294961108
0.1913741783 0.9877952128 0.2153449536 -0.4803162504 0.6923533478 -0.5474401276
0.0370989937 1.2178124376 -0.3744482074 -0.4809005786 0.6766912133 -0.5292780240
0.4949652493 0.8656590216 -0.2189001794 -0.4617061060 0.6732281153 -0.5493190521
-0.4448403874 0.7905809549 0.5673483496 -0.4845104078 0.6727551674 -0.5297422784
-0.1391695189 0.8702844675 -0.4423977432 -0.4809005786 0.6699651978 -0.5671314551
0.1666143648 0.7005221526 -0.4024405882 -0.4809005786 0.6633191738 -0.5639166403
0.3319984207 0.1784510354 0.4558483125 -0.4973181026 0.6733377261 -0.5530798439
0.0053611694 0.8384207417 0.5865816927 -0.4809005786 0.6731670109 -0.5289522111
0.0723300547 0.6731670109 0.2558646647 -0.4809005786 0.6539336678 -0.5481855543
0.3438306965 0.9744860663 0.3697325379 -0.4794335746 0.6922874352 -0.5469654872
-0.1975925297 0.8638268918 -0.4412236438 -0.4809118301 0.6699075363 -0.5671195689
-0.4255697123 1.3824619914 -0.4043845021 -0.4808741905 0.6769781748 -0.5293383397
0.0271986495 1.5988564700 -0.5349711128 -0.4809265821 0.6710296865 -0.5672939961
0.1200808297 1.0886698856 -0.4685657836 -0.4809005786 0.6704555904 -0.5672268141
-0.4326293494 0.5015873374 0.5082760210 -0.4957707417 0.6739542317 -0.5380150201
-0.3768849277 0.9616671585 0.4258088308 -0.4830687149 0.6921208552 -0.5464523993
-0.4622260410 0.6737258165 -0.3861573129 -0.4910914616 0.6583444504 -0.5529293238
0.2269848286 1.8658491047 -0.5150033829 -0.4810641774 0.6777532209 -0.5295085548
-0.1494381046 1.3590866516 -0.5126266802 -0.4809005786 0.6706860828 -0.5672561641
-0.1031289649 0.6731670109 -0.0418156922 -0.4809005786 0.6539336678 -0.5481855543
0.1708811666 1.8757931662 -0.5745114043 -0.4808212218 0.6712003439 -0.5673114408
0.1111355172 1.8775645956 -0.5754421058 -0.4808403975 0.6712314058 -0.5673139988
0.2387713290 0.6731670109 -0.1919376672 -0.4809005786 0.6539336678 -0.5481855543
0.1971236401 1.3518726093 -0.3988228155 -0.4809134265 0.6767186016 -0.5292855634
0.4009894036 0.9692351328 -0.0113159567 -0.4778738274 0.6921035836 -0.5484775164
-0.3738737940 0.6731670109 -0.2376863281 -0.4809005786 0.6539336678 -0.5481855543
-0.0240198972 0.9956043156 0.1216357397 -0.4810252107 0.6923818324 -0.5477678445
0.4190848637 1.3260349976 -0.5095057240 -0.4797095538 0.6707385321 -0.5672216403
0.0004881134 0.6731670109 0.3708191448 -0.4809005786 0.6539336678 -0.5481855543
-0.3730762065 0.6731670109 -0.0337217629 -0.4809005786 0.6539336678 -0.5481855543
-0.3655005196 0.3360377786 -0.3266428867 -0.4624123159 0.6741161957 -0.5502516962
-0.4384781129 1.8551219191 -0.5673587740 -0.4821019124 0.6708035023 -0.5672320455
-0.4171371030 0.2304733243 0.4817981122 -0.4950256035 0.6722934710 -0.5482241941
0.4241810265 0.9653198012 0.3875236688 -0.4780636220 0.6921160468 -0.5472070195
0.1413203452 0.6731670109 0.4835089373 -0.4809005786 0.6539336678 -0.5481855543
0.3901594927 1.8465980861 -0.5091912397 -0.4812767251 0.6775167854 -0.5294552977
0.3160743281 0.9656106093 0.4785978185 -0.4801695000 0.6922092516 -0.5458589545
-0.1208985545 1.4165366284 -0.5178493983 -0.4809005786 0.6709000922 -0.5672810136
0.4212344398 0.4274032558 0.4315921048 -0.4672405005 0.6722132102 -0.5607282521
-0.4046198702 0.3305150780 0.4330616861 -0.4893864065 0.6724248155 -0.5613206390
-0.1945783187 0.9129473692 -0.3155212252 -0.4809005786 0.6766732302 -0.5292791203
0.4946928282 0.9250354870 -0.2017112636 -0.4639584267 0.6819530906 -0.5491593577
-0.3624176647 1.0676428794 -0.3457260559 -0.4809241587 0.6766714992 -0.5292773508
-0.4537153636 1.2728613816 -0.3834709341 -0.4840464996 0.6765768904 -0.5302349405
0.3461331777 0.3385951401 -0.3009557760 -0.4992189724 0.6731670109 -0.5445974010
-0.3051728307 1.0416362644 -0.4638624234 -0.4809907637 0.6704410885 -0.5672244676
-0.3902824707 0.6731670109 -0.1332725278 -0.4809005786 0.6539336678 -0.5481855543
-0.3780374858 0.6731670109 -0.1816641192 -0.4809005786 0.6539336678 -0.5481855543
-0.4809005786 1.3494112799 -0.4299465769 -0.5001339218 0.6731670109 -0.5481855543
-0.0163375422 1.8559700711 -0.5154793696 -0.4809125802 0.6777738390 -0.5295121707
-0.4396570206 0.6245717768 0.4663485061 -0.4969825962 0.6738249836 -0.5495144821
0.1951742061 0.6731670109 0.5379410872 -0.4809005786 0.6549262622 -0.5440625218
-0.0497070271 0.9652063629 0.4864111334 -0.4809741269 0.6922085977 -0.5455540098
-0.2418919967 0.7694533005 -0.4327854953 -0.4820749473 0.6731670109 -0.5673829503
-0.2102887673 0.6731670109 -0.3709191390 -0.4809005786 0.6547943022 -0.5535496952
-0.1595278587 1.2119902162 -0.4887897017 -0.4809005786 0.6705016350 -0.5672332188
0.4331424373 1.6344712170 -0.4589137996 -0.4810534260 0.6774815884 -0.5294455848
0.3646073039 0.4569399009 0.5096483201 -0.4860382469 0.6738744902 -0.5334274831
0.4131761306 1.1114253348 -0.4694611342 -0.4800097478 0.6703059165 -0.5671757303
-0.3021839692 0.8863627923 -0.4327854953 -0.4822854370 0.6732252687 -0.5673656596
0.0590749539 1.9508865811 -0.5771005008 -0.4810925658 0.6772335167 -0.5660406746
0.2678804746 0.6731670109 -0.1825495070 -0.4809005786 0.6539336678 -0.5481855543
0.0229734879 0.8039920958 0.5865816927 -0.4809005786 0.6729116498 -0.5289781569
0.5000000000 0.8513663396 0.2236445643 -0.4616789870 0.6731670109 -0.5476075154
-0.2472150937 0.9740386218 -0.2458612490 -0.4812786292 0.6922824730 -0.5500454955
-0.0631535574 0.6731670109 -0.0884995167 -0.4809005786 0.6539336678 -0.5481855543
0.0128283995 0.6731670109 -0.1786403492 -0.4809005786 0.6539336678 -0.5481855543
0.2960860185 1.9195821995 -0.5822991388 -0.4807005134 0.6714405491 -0.5673366942
0.3743915364 1.6927728655 -0.4757936932 -0.4811575361 0.6776793841 -0.5294912256
-0.0380691043 0.9930454539 -0.0177790332 -0.4809005786 0.6923758701 -0.5487742100
0.3419679280 0.9766128317 0.1975097398 -0.4786838589 0.6922320239 -0.5479727566
-0.4860015112 0.6975012868 -0.0255608053 -0.4992818462 0.6675875912 -0.5482136542
0.2828792319 0.8233550909 -0.2992317183 -0.4809395646 0.6757952281 -0.5291578348
-0.3492778678 0.1053745443 0.4663057889 -0.4638684146 0.6728764528 -0.5500312244
0.0156124067 1.6991400830 -0.5449994741 -0.4809698956 0.6705083667 -0.5672304107
-0.2960862301 0.6731670109 -0.0637016981 -0.4809005786 0.6539336678 -0.5481855543
-0.0260596894 1.4664835819 -0.4196611620 -0.4809005786 0.6772605203 -0.5293990017
0.2720893840 1.2473971661 -0.4952273324 -0.4808206448 0.6705160600 -0.5672351229
-0.3651235845 0.4145071453 0.4282622361 -0.4710685320 0.6739626174 -0.5610723174
0.0691820950 0.6731670109 0.2052347929 -0.4809005786 0.6539336678 -0.5481855543
0.4271819088 1.1155203251 -0.3523806965 -0.4811525546 0.6768114794 -0.5293024503
-0.4145596427 0.6008654120 -0.3635222452 -0.4789182941 0.6712555628 -0.5672064652
-0.4902208836 0.7611238012 0.1763247701 -0.5001246898 0.6731670109 -0.5477084327
-0.1811268454 1.1090762320 -0.3545606036 -0.4808780371 0.6767581261 -0.5292905449
-0.0391729443 0.9992596509 0.0777719272 -0.4811040674 0.6923926223 -0.5480451317
-0.4809005786 0.7980208351 0.3621252313 -0.5001214970 0.6731670109 -0.5476340382
0.3038409409 1.3207098427 -0.5084406969 -0.4807108032 0.6705349856 -0.5672334688
-0.3471656428 0.6731670109 -0.2386388209 -0.4809005786 0.6539336678 -0.5481855543
-0.2031333097 1.8614327252 -0.5142004100 -0.4807166309 0.6776550539 -0.5294842823
-0.4809005786 0.7447003725 -0.2268027946 -0.5001195352 0.6731670109 -0.5488082530
0.3660759235 1.1544036057 -0.4765547951 -0.4803849904 0.6703492300 -0.5671993104
-0.1856734346 1.5531396404 -0.4371271340 -0.4808949048 0.6776317431 -0.5294776276
0.3942266524 0.0850106075 -0.3157754900 -0.4620389967 0.6705452755 -0.5486421154
-0.2487650895 0.7593884920 0.5865816158 -0.4817032822 0.6699623513 -0.5293013925
-0.0531863197 0.9992427833 0.0565884961 -0.4811398799 0.6923917376 -0.5481797843
-0.4219116074 0.9682214779 0.1408247692 -0.4840675794 0.6920793304 -0.5479207689
0.4596047863 1.8911816487 -0.5161123197 -0.4749027567 0.6772296508 -0.5305292299
-0.4041843504 1.7852588580 -0.4978471253 -0.4804982363 0.6774173105 -0.5294337563
0.1816907478 0.8442336350 -0.4376612247 -0.4809005786 0.6697072018 -0.5670810446
0.4215757547 0.9666618269 0.1236069458 -0.4773126946 0.6920377864 -0.5482107692
-0.4809005786 1.0371056965 -0.4018656843 -0.5001339218 0.6731670109 -0.5481855543
-0.3333028645 1.5765267125 -0.5323939602 -0.4810976242 0.6712700648 -0.5673198457
-0.1825078187 1.9320017269 -0.5270311463 -0.4806888580 0.6777266788 -0.5295019385
-0.4527151720 0.6731670109 -0.1475077982 -0.4809005786 0.6539336678 -0.5481855543
0.2220136056 0.9636622139 0.5049410939 -0.4808036233 0.6921949228 -0.5454144334
-0.3254494674 0.9400286281 -0.4535486778 -0.4810780831 0.6704791897 -0.5672256408
-0.0351599457 0.9814348809 0.2916689178 -0.4810028615 0.6923384805 -0.5466783718
-0.4599154818 1.7364840806 -0.5469355409 -0.4813428686 0.6711251800 -0.5672969581
-0.0570678199 1.0304871569 -0.3388427886 -0.4809005786 0.6767675890 -0.5292922374
0.2259168588 1.6772516537 -0.4743607322 -0.4810548492 0.6776251460 -0.5294771083
-0.3608201048 0.5093527228 0.4514744771 -0.4671186381 0.6743912325 -0.5532129194
-0.0637119975 1.8135740127 -0.5631988519 -0.4809760118 0.6708061950 -0.5672645307
0.0540957491 1.4960529814 -0.5250781734 -0.4809005786 0.6711828031 -0.5673135949
-0.1191119115 0.9565693032 -0.3994166642 -0.4810518873 0.6910120145 -0.5536197815
-0.1610272132 0.8784201524 0.5865816927 -0.4809478734 0.6757594348 -0.5292717924
-0.3159649481 0.7065395540 -0.2840128932 -0.4809322559 0.6707634393 -0.5305303839
-0.2243603235 1.0623736357 -0.3452200651 -0.4808720171 0.6767569529 -0.5292903525
0.0025024022 1.1553772167 -0.3630963613 -0.4809005786 0.6767389890 -0.5292869290
0.2249163210 0.7978140959 0.5865816927 -0.4801806553 0.6725152506 -0.5290398190
-0.2256193766 1.7432794708 -0.5504180261 -0.4809828396 0.6705147906 -0.5672331418
-0.4137779419 0.4443725844 -0.3558521226 -0.4829334083 0.6727121616 -0.5661208199
-0.0728930531 0.9652882585 -0.3508654745 -0.4809202158 0.6922133676 -0.5508129828
0.3319370856 0.6731670109 0.2427533331 -0.4809005786 0.6539336678 -0.5481855543
0.3146424442 1.9259841331 -0.5253413625 -0.4811967721 0.6777310640 -0.5295050159
-0.3866816811 1.7420429015 -0.4904237088 -0.4805606677 0.6773857101 -0.5294245051
-0.3145122729 0.9788258971 0.3129092026 -0.4821678251 0.6923237669 -0.5472627770
-0.0204240314 0.8496354349 0.5865816158 -0.4809005786 0.6734393166 -0.5289857348
-0.3422426378 1.1556300967 -0.3622477285 -0.4807294980 0.6767020033 -0.5292807359
0.0451036611 1.5500397063 -0.5300894402 -0.4809054831 0.6712837974 -0.5673250003
0.3919722353 1.8398076004 -0.5656154253 -0.4804321505 0.6710653643 -0.5672707815
-0.4816942617 0.8376990490 -0.1539944355 -0.5001152462 0.6731670109 -0.5490090491
-0.0643921078 1.6431190474 -0.5393973782 -0.4809109646 0.6708426807 -0.5672723202
-0.1079619578 1.7409337146 -0.5499915075 -0.4809286208 0.6704663418 -0.5672267564
0.4465120342 1.0822960327 -0.3463119035 -0.4792117564 0.6766776538 -0.5297036963
0.3643054558 1.8732827534 -0.5146305830 -0.4812670507 0.6775198819 -0.5294559901
-0.1474663407 0.8827611372 -0.3100328369 -0.4809005786 0.6763830760 -0.5292396342
0.4566384663 0.6731670109 0.4127756443 -0.4781471524 0.6545928521 -0.5481045627
0.2233678638 1.0570071483 -0.3441467484 -0.4809884557 0.6767987277 -0.5292985652
-0.4463692458 0.9636858710 0.2878622930 -0.4844260696 0.6920434217 -0.5474897496
0.1751679903 0.8470285668 -0.3035359867 -0.4809200620 0.6760592057 -0.5291934165
-0.0048624680 0.6731670109 -0.3503077075 -0.4809005786 0.6543027749 -0.5504027741
0.3685055563 1.7991926650 -0.5587642392 -0.4806561805 0.6707132210 -0.5672525098
0.0264708983 1.8969825981 -0.5811717187 -0.4808851919 0.6714672065 -0.5673388098
0.4042606490 0.3326319767 -0.2967617147 -0.4628559714 0.6720737877 -0.5434868293
-0.1321084393 1.8994360803 -0.5216061319 -0.4807598098 0.6777183508 -0.5294991689
-0.2306503384 0.6731670109 -0.2147148885 -0.4809005786 0.6539336678 -0.5481855543
-0.4410515150 0.6489753696 0.4801979942 -0.4973449524 0.6741262739 -0.5462307158
0.3518674259 1.1528980773 -0.3617391027 -0.4810803334 0.6768047093 -0.5293003346
-0.3776523189 0.1262439141 -0.3558521226 -0.4809005786 0.6731670109 -0.5674188975
-0.0034295263 0.9639935275 -0.3664022268 -0.4809503160 0.6922135984 -0.5508299082
0.0592211850 0.9621407603 0.5231985373 -0.4809005786 0.6921836713 -0.5453139969
-0.3905060006 1.9928494661 -0.5673446760 -0.4806692976 0.6859744557 -0.5620004031
0.2937587455 1.4152137014 -0.4103393568 -0.4809424688 0.6769908304 -0.5293420710
0.4624777862 0.9222559804 -0.4052630043 -0.4691065964 0.6819833831 -0.5598037822
0.0862580148 1.7060981488 -0.5456952787 -0.4808884808 0.6705140790 -0.5672321225
-0.3817265757 0.2998170851 -0.3558521226 -0.4796315049 0.6732560613 -0.5667167843
0.3475525792 0.6731670109 -0.2724286891 -0.4809005786 0.6539336678 -0.5481855543
-0.1903891619 1.5888003166 -0.4478253542 -0.4808809221 0.6776450333 -0.5294808396
-0.2277263894 1.3765310246 -0.4033061463 -0.4808634005 0.6768674292 -0.5293164329
0.3907461674 1.1699843254 -0.4788269646 -0.4802572040 0.6703055126 -0.5671892898
-0.1154931388 0.6731670109 -0.1279307167 -0.4809005786 0.6539336678 -0.5481855543
-0.4233437413 1.4512487162 -0.5210050514 -0.4813111720 0.6709706978 -0.5672686081
-0.1640332694 0.9755158772 -0.2281341843 -0.4809131380 0.6922903779 -0.5501509327
0.3182240581 0.8259407639 0.5828578290 -0.4795328186 0.6731670109 -0.5290046412
-0.3526076596 0.2170887446 -0.3048872060 -0.4618355079 0.6744427971 -0.5463625411
0.3156104968 1.5535836036 -0.4368535589 -0.4810136899 0.6775340761 -0.5294554323
-0.3110186323 0.9805429346 0.0801686903 -0.4828149502 0.6922993214 -0.5479333859
0.1633607371 0.6731670109 -0.2800329952 -0.4809005786 0.6539336678 -0.5481855543
-0.2612832456 1.0811533797 -0.4678141254 -0.4809862631 0.6704310486 -0.5672230251
-0.3761855072 0.6731670109 -0.2102188252 -0.4809005786 0.6539336678 -0.5481855543
-0.1704116230 1.0915103427 -0.4688498217 -0.4809137342 0.6704445505 -0.5672251985
-0.0924830786 0.9875948783 0.2177491215 -0.4812801871 0.6923546557 -0.5471183153
-0.1239737930 0.6731670109 0.4325343078 -0.4809005786 0.6539336678 -0.5481855543
0.0975541227 0.6731670109 0.2778685709 -0.4809005786 0.6539336678 -0.5481855543
-0.1554789323 1.4760232047 -0.5232572759 -0.4809009825 0.6711142747 -0.5673057092
-0.1524706835 0.9816259834 0.2893757455 -0.4813115567 0.6923510398 -0.5468910734
-0.4809005786 1.1448787925 -0.3990806962 -0.5001339218 0.6731670109 -0.5481855543
0.2295573075 1.7368584000 -0.5492505622 -0.4808007383 0.6704947879 -0.5672312377
0.4404255273 0.7026278959 -0.2879245513 -0.4797046686 0.6670795617 -0.5315229013
0.1495479847 0.7611485160 -0.4327854953 -0.4797010912 0.6731670109 -0.5673813732
-0.3655005196 0.4935867090 -0.3256168263 -0.4616714283 0.6733054333 -0.5481657824
0.3461331777 0.5213259982 -0.3499020763 -0.5001339218 0.6731670109 -0.5481855543
0.2816748014 0.9704556039 -0.2888575800 -0.4799676845 0.6922717985 -0.5499585993
0.3461331777 0.5418168751 -0.3164191339 -0.5001339218 0.6731670109 -0.5481855543
-0.1220384955 0.6731670109 0.0509798225 -0.4809005786 0.6539336678 -0.5481855543
-0.2248215968 0.9912728705 0.0667163323 -0.4822123311 0.6923458853 -0.5479413485
0.1765683892 1.4790819795 -0.4219517570 -0.4809305249 0.6773285102 -0.5294135998
0.2469349792 1.6389566442 -0.5389811302 -0.4808503988 0.6708803780 -0.5672771093
0.0005225219 0.9953138152 0.1251222447 -0.4809005786 0.6923836980 -0.5477852700
0.1434970788 1.7978249051 -0.5026353623 -0.4809714150 0.6777159082 -0.5294992074
-0.2589673972 0.9784346524 -0.1931089201 -0.4816134817 0.6923193625 -0.5495195405
0.3409135369 1.4973201317 -0.4252678161 -0.4809514316 0.6772554812 -0.5293953858
0.3137537291 1.7605551674 -0.5529836002 -0.4807436730 0.6706005521 -0.5672424700
0.4586368299 0.6731670109 0.0232462264 -0.4809005786 0.6539336678 -0.5481855543
0.0038256177 0.6731670109 -0.0249781120 -0.4809005786 0.6539336678 -0.5481855543
0.2684741887 0.9536031755 0.5369456847 -0.4804381129 0.6899024044 -0.5407951229
-0.1067398712 0.9781340738 -0.1967156528 -0.4809005786 0.6923113037 -0.5499737167
0.2619972834 0.8204526833 -0.4327854953 -0.4796851275 0.6731670109 -0.5673802000
0.1443083989 1.7159241368 -0.4859625156 -0.4809170231 0.6776037393 -0.5294710498
0.0404472110 0.8212057456 -0.4462311024 -0.4806454483 0.6731670109 -0.5674072998
0.3332189879 0.9777064396 0.1607480701 -0.4787291534 0.6922473529 -0.5481118521
0.4562590117 1.9024051892 -0.5672934961 -0.4760051735 0.6720169917 -0.5666337347
0.3825488973 1.6488776642 -0.4628428254 -0.4811114914 0.6776290119 -0.5294792432
0.2782169733 0.6731670109 -0.0029601846 -0.4809005786 0.6539336678 -0.5481855543
-0.4265001445 0.5845655383 0.4185445318 -0.4921380825 0.6732462523 -0.5607741813
-0.4486967689 1.5294971687 -0.4311181760 -0.4821012777 0.6775706003 -0.5297856304
0.1133291569 0.7180274568 0.5705452005 -0.4809005786 0.6674832695 -0.5298343869
-0.4809005786 0.8079016382 -0.2079259222 -0.5001213432 0.6731670109 -0.5488037716
0.3698781439 1.8513953435 -0.5682244283 -0.4805622641 0.6710500161 -0.5672819945
-0.4039672059 0.0269933240 -0.3279026514 -0.5001325754 0.6731125614 -0.5481855543
0.4855220240 0.7198999381 -0.3227754076 -0.4617210696 0.6731670109 -0.5495970316
-0.0585809455 1.2396974626 -0.4938273759 -0.4809005786 0.6705151368 -0.5672350652
-0.1354470399 0.6731670109 0.3878660031 -0.4809005786 0.6539336678 -0.5481855543
0.3363967593 0.3323926369 0.4411797148 -0.4953065450 0.6739967951 -0.5570564915
0.3456344187 1.8276905750 -0.5067654535 -0.4812408357 0.6775343839 -0.5294585866
0.4037340786 1.1906908657 -0.4824369092 -0.4801719426 0.6703066282 -0.5671862509
-0.0609929029 0.6731670109 0.4699706063 -0.4809005786 0.6539336678 -0.5481855543
-0.2492852938 0.9882149228 -0.0059374100 -0.4821777303 0.6923456545 -0.5482791245
-0.4809005786 1.0583750814 -0.3858924120 -0.5001339218 0.6731670109 -0.5481855543
0.3711654123 1.6686427709 -0.5415764967 -0.4805139307 0.6707450907 -0.5672548947
-0.2491115013 0.7661931334 -0.2888386544 -0.4809005786 0.6753267808 -0.5290930761
0.4462287463 1.5945032336 -0.5340281981 -0.4786495658 0.6709620236 -0.5668664197
0.4999999231 0.7477752840 0.1535298541 -0.4616736401 0.6731670109 -0.5478688773
0.2566823991 0.9781346315 0.3312720831 -0.4802121595 0.6923159774 -0.5468041387
0.1400928732 0.9738673874 0.3824789360 -0.4809005786 0.6922793764 -0.5461222397
0.2061223059 0.6967619570 -0.3986804311 -0.4809005786 0.6615819990 -0.5629300083
0.0554915705 0.9805487046 -0.1677404674 -0.4807573287 0.6923372303 -0.5497087966
-0.0832188581 1.2606584023 -0.4976384436 -0.4809005786 0.6705276770 -0.5672368154
-0.1974559345 1.0426442839 -0.3412741909 -0.4809005786 0.6767668389 -0.5292921028
0.0922621645 0.7039605550 -0.4058789906 -0.4809005786 0.6649383328 -0.5648264928
-0.1048196912 1.8752678267 -0.5744201421 -0.4809735884 0.6711487216 -0.5673045360
0.2069502821 1.6489419228 -0.5399796677 -0.4808523414 0.6708191967 -0.5672695121
0.1176576977 0.9785349928 -0.1919047589 -0.4806019425 0.6923294600 -0.5497260489
-0.3215848733 0.9684521819 0.4267850192 -0.4821280698 0.6922412751 -0.5464103360
-0.2631210300 1.8034736995 -0.5613624139 -0.4809746270 0.6708122150 -0.5672673580
-0.1392986131 1.8079745326 -0.5621807542 -0.4809333714 0.6708290635 -0.5672688389
0.4858659739 0.9200432996 0.4484561309 -0.4639596191 0.6813306612 -0.5470424975
-0.3279130278 0.6731670109 0.1298056407 -0.4809005786 0.6539336678 -0.5481855543
0.1355836736 1.2947171911 -0.5038309646 -0.4808998477 0.6705365243 -0.5672381425
-0.3655005196 0.6235744318 -0.3209241983 -0.4616672354 0.6731670109 -0.5481855543
0.0494164690 0.8112722047 -0.2970348474 -0.4809005786 0.6756666724 -0.5291441791
-0.4168058087 0.3130825143 -0.2789187499 -0.4944498534 0.6719169590 -0.5363808784
0.3177499370 0.7036510905 -0.4055695454 -0.4808028540 0.6647462686 -0.5646946867
-0.1628030470 0.9630488049 0.5123020983 -0.4809739346 0.6921889797 -0.5454051630
-0.4809005786 1.7717456842 -0.5102841359 -0.4986615132 0.6738653352 -0.5455364882
-0.0822215515 0.9691097891 0.4395702879 -0.4810552339 0.6922437562 -0.5458771877
-0.4300671796 0.9336250980 -0.4048941857 -0.4827027429 0.6852966342 -0.5628663459
-0.0199996669 0.8962408642 -0.3124836841 -0.4809005786 0.6765075542 -0.5292564634
0.0132786713 1.8089150623 -0.5056870592 -0.4809714535 0.6778052663 -0.5295202102
-0.1491040984 0.8278122451 0.5865816927 -0.4809005786 0.6731670109 -0.5289522111
0.3337534825 0.2398773713 0.4925387226 -0.4957657987 0.6729317295 -0.5406609319
0.3796511056 0.9366077472 -0.4533595563 -0.4795711892 0.6706242091 -0.5671720375
-0.0699135775 0.6991952250 -0.2913572222 -0.4809005786 0.6649084634 -0.5326165861
-0.3123473293 1.8257489305 -0.5652943631 -0.4810641197 0.6708999576 -0.5672754937
0.0045739487 0.9931602385 0.1509647801 -0.4809005786 0.6923762740 -0.5476064191
-0.2076683397 1.2968534193 -0.5042193820 -0.4809005786 0.6705443907 -0.5672392003
0.2225062100 0.9831420901 -0.0335597604 -0.4797429429 0.6923291523 -0.5489173253
0.4381879779 0.6251946102 0.4894068035 -0.4652868929 0.6741173497 -0.5436920299
-0.0456956826 0.7900989865 -0.4463152482 -0.4813962026 0.6731670109 -0.5674057419
-0.2691347963 0.6731670109 0.4955492986 -0.4809005786 0.6539336678 -0.5481855543
-0.1667674430 0.6731670109 0.2186650517 -0.4809005786 0.6539336678 -0.5481855543
-0.3029221641 1.1273788736 -0.4734058160 -0.4810126321 0.6704318757 -0.5672230443
0.2502240540 1.0459167026 -0.3419286823 -0.4810061312 0.6767961697 -0.5292981613
0.4896306315 0.8072973266 -0.2775806285 -0.4617111067 0.6731670109 -0.5494150650
-0.3603859890 0.4941580163 0.4984098160 -0.4658356779 0.6740013726 -0.5392668030
-0.0365525359 0.9708522146 0.4186610474 -0.4809953413 0.6922556040 -0.5459577177
-0.4242568058 0.8714993224 -0.3079852167 -0.4815637827 0.6763317422 -0.5292356144
-0.4809005786 1.2085304839 -0.4538259072 -0.4991868335 0.6728880505 -0.5504172183
-0.4809005786 0.8756051411 -0.3338418501 -0.5001180350 0.6734940355 -0.5482945689
0.2817778922 1.3345588307 -0.5103968818 -0.4808304731 0.6705580656 -0.5672403928
0.4040643151 0.5334442931 -0.2826016466 -0.4787178826 0.6741092909 -0.5291208875
0.3998951802 0.6731670109 -0.1884822240 -0.4809005786 0.6539336678 -0.5481855543
-0.1700673077 0.6731670109 0.0590311884 -0.4809005786 0.6539336678 -0.5481855543
0.2437385707 0.6731670109 -0.1570006648 -0.4809005786 0.6539336678 -0.5481855543
-0.1751665670 1.8061058979 -0.5041409869 -0.4807681955 0.6776768068 -0.5294890522
-0.4421561243 0.5043648245 -0.3221897715 -0.4999748813 0.6721101195 -0.5471426263
0.1944553407 0.6731670109 0.4796615955 -0.4809005786 0.6539336678 -0.5481855543
-0.4075086606 0.7257162165 -0.4161126101 -0.4830643874 0.6683322678 -0.5666168863
0.4921797804 0.9310206149 0.0200507026 -0.4651936112 0.6838584225 -0.5483064936
-0.3626719487 0.5741671275 0.4676203494 -0.4670974814 0.6745155760 -0.5482415618
-0.1056502638 1.6935348906 -0.5444389567 -0.4809104645 0.6706088224 -0.5672445087
0.4807665030 1.2829805820 -0.4079232834 -0.4626017643 0.6742113622 -0.5426184631
-0.2472852761 0.6731670109 0.0251455767 -0.4809005786 0.6539336678 -0.5481855543
-0.0124868538 1.7050093492 -0.5455863988 -0.4809657219 0.6704858637 -0.5672278911
0.4965041668 0.7495171133 0.3207972967 -0.4616907578 0.6731670109 -0.5472747786
-0.2294481198 0.8083477941 0.5865816927 -0.4814867724 0.6731670109 -0.5289704443
-0.1581001292 1.9578673808 -0.5442519509 -0.4808574382 0.6849197761 -0.5335462298
0.0613990726 0.8416460772 -0.4432379710 -0.4803054220 0.6731670109 -0.5674016836
-0.3967632226 0.8978505412 -0.4200765445 -0.4829885119 0.6731670109 -0.5673006701
-0.3730490105 1.8823247904 -0.5740042403 -0.4817066672 0.6708320254 -0.5672432970
-0.2694399718 0.8516354525 -0.4390070202 -0.4809268321 0.6697994641 -0.5670976814
-0.3891792077 1.2071118133 -0.4872426485 -0.4817456340 0.6703875236 -0.5671869626
0.3152321962 0.6731670109 -0.1731823495 -0.4809005786 0.6539336678 -0.5481855543
-0.3656684651 0.9743197171 0.0509707443 -0.4835736094 0.6921827673 -0.5480590758
0.0830910717 0.6731670109 -0.2015460107 -0.4809005786 0.6539336678 -0.5481855543
-0.4298415532 1.1749572409 -0.4796499593 -0.4818533407 0.6705722983 -0.5672144663
-0.2145920163 0.9368529723 -0.4191329951 -0.4816413508 0.6859590113 -0.5621394794
0.1553513575 1.2435099151 -0.4945205455 -0.4808854997 0.6705190027 -0.5672356614
0.4275914636 0.5554996485 -0.2872828885 -0.4622884916 0.6714603402 -0.5477878665
-0.0077853400 0.9797031107 0.3124501989 -0.4809206197 0.6923249402 -0.5465189851
0.3706799243 0.6114761781 -0.2858616598 -0.4857124726 0.6789073753 -0.5320280074
