0.4901039244 0.5622401826 0.0246305401 -0.0052705513 0.0000000000 -0.0016478841
0.0335439877 1.1083743023 -0.0148697452 -0.0049252065 0.0024629974 -0.0024625934
-0.0418288467 1.0689654383 0.2488195112 -0.0049277065 -0.0024630023 -0.0024547043
-0.1055370415 1.0665023842 0.0236146756 -0.0049261080 0.0023247732 -0.0016829432
0.2601649266 1.0689654383 -0.1212492423 -0.0049071597 -0.0024629013 -0.0024691057
-0.2992448079 1.1083743023 0.1564207668 -0.0049450095 0.0024627683 -0.0024486057
-0.0163462673 1.0689654383 -0.0798700951 -0.0049272804 -0.0024629949 -0.0024668496
-0.1751408935 1.1083743023 0.1806784054 -0.0049350637 0.0024629801 -0.0024554013
-0.0026482387 1.0492610062 -0.3091613466 -0.0049647730 -0.0023392141 -0.0024598865
0.4955029806 0.0921141656 -0.0246305401 -0.0039539431 -0.0001777808 -0.0035069357
-0.3521220134 1.0689654383 -0.0360469801 -0.0049434775 -0.0024629456 -0.0024643446
0.0246305401 1.0524962449 -0.1291020299 -0.0041124381 -0.0014523152 -0.0024630540
-0.1838478928 1.1083743023 -0.0308306825 -0.0049350883 0.0024629850 -0.0024634850
-0.2627871087 1.1041921918 -0.3395239675 -0.0063539527 0.0003037980 -0.0043458248
-0.1812589152 1.0689654383 -0.2858410331 -0.0049473494 -0.0024622560 -0.0025037215
-0.0111927258 1.0689654383 -0.0173254150 -0.0049269110 -0.0024629974 -0.0024645392
-0.0853582893 1.1083743023 0.1493578633 -0.0049309159 0.0024629850 -0.0024564801
0.3368117362 1.0689654383 0.1765683047 -0.0048578691 -0.0024613397 -0.0024205171
-0.1907828430 1.1083742260 0.2857062966 -0.0049545514 0.0024620910 -0.0024175860
0.0095181274 1.1083743023 -0.1553211757 -0.0049260563 0.0024629974 -0.0024679850
-0.1522673976 1.0689654383 -0.3138175704 -0.0049489036 -0.0024620885 -0.0025114555
0.2148915211 1.0689654383 0.1911439612 -0.0049009331 -0.0024626796 -0.0024527806
-0.5000000000 0.9825491343 0.0145823364 -0.0072765586 0.0000186379 -0.0022782264
0.1774362135 1.0689654383 -0.3276994955 -0.0049191006 -0.0024629949 -0.0024759900
0.1315246627 1.0689654383 -0.1272041335 -0.0049207287 -0.0024629998 -0.0024685836
0.3725556350 1.1083743023 0.0768404648 -0.0048927361 0.0024627781 -0.0024543496
0.4827585850 0.7144698191 0.0110853563 -0.0072506300 0.0000000000 -0.0020980836
-0.1113658120 1.0689654383 -0.2715620021 -0.0049371548 -0.0024626747 -0.0024863643
-0.0124933735 0.8598755448 0.4802955310 -0.0053232755 0.0000000000 -0.0047712484
0.2734405044 1.1083743023 -0.1109216913 -0.0048987730 0.0024627387 -0.0024653028
0.4827585850 0.6481517452 0.0146273240 -0.0072516965 0.0000000000 -0.0019831156
0.2895991288 1.1083743023 0.0253757075 -0.0049014725 0.0024628422 -0.0024576845
0.4999999261 0.5950442467 -0.0140462699 -0.0026005762 0.0000000000 -0.0029248988
0.1046717903 1.0927894414 0.4076375413 -0.0043337214 -0.0002240148 -0.0001703571
-0.0246305401 0.2965025274 0.4833619076 -0.0058464331 0.0000000000 -0.0040354480
0.0652529090 1.0689654383 0.1817566319 -0.0049224036 -0.0024629974 -0.0024572338
0.1129469104 1.1083743023 -0.1212352989 -0.0049195637 0.0024629777 -0.0024660885
-0.3290285151 1.0689653619 -0.0667160862 -0.0049413198 -0.0024629801 -0.0024663988
0.2783677208 1.1083743023 0.0167281318 -0.0049026302 0.0024628520 -0.0024581944
0.1848048558 1.0625598304 -0.0246305401 -0.0049261080 0.0012621822 -0.0032768766
0.0242664391 0.7747056521 -0.4999999631 -0.0040262830 0.0000000000 -0.0047504799
0.0105006396 0.1673185862 0.4802955310 -0.0045584947 0.0000000000 -0.0047545785
-0.4989823597 0.6324326380 -0.0246305401 -0.0069755019 0.0000000000 -0.0033810268
-0.3216793777 1.1083743787 0.0140543265 -0.0049414504 0.0024629777 -0.0024619530
0.1552253186 1.1083743023 0.3066088246 -0.0049202262 0.0024629949 -0.0024501648
-0.4802955310 0.5587372764 -0.0067607212 -0.0026386033 0.0000000000 -0.0027125934
0.3669167611 1.1083743023 0.0236562175 -0.0048917583 0.0024627412 -0.0024571648
-0.4999999631 0.3771678096 0.0119538981 -0.0072127630 0.0000000000 -0.0020165466
0.2863977350 1.0689654383 -0.2439630830 -0.0049068913 -0.0024629087 -0.0024735762
-0.4802955310 0.3284395102 -0.0047742164 -0.0026394481 0.0000000000 -0.0026440170
-0.4853392375 1.0372960859 0.0246305401 -0.0066498690 0.0011242339 -0.0015904555
-0.2366762781 1.0689655146 -0.1243086854 -0.0049372903 -0.0024629826 -0.0024685171
0.2961507121 1.0944854979 -0.3048344849 -0.0033474480 0.0003527241 -0.0041129726
0.4827585481 0.5780453194 0.0052494356 -0.0072515167 0.0000000000 -0.0022914604
-0.0071493985 0.2530062818 0.4802955310 -0.0052035981 0.0000000000 -0.0047519208
-0.2616805472 1.1083743023 -0.1952060866 -0.0049578962 0.0024623299 -0.0024903028
0.0127874695 1.0942055029 -0.4285713969 -0.0049314824 -0.0002680739 -0.0037108076
0.2722208740 1.0689653619 -0.0661629828 -0.0049046105 -0.0024628791 -0.0024672510
-0.0086344870 1.0188412227 0.4967369879 -0.0052247287 0.0007521083 -0.0002697882
-0.0047343913 1.1083743023 -0.2561423776 -0.0049265267 0.0024629998 -0.0024718520
0.0246305401 0.7923375942 0.4811284891 -0.0040138938 0.0000000000 -0.0045574750
-0.4858893804 0.0370178101 -0.0246305401 -0.0042117731 -0.0001896478 -0.0037951500
-0.3582651041 1.1083743023 -0.0243256460 -0.0049479528 0.0024628102 -0.0024685934
-0.0036498938 1.0492610062 -0.1875835329 -0.0050479775 -0.0023243200 -0.0024630540
-0.2002133941 1.0689654383 -0.1396590168 -0.0049356844 -0.0024629826 -0.0024690811
-0.1918447568 1.0689654383 -0.3055618690 -0.0049518888 -0.0024620146 -0.0025140860
0.0103495510 1.0689654383 0.1351046920 -0.0049256080 -0.0024630023 -0.0024589013
-0.0264386778 1.1083743023 -0.0688601747 -0.0049278469 0.0024629949 -0.0024647313
0.3914632272 1.0689654383 -0.0831625554 -0.0048916203 -0.0024627806 -0.0024686131
-0.0875183384 1.0689654383 -0.4136071123 -0.0050037780 -0.0021473816 -0.0031199037
-0.3512317795 1.1083743023 0.0006400960 -0.0049427730 0.0024629752 -0.0024625023
0.0246305376 1.0643114337 0.4053070834 -0.0037400194 0.0015591723 -0.0024154333
-0.4262440941 1.1083743023 0.0071280709 -0.0062629626 0.0016299851 -0.0025557905
-0.3729738222 1.0947490324 -0.2140023216 -0.0068684502 0.0003622537 -0.0036029948
-0.0522512203 1.0689654383 -0.1727874527 -0.0049290982 -0.0024629900 -0.0024702880
0.3306000569 1.0689654383 -0.1883118211 -0.0049007287 -0.0024628570 -0.0024719087
0.0546853162 1.0689654383 -0.3720793050 -0.0049358617 -0.0024623249 -0.0025043471
-0.1966043525 1.0689653619 0.1592896434 -0.0049348691 -0.0024629924 -0.0024580318
0.1522456833 1.0689654383 -0.3811661763 -0.0049186721 -0.0024504481 -0.0025753200
0.4991311897 0.9366540071 0.0246305401 -0.0029726722 0.0000318695 -0.0013582068
-0.1692719555 1.0689655146 0.2188305996 -0.0049352903 -0.0024629456 -0.0024544407
0.1781278957 1.0689654383 -0.1752421250 -0.0049175243 -0.0024629850 -0.0024704727
0.3301734116 1.1075805438 0.2622465496 -0.0042825810 0.0020559186 -0.0019559407
0.0081073935 0.9820476245 0.4999999631 -0.0049935982 0.0000226084 -0.0001610369
-0.0673922832 1.0664236109 0.0246305401 -0.0049261080 0.0023035146 -0.0016493841
-0.0758180141 1.0689654383 -0.4018693447 -0.0049459922 -0.0024469777 -0.0026364973
0.0860172079 1.0689654383 -0.1826728732 -0.0049228987 -0.0024629949 -0.0024706377
0.1859300404 1.0689654383 -0.1045136770 -0.0049151129 -0.0024629604 -0.0024680417
0.4999999631 0.8227264860 -0.0084854871 -0.0026018372 0.0000000000 -0.0027466968
0.0025506673 0.5700675663 -0.4802955310 -0.0048331794 0.0000000000 -0.0001754458
0.2643679337 1.0689654383 0.1281034807 -0.0048990440 -0.0024627486 -0.0024578841
0.0090312998 0.7232079195 0.4999999631 -0.0045916376 0.0000000000 -0.0001767660
0.4827585481 0.0510313164 -0.0210329984 -0.0073173123 -0.0000910517 -0.0028909678
-0.0150230112 0.6313152883 -0.4802955310 -0.0054872385 0.0000000000 -0.0001768473
0.0132613685 0.6140699645 -0.4999999631 -0.0044307928 0.0000000000 -0.0047495267
0.3962931973 1.1083744526 -0.1431123416 -0.0032966993 0.0014585368 -0.0030005466
-0.2350184826 1.1083743023 0.1046920859 -0.0049376597 0.0024629801 -0.0024583791
0.0246305401 0.9770601051 0.4823874890 -0.0035450909 0.0000000000 -0.0040078298
0.0121199548 1.0492610062 0.3698485540 -0.0047115908 -0.0023764481 -0.0024744161
0.4839461761 0.1311369731 0.0246305401 -0.0068756522 -0.0000632906 -0.0015518447
0.2107476519 1.1083743023 -0.2109631347 -0.0049009775 0.0024626451 -0.0024733520
-0.0034997140 1.0492610062 0.0766123441 -0.0050417213 -0.0023247732 -0.0024630540
-0.3387156277 1.0689655146 -0.0398174503 -0.0049416991 -0.0024629801 -0.0024654062
0.3056485932 1.1083743023 -0.0963189559 -0.0048882287 0.0024624456 -0.0024709185
0.0016209260 1.0689654383 0.2149146344 -0.0049258272 -0.0024630047 -0.0024559530
-0.0976328475 1.1083743023 -0.1553273383 -0.0049309405 0.0024629924 -0.0024681254
0.0246305401 0.1101934032 0.4830297476 -0.0040067608 -0.0000892315 -0.0041950711
-0.0246305401 0.6646316873 -0.4909775475 -0.0058403370 0.0000000000 -0.0026571156
-0.1461521567 1.0689654383 -0.2571101263 -0.0049385538 -0.0024626821 -0.0024855072
-0.1998878301 1.1083743023 -0.2561451190 -0.0049535095 0.0024623816 -0.0024910171
0.3541637595 1.0689654383 0.1394641202 -0.0048612977 -0.0024615244 -0.0024270836
-0.1684779161 1.0689654383 -0.0289904757 -0.0049340144 -0.0024629875 -0.0024649875
-0.0084877605 1.0036378322 -0.4992373252 -0.0049011844 0.0001822167 -0.0047066696
0.1883107127 1.1083743023 0.2775962332 -0.0049164725 0.0024629678 -0.0024506796
0.3711078544 1.0689654383 -0.1241246485 -0.0048947927 -0.0024628077 -0.0024699185
-0.0013338866 0.2692141599 -0.4802955310 -0.0049656573 0.0000000000 -0.0001736699
0.2352634678 1.1052925538 0.3493400653 -0.0036370712 0.0005251748 -0.0004948670
-0.3082792679 1.1083743023 0.0887864910 -0.0049409701 0.0024629752 -0.0024590836
0.0277841728 1.0798460828 -0.4285713969 -0.0049055267 -0.0012586058 -0.0031566426
0.0025229185 1.1083743023 -0.3225938530 -0.0049260809 0.0024630023 -0.0024743767
-0.2534383015 1.1083743023 0.1192241538 -0.0049385243 0.0024629777 -0.0024578496
0.4827585850 0.5960141185 -0.0072759650 -0.0072509798 0.0000000000 -0.0027056131
0.2098367480 1.0689655146 -0.2346555221 -0.0049152656 -0.0024629703 -0.0024727584
-0.0029424456 1.0443881149 0.4493741614 -0.0050072706 -0.0020641304 -0.0033957707
-0.0464175483 1.0775483194 -0.4269061606 -0.0051614996 -0.0002432586 -0.0047775612
-0.4802955310 0.5285318304 0.0102272283 -0.0026388742 0.0000000000 -0.0020823595
-0.0424239131 1.0689653619 0.0969575150 -0.0049280661 -0.0024629974 -0.0024603176
0.1742386891 1.0665023842 -0.0163541269 -0.0049261080 0.0023260737 -0.0030009727
-0.3657660764 1.1083743023 0.1694926426 -0.0050965834 0.0024379235 -0.0023405097
0.0164942229 0.0000000000 0.4872306512 -0.0044115810 -0.0003267044 -0.0032748003
-0.4999999631 0.8924493749 -0.0242260721 -0.0071188542 0.0000179704 -0.0035426968
0.4999999631 0.9289865791 -0.0134638734 -0.0025466796 0.0000098744 -0.0027086599
-0.5000000000 0.3282986112 -0.0027231032 -0.0072132335 0.0000000000 -0.0025605343
-0.2698510072 1.1083743023 0.2177821415 -0.0049528420 0.0024623348 -0.0024297289
0.0758426594 1.1083743023 0.0867729123 -0.0049234578 0.0024629949 -0.0024586575
-0.1283371087 1.1083742260 -0.0172249642 -0.0049325809 0.0024629875 -0.0024628939
-0.4800131296 1.0103229106 0.0159696737 -0.0028253372 -0.0007969458 -0.0018146329
-0.4275837861 1.0949333403 -0.0369695416 -0.0071862310 0.0005150640 -0.0026471944
-0.1853847843 1.0689654383 0.0717011326 -0.0049345538 -0.0024629900 -0.0024612658
0.3358155171 1.0913067100 0.2540398950 -0.0041290169 -0.0004195147 -0.0019123644
0.3313730297 1.1083743023 -0.1926827493 -0.0048521671 0.0024612141 -0.0025040417
0.0246305401 0.1584101213 -0.4969786480 -0.0040272706 0.0000000000 -0.0040579135
-0.0246305401 1.0564071559 0.2141506246 -0.0057377213 -0.0003983497 -0.0024630540
-0.1441317381 1.1083743023 0.2614184585 -0.0049427262 0.0024625540 -0.0024360195
-0.2138576246 1.0689654383 -0.3458478710 -0.0050027952 -0.0024536279 -0.0025692510
-0.4802955310 0.1690022954 0.0045527213 -0.0026368446 0.0000000000 -0.0023161870
0.4999999631 0.9208307201 0.0052800366 -0.0025982239 0.0000142389 -0.0020872215
0.2509163534 1.0887278998 0.3385787114 -0.0035670293 0.0001266970 -0.0006475640
0.0082677334 0.8058631941 -0.4999999631 -0.0046218913 0.0000000000 -0.0047500538
0.4999999631 0.9509189445 0.0206044344 -0.0027314875 0.0000333325 -0.0014627856
0.0080442679 1.0689655146 0.3773712849 -0.0049245587 -0.0024629998 -0.0024500072
0.3361182141 1.0689654383 0.0519429395 -0.0048921425 -0.0024626821 -0.0024604259
-0.3344825910 1.1083742260 -0.0153276639 -0.0049419824 0.0024629777 -0.0024630910
0.1629621628 1.1083743023 0.2434340608 -0.0049188888 0.0024629850 -0.0024523471
0.0695334456 1.0689654383 -0.2160849200 -0.0049237115 -0.0024629949 -0.0024718767
0.2927876335 1.1083743023 -0.0196164394 -0.0049004898 0.0024628348 -0.0024592092
0.1782371888 1.1083742260 0.0816392797 -0.0049149233 0.0024629481 -0.0024577535
0.2631007416 1.0689654383 -0.3153692673 -0.0047942533 -0.0024434038 -0.0025538175
0.0849900873 1.1083742260 -0.0771617357 -0.0049227533 0.0024629998 -0.0024649038
-0.0419556398 1.0689654383 0.0390769281 -0.0049281720 -0.0024629974 -0.0024624579
-0.3280924290 1.1083743023 -0.1173390923 -0.0049598617 0.0024623644 -0.0024861648
-0.0099623810 0.9309335396 -0.4802955310 -0.0055686006 0.0000000000 -0.0002319827
-0.0152558634 0.6382659282 -0.4999999631 -0.0054893567 0.0000000000 -0.0047510859
0.0112000509 1.0492610062 0.1873069591 -0.0045548272 -0.0023243225 -0.0024630540
-0.2481968881 1.1083742260 -0.3499882254 -0.0060188863 0.0011538250 -0.0041411450
-0.0493682574 1.0689653619 0.1475672773 -0.0049282681 -0.0024629998 -0.0024584481
0.0145879595 0.5275063724 -0.4802955310 -0.0043851672 0.0000000000 -0.0001758300
0.0588976631 1.0689654383 0.2115307923 -0.0049224676 -0.0024629949 -0.0024561476
0.3796942675 1.1083743023 -0.1037004431 -0.0048202829 0.0024544259 -0.0024965712
0.4295230052 1.0601973478 0.0246305401 -0.0049364430 0.0007661970 -0.0016748546
-0.1896235328 1.0689653619 0.1139077059 -0.0049346523 -0.0024629924 -0.0024597067
0.4034090539 1.0689655146 0.0833918313 -0.0043401721 -0.0023522190 -0.0023356550
-0.0246305401 0.8165004495 -0.4973947317 -0.0058431843 0.0000000000 -0.0041438790
-0.4999999631 0.8317260888 -0.0064744872 -0.0072162827 0.0000004015 -0.0027089949
-0.4894631313 0.0000000000 -0.0243059046 -0.0050144282 -0.0002762955 -0.0034914135
-0.0958572466 1.1083743023 0.2488392624 -0.0049329947 0.0024629161 -0.0024501033
-0.0246305401 1.0550101856 0.3615917073 -0.0059962631 -0.0006519926 -0.0024946698
-0.0152822895 0.0352778718 0.4802955310 -0.0059252557 -0.0003113350 -0.0045385465
-0.0050053223 0.0699453076 0.4802955310 -0.0053808149 -0.0001318128 -0.0047369529
-0.1747372876 1.1083743023 0.0742876152 -0.0049348568 0.0024629826 -0.0024594629
0.3964548057 1.0689654383 -0.0986802907 -0.0048359381 -0.0024535023 -0.0025061722
0.0652402957 1.0689654383 -0.1257395523 -0.0049237090 -0.0024629974 -0.0024685368
0.0975865248 1.0689654383 -0.0780426297 -0.0049221474 -0.0024629998 -0.0024667708
-0.0518974395 1.0689654383 0.1084970757 -0.0049284676 -0.0024629974 -0.0024598914
-0.2222274097 1.1083743023 0.1097512653 -0.0049370858 0.0024629801 -0.0024581698
0.1688773126 1.1083743023 0.3660702734 -0.0049197090 0.0024629949 -0.0024478767
0.2465302429 1.0689654383 0.1221775008 -0.0049033913 -0.0024628570 -0.0024604850
-0.4999999631 0.1094308023 0.0193426020 -0.0071518788 -0.0000766601 -0.0015719112
-0.0021476895 0.2600831458 0.4999999631 -0.0049947804 0.0000000000 -0.0001731872
-0.1884547496 1.1083743023 0.0669246157 -0.0049354701 0.0024629826 -0.0024597609
-0.2371707041 1.1083742260 0.3162977229 -0.0049675908 0.0024615688 -0.0023966919
-0.2194872153 1.0689654383 -0.0767751470 -0.0049364134 -0.0024629850 -0.0024667584
-0.3884254516 1.0689654383 0.1591469217 -0.0057346375 -0.0020497880 -0.0021535368
0.0107063317 1.0492610062 0.1099005756 -0.0045724233 -0.0023247732 -0.0024630540
-0.0241184440 0.7750091743 0.4802955310 -0.0058232779 0.0000000000 -0.0047493322
0.1739802482 1.1083743023 0.3504041219 -0.0049191055 0.0024629900 -0.0024483816
0.4999999631 0.0000541675 -0.0138284867 -0.0028457313 -0.0003796157 -0.0034542411
0.0105552677 0.2329656503 0.4999999631 -0.0045196277 0.0000000000 -0.0001765369
0.2501760209 1.0689654383 -0.2927711163 -0.0049120095 -0.0024629506 -0.0024750540
-0.3651427957 1.0689654383 -0.1256285523 -0.0049430760 -0.0024629752 -0.0024685811
-0.1265254192 1.0689654383 -0.0692653890 -0.0049322139 -0.0024629900 -0.0024664703
-0.1378795834 1.0689654383 -0.2452151666 -0.0049356055 -0.0024628348 -0.0024789579
0.4827585850 0.5792181025 0.0229362939 -0.0072515266 0.0000000000 -0.0017071994
-0.3556899392 1.0968727835 -0.2407137679 -0.0068989576 0.0003277931 -0.0038135588
0.2822297353 1.0689655146 0.2742102482 -0.0048522854 -0.0024609653 -0.0024059358
-0.0813525285 1.1083742260 -0.4089618245 -0.0050480735 0.0024171230 -0.0027922313
-0.4802955310 0.7651976233 0.0104195559 -0.0026397190 0.0000000000 -0.0020770565
-0.4999999631 0.4427044919 -0.0062214823 -0.0072134231 0.0000000000 -0.0026930441
-0.3292940397 1.1083319083 0.2703008224 -0.0062605045 0.0010561945 -0.0013391058
-0.3764215953 1.0689654383 -0.0728265119 -0.0049439430 -0.0024629629 -0.0024662609
-0.1226726978 1.0689654383 -0.3633764978 -0.0049540686 -0.0024617092 -0.0025285983
-0.1530078532 1.1083743787 -0.0668347832 -0.0049336203 0.0024629875 -0.0024648200
0.3087762136 1.1083743023 -0.0139276000 -0.0048987484 0.0024628200 -0.0024587141
-0.0553239491 1.0865452153 0.4193773385 -0.0052453173 0.0002947586 -0.0002705616
-0.0237869810 1.0689654383 0.3861967646 -0.0049265957 -0.0024630072 -0.0024496254
-0.4999999631 0.2783492307 0.0230479687 -0.0072099798 0.0000000000 -0.0015980886
-0.0152393240 1.0492610062 -0.3374485465 -0.0053168420 -0.0023560885 -0.0024560688
-0.0039691253 1.0689653619 0.2336576699 -0.0049260366 -0.0024630047 -0.0024552609
-0.0728367434 1.0689654383 -0.3034452781 -0.0049383149 -0.0024625097 -0.0024943077
-0.0011906994 0.0198448335 -0.4999999631 -0.0054236474 -0.0002444556 -0.0046534800
-0.0889978112 1.0689653619 0.0572978480 -0.0049302484 -0.0024629949 -0.0024617880
0.1269031778 1.1083743787 -0.1127171838 -0.0049180932 0.0024629653 -0.0024655318
-0.4814593339 0.1481378191 0.0246305376 -0.0028889825 -0.0000073916 -0.0015517659
0.0080343245 1.1083743023 0.2018723373 -0.0049267509 0.0024629900 -0.0024543545
0.0601080300 1.0492610062 -0.0071299822 -0.0049261080 -0.0023241624 -0.0027003348
0.3791188685 1.0689654383 -0.1129407380 -0.0048936523 -0.0024627978 -0.0024695762
0.2367980096 1.1083743023 -0.2276874438 -0.0048851450 0.0024621451 -0.0024854604
-0.2360165811 1.1083743023 -0.2004761010 -0.0049516228 0.0024625023 -0.0024851427
-0.4993415813 0.0843746810 -0.0246305401 -0.0071231078 -0.0001362709 -0.0032047707
0.3778925263 1.0689654383 0.0960592934 -0.0048582706 -0.0024604900 -0.0024326845
0.1631355717 1.0689654383 0.3274285201 -0.0048837164 -0.0024618570 -0.0024250343
-0.0246305401 1.0533051857 -0.1532440453 -0.0057394799 -0.0012340590 -0.0024630540
-0.4853285627 0.9799031246 0.0246305401 -0.0040423938 0.0000024975 -0.0012109236
-0.1389502163 1.1022090762 0.3999892438 -0.0057026917 0.0004135074 -0.0002114680
0.0206859049 1.1083743023 -0.2176575159 -0.0049254381 0.0024629998 -0.0024703496
-0.1138670236 1.1083743023 -0.3314935223 -0.0049452977 0.0024625294 -0.0024894333
0.3888747964 1.0689654383 -0.0057691178 -0.0048875341 -0.0024626525 -0.0024628422
0.0233544195 1.0689654383 -0.3764969500 -0.0049400957 -0.0024621575 -0.0025112535
-0.2460200311 1.1083743023 0.2100967480 -0.0049477435 0.0024625269 -0.0024372683
0.0005633103 1.0492610062 0.0631299658 -0.0049074996 -0.0023247732 -0.0024630540
0.4827585850 0.8813871295 0.0098197357 -0.0072791349 -0.0000053448 -0.0022396328
0.1861338729 1.0855156612 -0.3856659789 -0.0041878839 -0.0006466059 -0.0041071401
0.0955636851 1.1083743787 -0.1690413249 -0.0049208863 0.0024629850 -0.0024680885
0.0546656314 1.1083743023 0.3922358257 -0.0049398962 0.0024422806 -0.0022810048
-0.2961979535 1.1083743023 0.0715826376 -0.0049403888 0.0024629777 -0.0024597240
0.0112993046 0.0459514498 -0.4802955310 -0.0041172288 -0.0001894680 -0.0003095271
-0.1513945923 1.1083743023 0.1222442200 -0.0049338789 0.0024629826 -0.0024576008
-0.2295678451 1.0689654383 -0.2219196215 -0.0049418124 -0.0024627043 -0.0024832166
-0.2732485291 1.1083743023 -0.3143460654 -0.0050110341 0.0024502708 -0.0025969185
-0.4802955310 0.8642408352 -0.0227851954 -0.0026155663 0.0000000000 -0.0032328988
0.4999999631 0.8130461739 -0.0212854048 -0.0026025269 0.0000000000 -0.0031691377
0.4827585850 0.1731684897 -0.0007073891 -0.0072517335 0.0000000000 -0.0024664456
0.0978335987 1.1083742260 -0.3538895527 -0.0049144750 0.0024628225 -0.0024779752
0.2442469302 1.1083743787 0.3199997473 -0.0047665588 0.0024358348 -0.0023237831
0.0063743912 0.2074736645 0.4802955310 -0.0047068272 0.0000000000 -0.0047549652
-0.2772236692 1.0689654383 0.2637886258 -0.0049820957 -0.0024617363 -0.0024200860
0.3021992240 1.1083743787 -0.2703951549 -0.0048188223 0.0024533225 -0.0025595540
0.4999999631 0.3562130599 0.0085659156 -0.0026006476 0.0000000000 -0.0021828545
-0.4456501149 1.0644144854 0.0069278148 -0.0054918296 0.0022257658 -0.0021853225
0.4984200026 0.4821037353 0.0246305401 -0.0030273446 0.0000000000 -0.0016492166
-0.2034004135 1.0689654383 -0.2919140671 -0.0049508445 -0.0024621057 -0.0025099038
-0.4802955310 0.1093045707 0.0126330114 -0.0026061230 -0.0000878768 -0.0021349851
0.0013401649 0.5547699541 0.4802955310 -0.0048748790 0.0000000000 -0.0047505243
-0.2027357165 1.1071377384 -0.3788601444 -0.0060793789 0.0000812537 -0.0046340834
0.3533062596 1.1083743023 -0.0734182507 -0.0048729553 0.0024620244 -0.0024788890
-0.1645154780 1.1083743023 0.0953747713 -0.0049344282 0.0024629826 -0.0024586451
0.1969051874 1.0689654383 -0.3618882762 -0.0049183346 -0.0024629924 -0.0024773373
0.0068572803 1.1083743787 -0.3913047765 -0.0049257607 0.0024630047 -0.0024769949
-0.2722218124 1.1083743023 -0.1353267609 -0.0049476523 0.0024626895 -0.0024767067
0.0179718632 1.0689654383 -0.2889727102 -0.0049261918 -0.0024629900 -0.0024745762
-0.4340038251 1.0660781454 -0.0118135509 -0.0050453371 0.0023119210 -0.0025415589
-0.4252336311 1.0781474696 0.0530821463 -0.0059974700 -0.0005164113 -0.0023517757
0.0740293073 1.0769310510 -0.4222699688 -0.0045364947 0.0002807660 -0.0045271573
-0.0877583162 1.0689654383 0.3281693230 -0.0049307188 -0.0024629703 -0.0024509062
0.0246305401 0.4901607125 0.4956214043 -0.0040113519 0.0000000000 -0.0011925098
-0.4999999631 0.4240736632 0.0055797065 -0.0072135832 0.0000000000 -0.0022543397
0.2345764088 1.0689654383 0.0594356015 -0.0049060957 -0.0024628816 -0.0024626057
-0.0058544552 0.4351415073 0.4999999631 -0.0051422976 0.0000000000 -0.0001756699
-0.3027582929 1.1083743023 -0.0270306803 -0.0049405144 0.0024629777 -0.0024634949
-0.2438462923 1.1083743023 0.2971610815 -0.0049647755 0.0024617166 -0.0024030491
-0.0842785332 1.0689654383 0.1534960034 -0.0049298272 -0.0024629974 -0.0024582313
0.2493568954 1.0689654383 -0.3161361170 -0.0049126105 -0.0024629555 -0.0024758693
0.0276786186 1.0689654383 0.1970587514 -0.0049246918 -0.0024630047 -0.0024566107
-0.2787135804 1.0689654383 -0.3003184285 -0.0051783691 -0.0024203914 -0.0027031673
-0.4999999631 0.7449571789 -0.0057999996 -0.0072118369 0.0000000000 -0.0026784111
0.0455725582 1.0689654383 -0.2166457943 -0.0049247927 -0.0024629924 -0.0024718988
-0.0466591369 1.0689653619 0.1929752591 -0.0049280464 -0.0024629998 -0.0024567683
0.4827585850 0.9039480367 -0.0154596319 -0.0072038665 -0.0000170000 -0.0031653027
-0.4802954941 0.5974056751 -0.0063533542 -0.0026382609 0.0000000000 -0.0026965934
0.0350761304 1.0689654383 -0.2799835384 -0.0049254036 -0.0024629900 -0.0024742412
0.2164061811 1.0689654383 0.0703411278 -0.0049078937 -0.0024628939 -0.0024621082
0.0974934140 1.0755629476 0.4095265880 -0.0043433938 -0.0006130788 -0.0001974359
0.4827585850 0.0778475410 -0.0058294848 -0.0072966793 -0.0000670394 -0.0024531402
0.0614162935 1.1083743023 -0.3902774022 -0.0049213124 0.0024629703 -0.0024768939
-0.0359337166 1.1083743023 -0.4237008751 -0.0050603839 0.0017926723 -0.0035512066
0.0246305401 0.8068746325 0.4872383162 -0.0040134283 0.0000000000 -0.0031395367
-0.0780735558 1.1083743023 -0.0442176100 -0.0049302435 0.0024629900 -0.0024638594
0.0190217326 0.9253988109 0.4802955310 -0.0039348076 0.0000000000 -0.0046289036
0.2347811625 1.0734146892 -0.3559337791 -0.0041850662 -0.0008224088 -0.0034145441
-0.1055679626 1.1083743023 0.1555288235 -0.0049318494 0.0024629850 -0.0024562708
0.0143832994 1.0665023842 0.1139835581 -0.0044509553 0.0023247732 -0.0024630540
-0.0221290994 1.1083743023 -0.0151656196 -0.0049277459 0.0024629924 -0.0024626772
-0.4802955680 0.6294346234 -0.0098258515 -0.0026383348 0.0000000000 -0.0028248348
-0.0717224110 1.1083743023 -0.3206479443 -0.0049306647 0.0024629579 -0.0024756525
0.3970249042 1.0689654383 0.0204608877 -0.0048772312 -0.0024622732 -0.0024520195
-0.4649798794 1.0325569188 0.0060573665 -0.0032649899 -0.0015054925 -0.0022072388
-0.1265074636 1.0689654383 -0.2644356972 -0.0049376203 -0.0024626870 -0.0024856230
0.1432559278 1.1083743023 0.1744501718 -0.0049201819 0.0024629924 -0.0024551353
0.0500532352 1.0689654383 0.3816830211 -0.0049125440 -0.0024626624 -0.0024419826
-0.4802955310 0.2662269705 -0.0067908763 -0.0026370885 0.0000000000 -0.0027256131
-0.4999999631 0.0668344409 0.0108893563 -0.0071333344 -0.0001562192 -0.0017518127
0.1384506499 1.1083743023 0.0559320648 -0.0049190982 0.0024629801 -0.0024593914
-0.1857064395 1.1083743023 0.3625518821 -0.0049691105 0.0024613890 -0.0023879752
-0.0241052371 0.5785817430 0.4802955310 -0.0058193592 0.0000000000 -0.0047507386
-0.2695655441 1.0689654383 -0.0698760170 -0.0049386523 -0.0024629826 -0.0024665097
-0.3761143146 1.1083743023 -0.0343471083 -0.0049553543 0.0024625885 -0.0024759062
-0.2316667366 1.0689654383 0.2799596714 -0.0049698913 -0.0024620294 -0.0024273545
-0.0128016321 0.2101615781 0.4802955310 -0.0054188469 0.0000000000 -0.0047475415
0.1871725059 1.0689654383 -0.1553328358 -0.0049160785 -0.0024629727 -0.0024698323
0.1386451819 1.0731439404 0.3975849337 -0.0042898051 -0.0000987832 -0.0005836502
-0.0137640088 1.0492610062 -0.2464964916 -0.0053838050 -0.0023237215 -0.0024630540
0.3943275571 1.1083743023 -0.0794068734 -0.0045639332 0.0024007363 -0.0025089506
0.3030913003 1.0689654383 -0.0753067875 -0.0049013519 -0.0024628545 -0.0024677708
0.4058667705 1.1083743023 -0.0491339397 -0.0044152903 0.0023691279 -0.0025128939
-0.0068919133 1.0689654383 0.1851385577 -0.0049262755 -0.0024630023 -0.0024570540
-0.0495317821 1.1083743023 -0.1631531998 -0.0049287336 0.0024629949 -0.0024683619
0.0074675265 0.8199575798 -0.4802955310 -0.0046452804 0.0000000000 -0.0001767758
0.1615687294 1.1083743023 -0.0015495935 -0.0049156770 0.0024629506 -0.0024609850
-0.3159537057 1.1083743023 -0.2316762070 -0.0049817361 0.0024616082 -0.0025141747
-0.2785716666 1.1083743023 -0.1595112715 -0.0049548666 0.0024624579 -0.0024849235
-0.0871052522 1.0689654383 0.3083124551 -0.0049296154 -0.0024630023 -0.0024525097
-0.4999999631 0.7342112339 0.0153148659 -0.0072125857 0.0000000000 -0.0018947117
-0.3352804457 1.1083743023 -0.0456869104 -0.0049460317 0.0024628422 -0.0024685023
0.3013054753 1.1083743023 -0.1216136117 -0.0048836819 0.0024622708 -0.0024763446
0.4999999631 0.5733194158 -0.0078335117 -0.0026007313 0.0000000000 -0.0027201106
0.0627774215 1.0492610062 0.0244131460 -0.0049261080 -0.0023253939 -0.0016583767
-0.1008163054 1.0689654383 -0.3043101795 -0.0049415686 -0.0024623890 -0.0024991205
-0.2650967858 1.0689654383 0.1762730141 -0.0049591277 -0.0024623816 -0.0024409087
0.1578319218 1.1083742260 -0.1937339709 -0.0049134578 0.0024629284 -0.0024678126
0.2244204268 1.1083743023 0.3227942471 -0.0049129824 0.0024629407 -0.0024484259
-0.0177215726 1.0492610062 -0.0237138111 -0.0049261080 -0.0023247732 -0.0032464406
-0.0246305401 0.6578662543 0.4844834297 -0.0058387139 0.0000000000 -0.0037793569
0.3930126705 1.0940345004 -0.1595751557 -0.0028029727 0.0000102537 -0.0033169653
-0.3913117667 1.0689654383 0.1279419019 -0.0052776302 -0.0024198644 -0.0023745959
-0.0882683482 1.0689655146 0.0426350634 -0.0049302484 -0.0024629949 -0.0024623299
0.4993304927 0.3278300226 -0.0246305401 -0.0027830564 0.0000000000 -0.0032800983
0.0138399325 0.7051017509 0.4999999631 -0.0044138790 0.0000000000 -0.0001761330
-0.1064221350 1.0689654383 0.3138421492 -0.0049340661 -0.0024628988 -0.0024495121
-0.4802955310 0.7407251571 0.0082055290 -0.0026403077 0.0000000000 -0.0021581624
0.0024853693 0.8565159047 -0.5000000000 -0.0047725046 0.0000028030 -0.0047702854
0.3129230877 1.1083743023 0.1520522055 -0.0049005588 0.0024628397 -0.0024528003
0.0104237677 0.2879023974 0.4802955310 -0.0045467115 0.0000000000 -0.0047521179
0.0217551363 0.4275174142 0.4802955310 -0.0041195539 0.0000000000 -0.0047505046
-0.3549919442 1.0689654383 -0.1445297258 -0.0049426597 -0.0024629752 -0.0024692781
0.4899454736 0.3123912873 0.0246305401 -0.0053112188 0.0000000000 -0.0016479038
-0.4937273231 0.4019557856 0.0246305401 -0.0057561966 0.0000000000 -0.0015463053
-0.1849288804 1.0689654383 -0.0708943667 -0.0049348469 -0.0024629875 -0.0024665368
-0.0600788231 1.0689654383 0.2001390345 -0.0049286351 -0.0024629998 -0.0024565047
-0.2502678559 1.1083743023 0.2459874473 -0.0049555341 0.0024621673 -0.0024221944
-0.0938122320 1.1083743023 0.3731716621 -0.0049574725 0.0024617510 -0.0024010368
-0.2129990754 1.1083743023 -0.0650400962 -0.0049363568 0.0024629850 -0.0024648299
-0.2277109709 1.0689654383 -0.1929522591 -0.0049370366 -0.0024629801 -0.0024710540
0.0118285853 0.4202803507 -0.4802955310 -0.0044852287 0.0000000000 -0.0001760025
0.0246305401 1.0570467470 -0.1459194326 -0.0041125243 -0.0002252020 -0.0024630540
-0.0884540477 1.0689654383 0.1383045267 -0.0049300464 -0.0024629974 -0.0024587954
0.3217965994 1.1083743023 -0.0981947908 -0.0048805883 0.0024622141 -0.0024761747
-0.3109505706 1.1083743023 0.2281422368 -0.0049872016 0.0024574456 -0.0024008791
0.0116641518 0.8051325760 0.4999999631 -0.0044901007 0.0000000000 -0.0001773103
0.0246305401 0.8039820785 -0.4827096515 -0.0040095317 0.0000000000 -0.0007376453
0.2147387822 1.0689654383 -0.2479291837 -0.0049150046 -0.0024629703 -0.0024732560
-0.3808730655 1.0689654383 0.0565280131 -0.0049816055 -0.0024609038 -0.0024372437
-0.1332985172 1.1083743023 0.0979798056 -0.0049330120 0.0024629850 -0.0024585047
0.2337129532 1.1083743023 -0.2975053425 -0.0048686499 0.0024615417 -0.0025030589
0.1155865777 1.1083743023 0.2225301806 -0.0049218863 0.0024629949 -0.0024534259
0.3541197127 1.0689654383 -0.1080752605 -0.0048963469 -0.0024628200 -0.0024692461
-0.0129366862 0.4365298323 -0.4802955310 -0.0054053543 0.0000000000 -0.0001756823
-0.4999999631 0.5292661678 -0.0131385483 -0.0072133492 0.0000000000 -0.0029518889
-0.0444787332 1.0492610062 0.0176728558 -0.0049261080 -0.0023247732 -0.0018792314
0.3185835725 1.1083743023 0.0536251463 -0.0048985612 0.0024628225 -0.0024561575
-0.3235226855 1.0689654383 0.2666121970 -0.0050349381 -0.0024484038 -0.0023288028
-0.0246305401 1.0306422785 0.4785515952 -0.0058430143 -0.0000008300 -0.0029323963
0.4229206091 1.0970713746 0.0113066543 -0.0024685442 0.0000467438 -0.0023692387
-0.4802955310 0.2841354692 0.0111031149 -0.0026368225 0.0000000000 -0.0020588816
-0.3632268402 1.1083743023 0.1279656827 -0.0049489134 0.0024627166 -0.0024478890
-0.0197583409 0.8533404985 0.5000000000 -0.0057193814 0.0000041429 -0.0001768251
0.2042743544 1.0689654383 0.1247657075 -0.0049080686 -0.0024628914 -0.0024601230
-0.0399727335 1.1083743023 -0.3509213805 -0.0049281819 0.0024629924 -0.0024757387
-0.0275961950 1.0689654383 -0.0551308851 -0.0049277312 -0.0024629949 -0.0024659382
-0.0421989772 1.0689654383 -0.0934102591 -0.0049284725 -0.0024629924 -0.0024673545
-0.0115564967 0.6021576993 -0.4802955310 -0.0053578346 0.0000000000 -0.0001763670
0.0151079151 1.0689654383 0.2840321145 -0.0049250686 -0.0024630072 -0.0024533964
-0.4999999631 0.1033423766 -0.0096776397 -0.0072488246 -0.0000999483 -0.0026652707
-0.0952086629 1.0689654383 -0.2806114399 -0.0049369060 -0.0024626501 -0.0024877929
0.0991968720 1.0689654383 0.1786676272 -0.0049186696 -0.0024629703 -0.0024575589
-0.0154877353 1.1083743023 0.1059810119 -0.0049276548 0.0024629900 -0.0024580442
-0.0246305401 0.1769198588 -0.4878905354 -0.0058384454 0.0000000000 -0.0019306058
-0.4821966023 0.9899951978 -0.0246305401 -0.0029571747 0.0000046084 -0.0031080219
0.2406604945 1.0689654383 -0.1550416585 -0.0049100809 -0.0024629259 -0.0024701648
0.2103474278 1.0689655146 0.0980600174 -0.0049079701 -0.0024628939 -0.0024610983
0.3701519628 1.0689654383 -0.0502361588 -0.0048932927 -0.0024627929 -0.0024673200
-0.3033045268 1.1083743023 0.1210225502 -0.0049408001 0.0024629752 -0.0024578471
0.1501098387 1.1083743787 -0.3210172004 -0.0048997041 0.0024624333 -0.0024846624
0.0084907900 0.1725375045 -0.4802955310 -0.0045888716 0.0000000000 -0.0001787537
-0.2013761822 1.0689654383 0.2827190875 -0.0049600587 -0.0024622732 -0.0024338323
-0.3219962422 1.0689654383 -0.1771130559 -0.0049444331 -0.0024627880 -0.0024781156
-0.0017057142 0.3254948257 0.4802955310 -0.0049931745 0.0000000000 -0.0047498790
-0.4999999631 0.2857159173 0.0043622952 -0.0072143541 0.0000000000 -0.0022930417
-0.0109525090 0.9426295141 0.4999999631 -0.0056283641 0.0000236404 -0.0002458448
-0.0177927401 0.1095301742 0.4802955310 -0.0057499774 -0.0000916256 -0.0047021647
-0.0768506421 1.0689654383 -0.0788929498 -0.0049299996 -0.0024629900 -0.0024668200
0.4827585481 0.5144294029 -0.0081769797 -0.0072510586 0.0000000000 -0.0027336845
-0.3946575004 1.1083743023 -0.0677320024 -0.0051081055 0.0024411944 -0.0025259432
-0.3575933036 1.1083743023 0.0946759684 -0.0049432287 0.0024629727 -0.0024589235
-0.0172359889 1.0689654383 0.1979851233 -0.0049267115 -0.0024630023 -0.0024565811
0.3161051466 1.0689654383 -0.2560832963 -0.0046367681 -0.0024182092 -0.0026522781
0.1523201735 1.0689654383 0.1962267737 -0.0049123346 -0.0024629210 -0.0024572831
0.0676206847 1.0689654383 0.0593392838 -0.0049231967 -0.0024630023 -0.0024616969
-0.2380286918 1.0689654383 -0.3445373440 -0.0051785341 -0.0024206501 -0.0027138717
-0.4999999631 0.8038917288 -0.0013934630 -0.0072126423 0.0000000000 -0.0025120540
0.2947317763 1.0689654383 0.0417505536 -0.0048997410 -0.0024628348 -0.0024636131
-0.0167280259 0.2090683589 0.4999999631 -0.0055301252 0.0000000000 -0.0001698596
-0.1809819472 1.0689654383 -0.0863293926 -0.0049347016 -0.0024629850 -0.0024671082
-0.4939168182 0.0981365740 0.0246305401 -0.0056613444 -0.0000882414 -0.0013273570
0.4827585850 0.2456499671 -0.0020834703 -0.0072538197 0.0000000000 -0.0025200959
-0.2208098063 1.1083743023 -0.1900846214 -0.0049449036 0.0024627043 -0.0024784087
0.1976760002 1.0689654383 0.2269029118 -0.0048978174 -0.0024625097 -0.0024466008
-0.2346293447 1.1083743023 0.2853494247 -0.0049610415 0.0024618742 -0.0024094801
0.2510869248 1.1030080195 0.3384614504 -0.0035912165 0.0008646182 -0.0006312881
0.4999999631 0.7562857372 -0.0089771077 -0.0026023077 0.0000000000 -0.0027601402
0.0449771986 1.0689654383 -0.0250578134 -0.0049244011 -0.0024629998 -0.0024648176
0.0246305401 0.7893945279 -0.4851611686 -0.0040111549 0.0000000000 -0.0013064162
-0.2082090560 1.0689654383 0.2482794398 -0.0049550144 -0.0024624284 -0.0024393274
-0.2223043407 1.0689654383 0.1858124419 -0.0049464504 -0.0024626919 -0.0024488988
0.1386105563 1.0689654383 0.0911613652 -0.0049161573 -0.0024629555 -0.0024608791
0.4829731860 0.8324190469 -0.0246305401 -0.0071872507 -0.0000014975 -0.0032877288
-0.4802955310 0.1023224900 -0.0047505317 -0.0026084136 -0.0001020148 -0.0027995614
-0.0034992830 0.3770480313 -0.4999999631 -0.0050586203 0.0000000000 -0.0047502336
0.0240046288 0.6449809228 -0.4802954941 -0.0040380908 0.0000000000 -0.0001747734
0.4843727844 0.5479199226 0.0246305401 -0.0068159946 0.0000000000 -0.0016499186
0.0358402437 1.1083743023 -0.2008934999 -0.0049247755 0.0024629998 -0.0024696895
0.0187903459 1.1083743023 -0.2335349409 -0.0049254947 0.0024629998 -0.0024709579
0.4984769410 1.0097210510 0.0034620342 -0.0027250195 0.0003870542 -0.0021582831
-0.4802955310 0.3960646924 0.0107004869 -0.0026383742 0.0000000000 -0.0020677683
-0.0051324233 0.5116489573 0.4802955310 -0.0051162361 0.0000000000 -0.0047501351
0.3892841510 1.0492610062 0.0097299402 -0.0049570514 -0.0022556304 -0.0018472585
-0.4843509864 0.5949250718 -0.0246305401 -0.0035796278 0.0000000000 -0.0033770268
0.1802504842 1.0689654383 0.2710340711 -0.0048924996 -0.0024622510 -0.0024378176
0.0234590180 1.1083743023 0.4004930098 -0.0049469011 0.0024257313 -0.0021575417
0.0111327972 0.7877659713 -0.4999999631 -0.0045146573 0.0000000000 -0.0047499011
-0.0064730882 1.0556646609 -0.4669955049 -0.0051116252 0.0020109728 -0.0036345120
-0.2482519299 1.1083743023 0.0113102159 -0.0049380982 0.0024629801 -0.0024619604
-0.3348654900 1.0689654383 0.1193275922 -0.0049709085 -0.0024621328 -0.0024363964
-0.1049056991 1.0689654383 -0.0499596638 -0.0049311991 -0.0024629900 -0.0024657560
-0.4802955310 0.7317444213 0.0213564812 -0.0026396525 0.0000000000 -0.0016693349
-0.4999999261 0.9127401050 -0.0081032876 -0.0072104650 0.0000134310 -0.0029686032
-0.2425647235 1.0689655146 0.0252746681 -0.0049372287 -0.0024629875 -0.0024629900
0.0088970043 0.9115130878 0.4802955310 -0.0043876499 0.0000000000 -0.0047364479
0.1051865858 1.0689654383 0.2967192342 -0.0049144553 -0.0024628964 -0.0024523570
0.0152700678 0.3031593052 0.4802955310 -0.0043648815 0.0000000000 -0.0047516967
0.0200586832 0.6582714021 -0.4802955310 -0.0041849381 0.0000000000 -0.0001749064
0.5000000000 0.3372131992 0.0147098142 -0.0026004776 0.0000000000 -0.0019802856
-0.2894666486 1.0689654383 -0.2481743585 -0.0049529405 -0.0024622043 -0.0025042658
0.0844439938 1.1083743023 -0.1188288163 -0.0049227041 0.0024630023 -0.0024664949
0.2017427117 1.0689654383 0.1405854995 -0.0049080095 -0.0024628914 -0.0024595515
-0.0703802756 1.1083743023 -0.0293566875 -0.0049299184 0.0024629900 -0.0024632806
0.0246305401 1.0443689475 0.4543828014 -0.0039813051 -0.0015864087 -0.0032415712
0.1051916893 1.0689654383 -0.2954834018 -0.0049222804 -0.0024629924 -0.0024748077
-0.4802955310 0.8986124213 -0.0094841890 -0.0025912215 0.0000000000 -0.0026636870
0.1554585427 1.0689654383 0.1102959869 -0.0049138519 -0.0024629382 -0.0024603176
0.1535847547 1.1083743023 -0.0973344830 -0.0049152681 0.0024629456 -0.0024645023
-0.0495924692 1.0689654383 -0.2458874375 -0.0049291376 -0.0024629875 -0.0024729900
-0.4945956457 0.9691988225 0.0246305401 -0.0061037927 0.0000092044 -0.0016141107
-0.0808879398 1.0689655146 -0.3651895494 -0.0049497386 -0.0024618570 -0.0025227806
0.4999999631 0.0720810538 0.0238520450 -0.0025464235 -0.0000722020 -0.0018913053
0.2880074418 1.1083743023 -0.2661260961 -0.0048526031 0.0024611131 -0.0025107363
-0.2067409798 1.1083743023 0.2106229130 -0.0049419701 0.0024627190 -0.0024444481
0.0989159754 1.1083743023 0.2970032884 -0.0049227780 0.0024629924 -0.0024506057
-0.4199315035 1.0689654383 -0.0115888661 -0.0055412188 -0.0022391476 -0.0024090269
-0.1785158119 1.0689654383 0.0148000851 -0.0049343691 -0.0024629900 -0.0024633693
0.0958728624 1.1083743023 -0.0084352531 -0.0049223789 0.0024629998 -0.0024622658
0.1048585120 1.0492610062 -0.0244656780 -0.0049261080 -0.0023237067 -0.0032743150
0.0246305401 0.3217433826 -0.4984559311 -0.0040145490 0.0000000000 -0.0043930563
0.2755799870 1.0689654383 0.0738586029 -0.0049011893 -0.0024628422 -0.0024623644
0.1028338200 1.0689654383 -0.1871266906 -0.0049221499 -0.0024629974 -0.0024708028
0.0246305401 1.0570808726 0.2094781274 -0.0041142534 -0.0002152857 -0.0024630540
0.1480354226 1.1083743023 0.2871712916 -0.0049205218 0.0024629949 -0.0024509161
-0.1711587263 1.0689655146 0.1927048675 -0.0049336499 -0.0024629949 -0.0024567929
-0.4228024096 1.0974144337 0.0721684060 -0.0052735095 0.0009507241 -0.0023799136
-0.0684171723 1.0689654383 0.2878004910 -0.0049288198 -0.0024630023 -0.0024532658
0.4827585850 0.1070480463 -0.0103746963 -0.0072808985 -0.0000408892 -0.0026736377
-0.1607547517 1.0689655146 -0.0412547925 -0.0049336942 -0.0024629875 -0.0024654382
0.1510661169 1.1083743023 0.1917818060 -0.0049195317 0.0024629875 -0.0024543816
-0.1951575866 1.1083743023 -0.1878916782 -0.0049369775 0.0024629333 -0.0024712215
0.0900548776 1.0492610062 -0.0110652677 -0.0049261080 -0.0023238594 -0.0028312042
0.5000000000 0.4800003906 -0.0018390738 -0.0026012609 0.0000000000 -0.0025240171
0.1449178193 1.0492610062 -0.0107280682 -0.0049261080 -0.0023241796 -0.0028214727
-0.3177087302 1.1083743023 0.1283590767 -0.0049421794 0.0024629407 -0.0024562929
-0.2323156109 1.1083743023 -0.0419026521 -0.0049372780 0.0024629826 -0.0024639727
0.4995783178 0.6759814427 -0.0246305401 -0.0027140441 0.0000000000 -0.0032736993
-0.1248195253 1.1083742260 0.0065173345 -0.0049324627 0.0024629875 -0.0024619826
-0.2447143908 1.1083743787 0.1654472218 -0.0049386474 0.0024629555 -0.0024552732
0.1439790657 1.0689654383 -0.3921866287 -0.0049082927 -0.0024300245 -0.0027187757
0.1175720135 1.0710093642 -0.4116319252 -0.0043230489 -0.0008012339 -0.0046725760
-0.0165087180 0.5749545117 0.4999999631 -0.0055411424 0.0000000000 -0.0001764286
-0.1673750911 1.0689654383 0.3192781488 -0.0049562090 -0.0024623397 -0.0024342190
-0.4999999631 0.8651266725 0.0058290316 -0.0072388320 0.0000036379 -0.0023272535
0.3628755865 1.1083743023 -0.1069675044 -0.0048601302 0.0024615885 -0.0024906008
0.0105976667 0.1040035613 0.4802955310 -0.0046870218 -0.0000495985 -0.0047902558
0.4827585850 0.8776603760 -0.0062793591 -0.0072779502 -0.0000049754 -0.0027642313
-0.0828189594 1.0689654383 -0.2242151854 -0.0049305858 -0.0024629875 -0.0024721919
0.0807498241 1.0689654383 -0.0358121501 -0.0049228149 -0.0024629998 -0.0024652116
0.4183645454 1.0953260841 0.0621802269 -0.0031385564 -0.0003791773 -0.0022174284
-0.1933265695 1.0665023842 -0.0022688693 -0.0049261080 0.0023242609 -0.0025394678
0.1603556162 1.0689654383 -0.0894386338 -0.0049176499 -0.0024629801 -0.0024673496
-0.4753867481 1.0500703978 -0.0221493284 -0.0062924084 0.0018475393 -0.0032294456
0.0327803005 1.1083743023 -0.4268920670 -0.0049244849 0.0024630047 -0.0024783102
0.4827585481 0.6265937074 0.0068367310 -0.0072514650 0.0000000000 -0.0022400319
-0.3554732718 1.0689654383 -0.0085167531 -0.0049505440 -0.0024627461 -0.0024579038
-0.3203932423 1.1083742260 -0.0135477970 -0.0049413420 0.0024629777 -0.0024630047
0.1565079786 1.1083743023 0.0594234045 -0.0049170908 0.0024629653 -0.0024589358
-0.3350272856 1.0689653619 0.1754415043 -0.0049830144 -0.0024617855 -0.0024248151
0.0580627174 1.0665023842 -0.0120996715 -0.0049261080 0.0023246230 -0.0028610885
0.4827585850 0.8891972225 -0.0144737576 -0.0072318911 -0.0000117143 -0.0030851131
0.2886912693 1.0689654383 -0.1894562668 -0.0049054479 -0.0024628939 -0.0024716796
-0.0024342535 0.6445935903 0.4999999631 -0.0050200021 0.0000000000 -0.0001761823
-0.0253055154 1.0689654383 -0.2813869694 -0.0049292755 -0.0024629185 -0.0024770639
-0.0078004132 0.9977431282 0.4999742192 -0.0056586523 0.0000423227 -0.0003067586
-0.0207154197 1.0492610062 0.3264418478 -0.0057315562 -0.0022855565 -0.0024767708
0.2120604326 1.0689654383 0.3616189166 -0.0041410243 -0.0017646427 -0.0013552019
0.4833145924 0.0155230062 -0.0246305401 -0.0071972852 -0.0001328892 -0.0029554752
-0.0089526964 0.7231959663 -0.4999999631 -0.0052576597 0.0000000000 -0.0047493371
0.2665713251 1.0689654383 -0.0413834575 -0.0049047041 -0.0024628767 -0.0024663471
-0.1668946478 1.1083742260 0.3893134294 -0.0055248592 0.0009679137 -0.0009035886
-0.4802955310 0.6098692505 -0.0145492625 -0.0026381427 0.0000000000 -0.0030007017
0.0246305401 1.0493242968 0.0399333887 -0.0041124381 -0.0023077117 -0.0024630540
-0.0246305401 0.6778135509 -0.4985282784 -0.0058372705 0.0000000000 -0.0044095465
-0.3041216623 1.0689654383 0.1047055218 -0.0049571868 -0.0024624900 -0.0024465540
0.0246305401 0.5101236421 0.4834029126 -0.0040109012 0.0000000000 -0.0040284800
0.4827585850 0.4508931243 -0.0153755432 -0.0072511670 0.0000000000 -0.0029701722
-0.4137734546 1.0955494782 -0.1138677083 -0.0056997262 0.0003632660 -0.0026532264
-0.2770714943 1.1083743023 -0.2914001558 -0.0049837238 0.0024614826 -0.0025204456
-0.0975745076 1.0689654383 0.1210029960 -0.0049304947 -0.0024629974 -0.0024594358
-0.0098399697 0.7917261903 0.4802955310 -0.0052937508 0.0000000000 -0.0047486647
0.4827585481 0.4832062771 0.0156723141 -0.0072509330 0.0000000000 -0.0019451747
-0.4802955310 0.3726744355 -0.0013215368 -0.0026388323 0.0000000000 -0.0025147855
-0.4802955310 0.8528619887 -0.0076718984 -0.0026224111 0.0000000000 -0.0026965047
-0.1539292990 1.0689655146 0.0549236068 -0.0049331745 -0.0024629924 -0.0024618841
0.1007293571 1.1083743023 -0.2715412755 -0.0049188863 0.0024629678 -0.0024715983
-0.3663623719 1.0492610062 -0.0188527597 -0.0048973026 -0.0022326870 -0.0033363667
0.0220598998 1.0492610062 -0.2353557930 -0.0042000292 -0.0023255540 -0.0024630540
-0.3056935045 1.1083743023 -0.1931094315 -0.0049701942 0.0024619826 -0.0025010392
-0.0521829691 1.1083743023 0.2590504168 -0.0049295982 0.0024629850 -0.0024522511
-0.0370557165 1.0689654383 0.3153202230 -0.0049273469 -0.0024630047 -0.0024522461
0.1631159165 1.0689654383 -0.0541799123 -0.0049165735 -0.0024629678 -0.0024661328
0.0189236119 0.4716186548 0.4999999631 -0.0042228839 0.0000000000 -0.0001760000
0.1520969494 1.1083743023 0.1627182294 -0.0049190144 0.0024629826 -0.0024553841
-0.3381755932 1.1083742260 0.2534459123 -0.0054164799 0.0023833644 -0.0021125171
0.2663278990 1.1083743023 -0.2556532126 -0.0048648962 0.0024614949 -0.0025015737
-0.0159170235 0.0545038654 0.4999999631 -0.0052303444 -0.0001000074 -0.0000967882
-0.0589902444 1.0689654383 -0.3899694071 -0.0049515341 -0.0024616944 -0.0025302289
0.0068950020 0.2164814052 -0.4802955310 -0.0046535662 0.0000000000 -0.0001759212
0.0393914823 1.1083743023 -0.2375449775 -0.0049245489 0.0024630023 -0.0024710836
0.2038299702 1.1083743023 0.0437917726 -0.0049114898 0.0024629210 -0.0024586156
0.1969943721 1.0689654383 0.2730646350 -0.0048854849 -0.0024620220 -0.0024321033
0.0246305401 1.0340983571 0.4704143766 -0.0039754184 -0.0008468916 -0.0031763939
0.0009950911 1.1083743023 0.3658378227 -0.0049418223 0.0024622954 -0.0024217880
-0.0242000179 0.8059524922 -0.4802955310 -0.0058220341 0.0000000000 -0.0001750591
-0.4802955310 0.0317710371 0.0048178051 -0.0026484579 -0.0002327660 -0.0026692067
0.1439826002 1.1083743023 -0.2189462991 -0.0049146868 0.0024629358 -0.0024689530
-0.4735237852 1.0211383827 0.0093055387 -0.0030381919 -0.0012267832 -0.0020929604
0.0971477785 1.0689654383 0.3862820429 -0.0048299652 -0.0024370442 -0.0022708865
0.0939727862 1.0689654383 0.0106269943 -0.0049221179 -0.0024630023 -0.0024634924
-0.0246305401 0.3981255666 0.4921257149 -0.0058418542 0.0000000000 -0.0020030959
-0.2706384307 1.1083743023 -0.2408292630 -0.0049706252 0.0024619136 -0.0025050244
-0.0648503844 1.1083743023 0.3142603758 -0.0049413962 0.0024624530 -0.0024299161
-0.2863827005 1.1083742260 0.2574065081 -0.0049632164 0.0024618791 -0.0024108594
0.0246305401 0.3930906926 -0.4885671092 -0.0040091573 0.0000000000 -0.0020970417
-0.0633120938 1.1083742260 -0.2075660068 -0.0049292829 0.0024629949 -0.0024700737
0.0246305376 1.0548891684 -0.4271982566 -0.0038819529 -0.0006211009 -0.0024280663
-0.2217956142 1.0689654383 -0.2849382474 -0.0049516967 -0.0024621033 -0.0025097437
0.4937948601 1.0086265535 0.0246305401 -0.0040301327 0.0004363916 -0.0016780713
-0.3669903497 1.1072962655 0.2176512376 -0.0066298123 0.0007423743 -0.0014877019
0.0668342906 1.1083743023 0.1169499470 -0.0049239233 0.0024629949 -0.0024575195
0.2502756539 1.1083743023 0.0484286639 -0.0049062656 0.0024628816 -0.0024575983
-0.1987484952 1.0689654383 -0.1767007677 -0.0049356991 -0.0024629826 -0.0024704506
0.0264561729 1.1083743023 0.2348605196 -0.0049259701 0.0024629900 -0.0024530712
-0.4823620062 0.9049124208 0.0246305401 -0.0032508569 0.0000000000 -0.0013085566
0.3501909864 1.0689654383 -0.1991469508 -0.0046574726 -0.0024224752 -0.0026333225
0.0447561962 1.1083743023 0.3723149897 -0.0049365661 0.0024624530 -0.0024274432
