0.4202699220 0.8116356897 -0.2487213461 0.0070302527 -0.0000855206 0.0185938384
0.3469464973 0.8293021401 -0.0448829234 0.0060016368 0.0012778486 0.0192038153
0.0961055773 0.5701712631 0.2301573757 0.0059162047 -0.0012812799 0.0192216777
0.0149044857 0.5701712631 0.2512200608 0.0059157818 -0.0012812799 0.0192217494
-0.1175580468 0.6442601037 -0.3593117182 0.0062551824 -0.0002369606 0.0204002729
-0.4277307565 0.5882362375 0.0366566616 0.0055150257 -0.0012154655 0.0192393466
0.1747061934 0.8247482027 -0.3447944006 0.0060053551 0.0012570739 0.0190210607
0.1556634816 0.9691003308 -0.3467277040 0.0054786629 0.0000270312 0.0204234385
0.3863088649 0.6103378733 -0.0154730246 0.0048250455 -0.0005304732 0.0192693978
-0.0589144372 0.9572600300 -0.4800130410 0.0057457286 -0.0000468886 0.0179501765
-0.3606859667 0.8365651200 -0.1184546098 0.0071421600 0.0000493230 0.0195853188
0.0446562182 1.1278495408 -0.4882286170 0.0060109043 -0.0000339220 0.0179421596
-0.3155083583 0.3740586815 -0.3170299814 0.0067427685 -0.0000807593 0.0182450153
-0.1047779770 0.8302719399 0.2513051649 0.0059152911 0.0012812837 0.0192200645
0.0546582496 0.8973713560 -0.4794796170 0.0060363468 -0.0000502468 0.0179447618
0.2836723205 0.8295853922 -0.1785982375 0.0059784725 0.0012786840 0.0191753823
-0.4820658216 0.8736324932 -0.0752232867 0.0046539300 -0.0000923344 0.0190149925
-0.4088838274 0.8225531907 -0.2674133744 0.0048483572 -0.0000840548 0.0185157301
0.3170781346 0.5126490996 0.3921987315 0.0050262890 -0.0000106692 0.0201413985
0.3735775941 0.8442062132 -0.0742785706 0.0046599546 0.0000513641 0.0194662773
-0.3019666665 0.8471257014 -0.2334632261 0.0069371738 0.0000371329 0.0199910924
0.4262851674 0.5943377414 -0.1663495199 0.0070407976 -0.0003052300 0.0187500794
0.3298242248 0.7669628058 -0.1898079442 0.0047821430 -0.0000031942 0.0198128402
-0.3939279443 0.9926080243 0.0430747566 0.0070809813 0.0000588814 0.0197390203
-0.0508724636 0.7553606355 0.4872503312 0.0057634769 0.0000716686 0.0204881972
0.3309596407 0.5721860548 0.1123154310 0.0060569421 -0.0012714896 0.0192596152
0.1470969197 0.6536826297 0.4680328356 0.0062816524 -0.0001725325 0.0204295426
-0.1650153512 1.1140068434 -0.4630267255 0.0055252465 -0.0000372098 0.0179995342
-0.2873244570 0.6806671264 0.3900518138 0.0051296374 -0.0000508593 0.0202290371
-0.2397323207 1.0517714418 -0.3020962491 0.0066599604 0.0000362539 0.0202613831
-0.3038232133 0.5880449521 0.3179573553 0.0056167943 -0.0012117485 0.0195015049
-0.2418646907 0.6695055537 -0.4093967035 0.0052902425 -0.0000930635 0.0181049402
-0.1132719259 0.9350580210 -0.3574663544 0.0062467502 0.0000233834 0.0204565495
0.4706755025 0.8028812942 -0.0158711233 0.0069009135 0.0007321832 0.0191616047
0.2786732305 0.3389309861 0.3470527170 0.0047476342 -0.0000496485 0.0187075049
-0.4241233931 0.9396143044 0.0518940927 0.0059652522 0.0000004882 0.0204995391
0.4383663341 0.7934749944 -0.2078394874 0.0070814771 -0.0000912774 0.0186965743
-0.2194293612 1.1671462567 -0.4435724295 0.0054093519 -0.0000268121 0.0180427121
-0.3232500220 0.6931745018 0.3345045595 0.0059154384 0.0012812837 0.0192192561
-0.4231603969 0.8156322725 -0.1273905939 0.0054475341 0.0011123234 0.0190745761
-0.1115448157 0.5705328759 0.3183041284 0.0058827901 -0.0012771913 0.0192882865
0.3306155840 0.4049702385 0.3993065557 0.0064732953 -0.0000331917 0.0203538136
0.2049742141 0.8302718617 0.0657004259 0.0059156960 0.0012812837 0.0192193265
-0.1716655687 1.3673687365 -0.3669560568 0.0057712581 0.0012677073 0.0193296271
-0.4136841839 0.6554980038 -0.2355668775 0.0047902689 -0.0001113282 0.0186171014
0.3896920588 0.4158275614 -0.3107945923 0.0067803767 0.0004792014 0.0184045364
-0.0725850184 0.5793486616 0.3918438441 0.0058562495 -0.0012433680 0.0195006631
-0.0727450623 0.8294538543 -0.3159787316 0.0058981847 0.0012787020 0.0191532289
0.1760829827 0.5701712234 -0.2305864379 0.0059224983 -0.0012812158 0.0192126600
-0.4146058881 0.9189521179 0.0515683442 0.0059627255 -0.0000007995 0.0204996429
-0.0080820675 0.6649158762 0.4908962497 0.0058639782 -0.0001100623 0.0204926573
-0.0658411327 0.7260873215 -0.4537871950 0.0057312103 0.0000178150 0.0179537987
-0.0171736123 0.6336695710 -0.4673987232 0.0058570068 -0.0002906631 0.0179811862
-0.1378126276 0.8302718617 -0.2532276966 0.0059146594 0.0012812748 0.0192157671
-0.4192406886 0.7521894890 0.2252022735 0.0047630659 0.0000699940 0.0197706078
-0.4008926952 0.8043470598 0.0512513495 0.0059662324 0.0000030533 0.0204994276
-0.3167559763 0.8441101797 -0.2133283070 0.0069564136 0.0000419428 0.0199650080
-0.1705430181 0.9934835114 -0.3390951352 0.0064154069 0.0000288789 0.0203983549
-0.2162218122 1.0348324390 -0.4411098457 0.0054011632 -0.0000435265 0.0180469519
0.2800131855 1.1188896261 -0.2811018744 0.0052912957 0.0000936734 0.0203308555
0.2324359274 0.7168231955 -0.4205680140 0.0064889065 -0.0000650892 0.0180757359
-0.2972550313 0.5426768411 0.3156895754 0.0068141091 -0.0000065550 0.0183060467
-0.2483373095 0.8302718617 -0.0787233272 0.0059143019 0.0012812812 0.0192189883
0.1857631108 1.1610036954 -0.3409740494 0.0054141541 0.0000298039 0.0203976976
0.2118790816 0.6698401852 -0.4118265608 0.0064445010 -0.0000774113 0.0180561925
-0.0736962989 0.9354732800 -0.4772469109 0.0057330823 -0.0000475010 0.0179519588
0.3634242571 0.8864983527 -0.3325440006 0.0067931319 -0.0000603959 0.0182886943
-0.0157704221 0.8051947840 0.4848604769 0.0058958425 0.0010133724 0.0199708366
-0.2923804206 0.7488201754 -0.3833067748 0.0051369356 -0.0000673225 0.0182040796
-0.2864770455 0.5594542753 0.3264675612 0.0068242005 -0.0000046972 0.0183161061
-0.3099097019 0.2182799869 0.3152049106 0.0067982199 -0.0000901947 0.0182954069
0.3109623200 0.6195528480 -0.2364411909 0.0049836953 -0.0004227878 0.0198823742
-0.1465158588 0.6803016043 -0.4490438878 0.0055564983 -0.0000823020 0.0179922731
0.4475409560 0.6761426713 -0.1610572248 0.0070957942 -0.0000637631 0.0187275673
-0.3469502899 0.5735907826 -0.2387041814 0.0050986239 0.0000127629 0.0202062917
-0.3971938725 1.0115810176 -0.3012922013 0.0049230880 -0.0000757533 0.0184123728
-0.0365950395 0.9875672708 -0.3738052244 0.0060377575 0.0000266571 0.0204942269
0.2886725649 0.2065839331 0.3473537610 0.0047949533 -0.0001148735 0.0186405681
-0.3708475141 0.8432106852 -0.0776860281 0.0071735450 0.0000508811 0.0194548534
0.0029475548 0.5865153722 0.4408860272 0.0059089077 -0.0012192824 0.0196028980
-0.1905871236 0.5701712631 0.1474563326 0.0059142392 -0.0012812825 0.0192199979
0.2575199266 0.5916156388 -0.3722862407 0.0064020149 -0.0008732487 0.0184318931
-0.3956857593 0.3951772626 -0.3205417418 0.0050090775 0.0004999518 0.0184643006
-0.3806334916 0.8943036718 -0.0260849291 0.0071899634 0.0000597578 0.0193349034
0.3872365912 0.9546539822 -0.0156905110 0.0046392722 0.0000744080 0.0193058632
0.1329833449 1.3073763643 -0.4765934049 0.0062257795 0.0000015414 0.0179768785
0.4677098355 1.0343178613 0.0170573486 0.0059144877 0.0012222396 0.0195885413
0.2439318601 1.0801346254 -0.3040455263 0.0051431447 0.0000415687 0.0202406660
-0.3408586403 0.5542162542 0.3830026429 0.0050007851 -0.0000074263 0.0201164801
0.3946397513 0.7828417629 -0.2862833743 0.0069565110 -0.0000867263 0.0184781551
0.3845024842 0.9570312081 -0.0467905473 0.0046455850 0.0000704411 0.0193737379
0.4074485219 0.8213834248 -0.1514996413 0.0061876049 0.0012437818 0.0191037086
0.1900165129 0.5960198171 0.4245450060 0.0061637910 -0.0010478467 0.0198022094
0.4529014051 0.6187495433 0.1473624196 0.0070122019 -0.0005432694 0.0195311654
0.3293946744 0.3798101464 0.3994488076 0.0061665432 -0.0000426719 0.0204427360
-0.2970444497 0.7497780887 -0.2383510532 0.0069558754 -0.0000381541 0.0199626351
0.0259332136 1.3512405467 -0.4916180276 0.0059702031 0.0000178508 0.0179395573
0.3205505006 1.1588837589 -0.3870004763 0.0067673614 -0.0000468015 0.0182634081
-0.1603840512 0.6705480035 -0.3401522494 0.0063985439 -0.0001194041 0.0203990467
0.0621500476 1.3748174501 -0.4512055070 0.0059154384 0.0012812837 0.0192192561
0.0787775127 0.8302718617 -0.2312318116 0.0059157716 0.0012812837 0.0192183463
-0.4183698936 0.3244743731 -0.3488945239 0.0050660345 0.0006224451 0.0184894432
0.2444394970 1.0142574502 -0.3005187313 0.0051379119 0.0000361835 0.0202369695
0.2086934284 0.7280614082 -0.4136870962 0.0064535776 0.0000151268 0.0180573149
-0.3414101304 0.5856023884 0.2502678171 0.0055940681 -0.0012193093 0.0194227790
0.1076492416 1.3429315972 -0.4815064515 0.0061645623 0.0000029354 0.0179625371
0.4045883122 0.6804918737 0.2766588296 0.0069916348 -0.0000577859 0.0199104266
0.1542228087 1.3701978213 -0.4663664006 0.0061860264 0.0008009471 0.0182683014
0.2612391423 1.2628639535 -0.4296087123 0.0064746470 -0.0000265982 0.0180672026
-0.1195122800 0.5701712631 0.1425504215 0.0059145890 -0.0012812825 0.0192199723
0.4856846025 0.8277852295 -0.0115560018 0.0071892100 -0.0001053215 0.0191300864
0.2032186081 1.3726864087 -0.4092662612 0.0060075781 0.0012777205 0.0192311131
0.3939995784 0.6860330504 0.0482868049 0.0059088245 0.0000160660 0.0205003796
0.1557982841 1.3043977550 -0.4698131345 0.0062815922 0.0000003037 0.0179914800
-0.4173742874 0.6329348111 -0.1849788486 0.0048007511 -0.0002866539 0.0186669856
-0.0262810014 0.5755375766 -0.3438464184 0.0058895514 -0.0012585166 0.0189909672
0.0549402358 0.8302718617 -0.1798617883 0.0059156281 0.0012812837 0.0192186013
0.3284110905 0.9637735884 -0.3692135532 0.0067712834 -0.0000556500 0.0182673724
0.0765937427 0.5701712631 -0.0393052403 0.0059155704 -0.0012812825 0.0192189345
-0.4428394494 0.8655983496 0.0530246552 0.0059631586 0.0000063513 0.0204993085
-0.1290164212 0.6944443681 -0.4548440747 0.0055746285 -0.0000745630 0.0179868033
0.3761171689 0.4882534072 -0.2592844683 0.0068112838 -0.0000367767 0.0201336019
-0.2697708737 0.6298046439 -0.2808456407 0.0066928779 0.0002812328 0.0183207328
0.3446493131 0.9020977311 -0.1714446049 0.0047646906 0.0000571145 0.0197793436
0.1337860345 1.3748174501 -0.4477871214 0.0059154384 0.0012812837 0.0192192561
-0.0319392273 0.8278825149 -0.3464471887 0.0059023732 0.0012723609 0.0190901590
-0.1357400038 0.8302718617 -0.0832689260 0.0059151335 0.0012812837 0.0192190626
-0.3023839204 1.0218877511 -0.2462237653 0.0068950657 0.0000656632 0.0200422169
-0.2766617227 0.8059345088 -0.3494001479 0.0053829497 0.0008245202 0.0185295884
0.0015134485 1.2169738360 -0.4914774964 0.0059172694 -0.0000191911 0.0179381825
-0.4685904452 0.9415712655 -0.1549337661 0.0046936306 -0.0000892888 0.0188439296
-0.3455413403 0.5816066653 0.1972435976 0.0056425199 -0.0012386823 0.0193664307
-0.1495005093 0.8651562657 -0.3434347176 0.0063623553 0.0000181737 0.0204198894
-0.2869814958 0.8273659820 -0.2095839693 0.0058043883 0.0012707183 0.0191320109
0.4312599180 0.2577600315 -0.3255226298 0.0067925656 0.0000062142 0.0201531812
-0.3263622025 0.3717662279 0.2990097775 0.0050135057 -0.0000328970 0.0183099149
-0.0042795479 0.5819998337 -0.3822244412 0.0059066655 -0.0012376560 0.0189058387
0.4598616600 0.7991332420 0.0025760568 0.0046458733 -0.0000214820 0.0192446191
-0.0462567120 1.0772467310 -0.4861742143 0.0057759143 -0.0000393213 0.0179463827
-0.0233338425 0.8293411641 -0.3265962059 0.0059072677 0.0012781446 0.0191340033
0.2491390689 0.9703183486 -0.2949477980 0.0051540048 0.0000323806 0.0202490840
-0.4638067852 0.1080986762 -0.4142993500 0.0050416311 0.0000604010 0.0183071486
-0.4700572665 0.8313987726 -0.1191521342 0.0046685802 -0.0000953275 0.0189409497
-0.0600622432 0.9896570984 -0.3706958191 0.0061173880 0.0000260126 0.0204842150
-0.3212740377 0.0455308673 0.3659896588 0.0067457846 -0.0001316609 0.0201666039
-0.0859664728 0.9587373707 -0.4761338430 0.0057116439 -0.0000455291 0.0179554003
-0.4527192309 0.7068056593 0.1373570146 0.0046783475 -0.0000128756 0.0195472775
-0.2870717226 0.6931745018 0.3562434882 0.0065057412 0.0006732121 0.0198079098
-0.0168071395 0.6982621772 -0.4581920384 0.0058487822 -0.0000274323 0.0179412716
0.3543676824 0.4905514127 -0.3106180096 0.0068215354 0.0003404973 0.0183800895
0.0570328156 0.8302718617 -0.2616110182 0.0059156306 0.0012812812 0.0192176250
-0.2259227611 0.8302718617 0.2245494518 0.0059079891 0.0012811735 0.0192277292
0.2978301970 0.1311894285 0.3502797787 0.0047681770 -0.0001431437 0.0196895692
0.1397718949 0.7180565413 0.4734468924 0.0062451666 0.0000036004 0.0204557051
-0.4285848936 0.8200326967 0.1279338326 0.0056013112 0.0012392089 0.0193029303
0.3321192205 0.7279269772 -0.1849222876 0.0047772562 -0.0000393610 0.0198007616
0.3659855728 0.7361902566 -0.0937924578 0.0046764563 -0.0000219125 0.0195353705
-0.3395779037 0.8267093074 -0.1354976515 0.0057635807 0.0012658763 0.0191500424
-0.2060875177 0.7832720372 -0.4341922896 0.0053944813 -0.0000609455 0.0180505779
-0.3344680583 0.6502769904 -0.3092556296 0.0049941711 -0.0001804522 0.0183533914
-0.3831448744 0.7479018345 0.0465805168 0.0067946272 0.0000208029 0.0201475474
-0.1304401824 0.8302718617 -0.1109617598 0.0059151425 0.0012812837 0.0192190088
-0.2857755810 0.5732886828 -0.1697264188 0.0057547168 -0.0012667284 0.0191188457
-0.2926101035 1.2297683728 -0.4052106740 0.0051849107 -0.0000202520 0.0181672158
0.1480331794 0.8302718617 0.2701318600 0.0059171554 0.0012812773 0.0192215009
-0.3146872822 1.1940743295 -0.3030609853 0.0050238213 -0.0000051456 0.0201393510
0.2427616841 0.5727257751 0.2648981004 0.0060436539 -0.0012672793 0.0193543661
-0.3870488255 1.0350602448 -0.0506628405 0.0071248114 0.0003698707 0.0194134551
0.3226219316 1.1018588129 -0.2843639126 0.0066165966 0.0007433086 0.0199860852
-0.1759198702 0.8302718617 0.2271225962 0.0059146620 0.0012812799 0.0192207628
-0.0108930451 0.7549680540 -0.4759556946 0.0058806657 -0.0000594170 0.0179400301
0.0909130993 0.8302718617 -0.0587539641 0.0059155192 0.0012812837 0.0192190792
0.1161194663 0.9619642748 -0.4724450297 0.0061863902 -0.0000459853 0.0179678531
-0.0381284504 0.7963565528 -0.4319799944 0.0060413041 -0.0005373755 0.0203209628
0.2254895348 1.2333650234 -0.3233223005 0.0052353958 0.0000371124 0.0203031388
-0.0262710279 0.8302718617 -0.1389942120 0.0059153590 0.0012812837 0.0192188832
-0.0544078035 0.8302718617 -0.1431557243 0.0059152962 0.0012812837 0.0192189024
0.2409357139 0.5701712631 0.1006102557 0.0059165929 -0.0012812812 0.0192202260
0.0099905972 1.2864349143 -0.4920129551 0.0059373420 -0.0000077338 0.0179384080
-0.2963779413 1.3534615214 -0.3955803225 0.0051822840 0.0009364044 0.0187743636
-0.3721084652 0.6145924887 0.3523078651 0.0050158671 0.0000343422 0.0201188274
-0.1577041681 1.1382665403 -0.3490533160 0.0063738459 0.0000291825 0.0204153306
-0.4614390215 0.7430443110 0.0988123712 0.0046552946 0.0000509028 0.0194384068
0.0223230186 1.2353539691 -0.3811173159 0.0058443246 0.0000185222 0.0204978183
-0.2989253768 1.2114881824 -0.2881841267 0.0050213138 -0.0000045716 0.0201368167
0.3400998333 0.8285207325 -0.1150823145 0.0060265937 0.0012746185 0.0191780436
-0.3308776245 0.8534027707 -0.1917915726 0.0070315750 0.0000429871 0.0198460473
-0.1862528982 0.5908932753 0.4142650577 0.0057097975 -0.0011762262 0.0196327699
-0.3330209828 0.9685924004 -0.1994771442 0.0070150733 0.0000631019 0.0198737563
0.4582335840 0.0271259427 -0.3823370532 0.0049906886 -0.0003120515 0.0200470832
-0.1171358959 0.5703246199 -0.2813618610 0.0058763554 -0.0012762726 0.0191354524
-0.0853145403 0.8679221627 -0.3618554777 0.0061980281 0.0000167323 0.0204685167
-0.3671902960 0.5794773447 0.1070655515 0.0056370539 -0.0012436512 0.0192851743
-0.3308829418 0.4882017151 -0.2253228833 0.0053987979 -0.0001255748 0.0203522299
0.3650092038 0.2403813690 0.3403630846 0.0068237815 -0.0000806940 0.0183199986
0.4144105359 0.6570702030 0.2566636588 0.0070036468 -0.0001480626 0.0198706979
-0.3041902806 0.6931745018 0.3228831110 0.0064519965 0.0007120132 0.0186826980
0.0122708326 0.8059274707 -0.4403370792 0.0058939334 0.0011994353 0.0196683742
0.0724740874 1.2081129262 -0.4870560360 0.0060915304 -0.0000208221 0.0179508813
0.1519988525 1.2828763486 -0.3557641010 0.0054900625 0.0000094264 0.0204276732
0.2499766659 0.8233832409 -0.3176207288 0.0060573317 0.0012538989 0.0190242139
-0.3827583149 0.7532214606 0.2875014510 0.0048603064 0.0000710818 0.0199391761
0.2872978089 0.2652054791 0.3551600975 0.0049950091 -0.0000674019 0.0201071883
-0.0595600350 0.6565753328 -0.4667426367 0.0057555189 -0.0001090372 0.0179532093
0.1242530260 1.0926463008 -0.3617470888 0.0055662668 0.0000358631 0.0204514205
-0.3927193504 0.9595646828 0.0431436781 0.0070395407 0.0000663577 0.0198150978
-0.0675251251 0.5701712631 -0.1333871389 0.0059149592 -0.0012812825 0.0192182118
-0.3744953494 0.6266459707 -0.2872447676 0.0049707736 -0.0004712369 0.0185017256
-0.0466341897 0.7175834106 -0.4717549239 0.0057615640 -0.0000601998 0.0179487774
-0.3566710065 1.0588744176 -0.2157308896 0.0058274873 0.0012591393 0.0194306909
0.3632379380 0.6287566794 -0.2635245963 0.0068166921 0.0003019268 0.0183966681
0.3097819566 0.5735403026 0.3855239185 0.0050094504 -0.0000072226 0.0201252441
0.0027128992 0.7553729128 -0.3728687777 0.0059124684 -0.0000683462 0.0204960130
-0.1737851925 0.8302718617 -0.2179668220 0.0059151220 0.0012812837 0.0192187320
0.3964484767 0.8233525849 0.1540782402 0.0061396618 0.0012548547 0.0192966264
-0.0576679493 0.5804210243 -0.3675030509 0.0058626842 -0.0012432411 0.0189320332
0.0088096906 0.7594658417 -0.4574812475 0.0059307741 0.0000821495 0.0179424786
0.3607030924 0.6110038923 -0.1465407670 0.0048700032 -0.0005074460 0.0195990273
-0.4494735573 0.6288196724 -0.0889260884 0.0047353736 -0.0003611285 0.0189377567
-0.3070238422 0.6067494742 -0.3132054455 0.0067197874 0.0000347459 0.0182227543
0.0382372750 0.7878780588 -0.4759770446 0.0059992242 -0.0000561792 0.0179419930
0.2696973229 0.5321313532 -0.2740117832 0.0047083321 -0.0000923601 0.0188051195
-0.2737701152 0.8505066671 -0.4019423998 0.0052417420 -0.0000574630 0.0181310810
0.1897667907 0.5701712631 -0.0235596893 0.0059161265 -0.0012812825 0.0192190306
-0.3505501859 0.6021100995 0.2963088096 0.0052966630 -0.0009036702 0.0197342642
-0.3137127314 0.8295213447 -0.0996001326 0.0058414802 0.0012785789 0.0191931153
-0.1822948321 0.5701712631 -0.0211498226 0.0059142955 -0.0012812825 0.0192190280
-0.2886559082 1.3327878404 -0.3248902778 0.0053082714 0.0009894650 0.0197519523
-0.3158220319 0.6804292317 -0.3588537207 0.0050740079 -0.0000848594 0.0182570376
0.0605931597 1.1892783525 -0.3772348712 0.0057789164 0.0000216652 0.0204929200
0.2963863286 0.8437175995 -0.2430475360 0.0049125508 0.0000386461 0.0200156290
0.3398508338 0.3361056555 0.3891386339 0.0068070466 -0.0000390036 0.0201384939
0.4536749930 0.1902939787 -0.3484903301 0.0068005544 -0.0000622127 0.0201434165
-0.3483331602 0.1227945830 0.3507727334 0.0050268246 -0.0001246330 0.0201333021
0.3481215024 0.6349020557 -0.1542737679 0.0047749614 -0.0002057601 0.0196966790
-0.4343781988 0.6193027542 -0.1679133126 0.0048808070 -0.0006661292 0.0188678730
-0.3587840996 0.6058470071 -0.2493301007 0.0050808512 0.0000292889 0.0201906652
-0.0467274659 1.3458883094 -0.3790458658 0.0060721945 0.0000101670 0.0204906893
-0.3423258140 0.3346122450 0.3157191166 0.0050224759 -0.0000392726 0.0183012765
0.2889720060 0.7070448826 -0.2502617759 0.0049124559 -0.0000654428 0.0200104411
-0.4407359748 0.6483994061 0.1647078559 0.0047168052 -0.0001814375 0.0196223108
0.1233847730 1.1689309351 -0.3634650596 0.0055711639 0.0000259883 0.0204529542
0.2935774407 0.6624236922 -0.2820349577 0.0053967889 0.0008550865 0.0186653481
0.0975211165 0.7955738948 -0.4250066012 0.0057159823 -0.0008286677 0.0201649690
-0.2931858766 1.0952338149 -0.2632757722 0.0069299064 0.0000419838 0.0199982112
-0.3817444479 0.6588659093 -0.2538429614 0.0048636928 -0.0001374356 0.0185081551
-0.4790255095 0.9293661461 -0.1135728329 0.0046663854 -0.0000914606 0.0189488808
0.2303408402 0.8297132553 -0.2328923809 0.0059541396 0.0012793733 0.0191731375
0.0527376040 0.7278869371 -0.3699262596 0.0057572447 -0.0000833872 0.0204855308
-0.2999453825 0.4146682751 -0.3055640794 0.0067553725 -0.0000699735 0.0182547659
0.3116299022 0.7179549547 -0.3472671513 0.0067408991 0.0000035709 0.0182407217
-0.4307548027 0.7858489948 -0.1576071275 0.0047723322 0.0002716514 0.0187653946
0.3484686867 1.2527082321 -0.3620559524 0.0069968150 -0.0000348086 0.0185355246
-0.2646987993 0.7067030566 -0.2758302451 0.0066902768 -0.0000587622 0.0202354973
0.2943955840 0.3066007430 0.3325964948 0.0050025058 -0.0000498419 0.0183217757
0.3120617409 1.0711481215 -0.3902747328 0.0067485099 -0.0000528952 0.0182475779
-0.2308456826 1.2461213203 -0.3137023504 0.0066354494 0.0000164888 0.0202785548
-0.1036957984 0.8281990816 0.3606995932 0.0058759826 0.0012738959 0.0193358349
0.2576654241 1.3164586672 -0.2974879405 0.0053282210 0.0001545574 0.0203276792
0.0683352527 0.7652500754 -0.4531696624 0.0060671399 0.0001129926 0.0179536373
0.3960457693 0.7942960513 -0.2179198014 0.0051137251 -0.0008650036 0.0197082759
-0.3452712649 1.0124032481 -0.3548153386 0.0050652567 -0.0000525301 0.0182621896
-0.1434716863 0.8289053368 0.3369806339 0.0058677657 0.0012765071 0.0193167207
0.3904088717 0.5990911362 0.0078342672 0.0049510200 -0.0007425180 0.0192596203
0.4388434534 0.9600139611 -0.2344450111 0.0070615211 -0.0000829221 0.0186526391
-0.3362255606 0.4914609178 0.3873412862 0.0050042881 -0.0000120505 0.0201199024
0.4584378117 0.8923693127 -0.1779693258 0.0071124291 -0.0000903638 0.0187713436
-0.0067738716 0.5701712631 -0.2258812937 0.0059157408 -0.0012812799 0.0192167537
-0.3997059203 0.8240188781 0.0184529997 0.0056882271 0.0012562308 0.0192181939
0.1922725627 0.5701712631 0.2505978553 0.0059238168 -0.0012811979 0.0192269258
0.0281011534 1.3748174501 -0.4383408212 0.0059154384 0.0012812837 0.0192192561
-0.0149881048 0.7805123980 0.4877283103 0.0058679374 0.0001438971 0.0204899871
-0.3431937927 0.7091178972 -0.3050517492 0.0049648797 -0.0000131139 0.0183623373
-0.2166017230 0.8302717836 0.1769982357 0.0059150182 0.0012812837 0.0192196430
0.0161004846 0.5835344567 -0.3909205754 0.0059258899 -0.0012284948 0.0188729084
0.3306983037 0.4972259912 0.4008905645 0.0065106050 -0.0000155471 0.0203370711
0.2809492415 0.8302718617 -0.0205424647 0.0059159625 0.0012812837 0.0192189831
-0.2264446318 1.1250052843 -0.4395266569 0.0053743152 -0.0000360194 0.0180591587
0.0497039393 0.6090664824 0.4745312210 0.0060257442 -0.0007338565 0.0202338982
0.1666425572 1.2109609355 -0.3494778808 0.0054665471 0.0000188477 0.0204191014
-0.3592504267 1.1716416189 -0.3368402975 0.0047077196 0.0000244008 0.0195736015
0.0488676428 0.8078427490 -0.4761094435 0.0060223885 -0.0000561254 0.0179438316
-0.0868035035 1.2401020082 -0.4839589478 0.0057006428 -0.0000159392 0.0179563754
-0.0653965374 0.5701841669 0.3300061453 0.0058983487 -0.0012766980 0.0193068600
-0.3906937267 1.0486617636 -0.0854804781 0.0062515627 0.0012092987 0.0193968433
0.1942143712 0.5935867541 -0.4093178751 0.0062808529 -0.0008964233 0.0183878836
0.4823259247 0.9011584309 -0.0965573477 0.0071735143 -0.0000914606 0.0189958604
0.3040990173 0.5521125451 -0.3058713005 0.0050316743 0.0000196703 0.0182918219
-0.2391720319 0.5797825337 0.3136623680 0.0057313205 -0.0012422827 0.0194450259
0.1114953312 0.8302718617 -0.0871844804 0.0059156165 0.0012812837 0.0192189293
-0.0703019796 1.2608715676 -0.4867195261 0.0057321739 -0.0000123503 0.0179513156
-0.1496313335 1.3407886681 -0.3540019848 0.0063355470 0.0000298911 0.0204291287
0.1345512146 0.7436109728 -0.4581947752 0.0062263086 -0.0000618181 0.0179778510
0.2069974726 0.7228715210 -0.3195999777 0.0052930523 -0.0000806786 0.0203335475
0.4222533160 0.3028465317 -0.3581707709 0.0067274828 0.0006014717 0.0184316535
-0.4490934888 0.7663174719 -0.1754445690 0.0046970939 -0.0000910954 0.0188332232
-0.3875223854 0.6055526886 -0.0018615285 0.0070020683 -0.0005625989 0.0192584557
-0.0624252840 0.5701712631 0.2590446581 0.0059153295 -0.0012812799 0.0192216405
0.1871195867 0.8302718617 0.1783007811 0.0059157511 0.0012812837 0.0192198224
-0.2276109575 0.7579821677 -0.3952313008 0.0052707131 0.0000891953 0.0181174597
0.2135181843 1.2131288112 -0.3291861839 0.0053264080 0.0000311044 0.0203564863
0.3253498987 0.6947262133 -0.1973534536 0.0047947265 -0.0000706000 0.0198315341
-0.1118741979 1.1032578710 -0.4765358074 0.0056450107 -0.0000367523 0.0179677609
0.0246015818 1.3748174501 -0.4154958614 0.0059154384 0.0012812837 0.0192192561
0.0694383021 0.8292052468 -0.3254033705 0.0059326102 0.0012778281 0.0191309974
-0.4688352216 0.9890754225 -0.1678538200 0.0046943071 -0.0000875886 0.0188413017
-0.2284575478 0.8075129658 -0.3024632767 0.0066722428 -0.0000169642 0.0202508304
-0.4962900340 0.9470176592 0.0306307854 0.0046384393 -0.0001025898 0.0192226092
0.3123667736 0.5761953851 0.3094060331 0.0050161682 -0.0000079978 0.0183066387
-0.2696046720 0.8276184999 -0.2261814587 0.0058096070 0.0012703749 0.0191250125
-0.1178250625 0.5837942485 0.4058943272 0.0058102028 -0.0012311369 0.0195423638
0.2461073018 0.5701712631 0.2077021235 0.0059286177 -0.0012811454 0.0192295922
0.1394278292 0.8302718617 0.2232980617 0.0059157075 0.0012812837 0.0192200287
0.4047573097 0.5874051700 -0.0356636808 0.0054605635 -0.0010414979 0.0192665726
-0.3303980028 0.7703314943 -0.3150617194 0.0049995397 0.0001164610 0.0183338787
-0.3628112205 1.0278346463 -0.3403877583 0.0050437106 -0.0000589801 0.0182823186
-0.3358797844 1.2852656173 -0.3306001792 0.0050250680 0.0002248012 0.0201112410
0.4517547100 1.0400058258 -0.0125200077 0.0059224304 0.0012641978 0.0194269598
0.3603035125 0.2635863375 0.3335896191 0.0068308734 -0.0000681681 0.0183260270
-0.1555505069 0.5701712631 0.1786451684 0.0059144262 -0.0012812825 0.0192202170
0.1154268492 0.8302718617 -0.1395678043 0.0059157126 0.0012812837 0.0192186974
-0.2876784053 1.0284939014 -0.2643814496 0.0068812817 0.0000568403 0.0200562790
-0.3726097098 0.7798112258 -0.0519191084 0.0071823744 0.0000239946 0.0193988395
0.3475187109 0.7260555713 -0.1511517932 0.0047357208 -0.0000360950 0.0197116355
0.2420066890 0.8302718617 -0.1228228340 0.0059171285 0.0012812799 0.0192180837
-0.3160628594 0.7086374940 -0.3324212613 0.0050579111 -0.0000107846 0.0182691457
0.4074301828 0.8241624600 -0.0419180329 0.0061330363 0.0012577940 0.0191893291
-0.0173138065 1.1955227336 -0.3806211939 0.0059842370 0.0000208862 0.0204983296
-0.1723161815 0.6135526181 -0.4268419556 0.0055205673 -0.0005740689 0.0181440053
0.0513845735 0.8498234815 -0.4777102653 0.0060285425 -0.0000533565 0.0179442340
-0.2766152108 0.7330599318 0.3978973306 0.0051413983 0.0000244225 0.0202383238
0.3101971579 0.6666077280 -0.3475402762 0.0067243680 -0.0000906265 0.0182322742
-0.3519357546 0.8259953902 0.1579011719 0.0057429046 0.0012625706 0.0192856112
-0.1216104372 0.8118383145 -0.4628412277 0.0056137294 -0.0000577270 0.0179755408
0.3675011546 0.8208312312 -0.2367107974 0.0061607620 0.0012432130 0.0190410269
-0.4847164453 1.0110272596 -0.1137611278 0.0046639740 -0.0000728961 0.0189552053
-0.3068174440 0.2541295384 0.3787006764 0.0068140258 -0.0000732779 0.0201289047
0.0637155803 0.5871273531 0.4410209669 0.0059639286 -0.0012146339 0.0196155392
0.4296227308 0.7605487238 0.0493578479 0.0058760620 -0.0000031520 0.0204996237
-0.2108664856 0.8302718617 -0.0598510248 0.0059150079 0.0012812837 0.0192191113
0.2514032523 0.8302718617 0.0310119776 0.0059157729 0.0012812837 0.0192192573
-0.1847866445 0.9378726375 -0.3309069313 0.0064642891 0.0000258537 0.0203764757
-0.3728306736 0.9128233213 -0.0878343898 0.0071655011 0.0000605407 0.0194927691
0.2913361513 0.8302718617 -0.0485598733 0.0059180843 0.0012812760 0.0192179005
-0.4253907173 0.6022033565 -0.1065840925 0.0054516189 0.0011712202 0.0190754871
0.0981444162 1.1760587011 -0.3697892084 0.0056169326 0.0000239088 0.0204650072
0.1624008956 0.8302719399 -0.2365316329 0.0059159881 0.0012812825 0.0192182157
0.4553179280 0.6343088047 -0.1222805320 0.0071316240 -0.0002506985 0.0189269952
0.1889489985 0.8302718617 0.0329263488 0.0059156704 0.0012812837 0.0192192650
-0.0714865944 0.5701712631 -0.2555610117 0.0059131168 -0.0012812145 0.0192102563
0.4634803640 0.7326745460 0.0428184665 0.0061164283 0.0000020501 0.0179578309
0.2424360062 1.3059986563 -0.3141596444 0.0050870104 0.0000357324 0.0201956237
0.3373703799 0.5738237110 -0.1036218670 0.0061012182 -0.0012656956 0.0191520976
-0.1695009974 0.8302718617 0.2662309007 0.0059130963 0.0012812696 0.0192238328
0.4230908348 0.6570451782 -0.2187036152 0.0070722544 -0.0001127799 0.0186808491
-0.2767286262 0.6411937496 -0.3589476427 0.0051633979 -0.0002279365 0.0182110779
-0.1242754113 0.7105235244 -0.4408828202 0.0055657210 -0.0000016875 0.0179880013
0.3568800825 0.5284514166 0.3755232734 0.0068136171 -0.0000082873 0.0201329433
0.4179321110 0.5882535208 0.1566452358 0.0063035880 -0.0012116831 0.0193570530
-0.2190967425 1.2793354569 -0.3213536093 0.0065673979 0.0000123157 0.0203214637
-0.3150995506 0.5420177821 0.2985245644 0.0067987490 -0.0000080657 0.0182913209
-0.1500089586 1.0093180476 -0.3479918608 0.0063527713 0.0000284253 0.0204229606
-0.2937192814 0.5781430786 0.3745765444 0.0068190407 -0.0000068203 0.0201276196
0.0134825990 0.7212069630 -0.4745490514 0.0059410231 -0.0000611800 0.0179398584
-0.2503374972 0.7027181258 -0.4071103898 0.0052854671 -0.0000725553 0.0181059947
0.2284750847 0.9038030339 -0.4323474717 0.0064686032 -0.0000545545 0.0180649168
0.1129844802 0.7413150789 -0.4629918080 0.0061724166 -0.0000645049 0.0179657301
-0.3865379226 0.4855142571 -0.2732952829 0.0049118691 0.0000164824 0.0199446074
-0.3755727181 0.8093596596 -0.0324096109 0.0071903081 0.0000451422 0.0193382745
0.2032078748 0.7919097538 -0.4106729044 0.0064003211 0.0004419250 0.0181494469
0.3347115445 0.1500979438 0.3199078254 0.0067922734 -0.0001149709 0.0182925125
-0.3714367381 0.8115413770 -0.3144306577 0.0049389606 -0.0000754125 0.0183931996
-0.3736939603 0.3652227977 -0.2706341604 0.0051041052 -0.0000525775 0.0202095231
-0.3739988750 0.8553541018 -0.3153198302 0.0049402111 -0.0000735175 0.0183915147
-0.2813263374 0.8716412015 -0.3982910063 0.0052163739 -0.0000563150 0.0181474802
0.0075082574 0.8341652153 -0.4792555640 0.0059301924 -0.0000539613 0.0179393510
0.3434114329 0.2351538851 0.3184643285 0.0068186781 -0.0000814551 0.0183147236
0.2280404695 0.6068177448 -0.3845399246 0.0063700584 -0.0007924881 0.0183835503
0.2142253979 0.8302718617 0.0411584469 0.0059157114 0.0012812837 0.0192192791
0.3160745319 0.5225409636 -0.3182890938 0.0050615782 0.0000024908 0.0182640962
-0.1339913474 0.5701712631 0.2009292833 0.0059146505 -0.0012812812 0.0192206001
0.0497929449 0.5922205815 -0.4305113357 0.0059053458 -0.0004728001 0.0203819147
-0.4198678796 0.6067170193 0.1836351202 0.0050307159 -0.0007848965 0.0195749532
0.4758577264 0.7734806655 -0.0375656158 0.0071815441 0.0001257721 0.0190741712
0.4480230416 0.6398125218 0.1780591809 0.0070867650 -0.0002446278 0.0196713250
0.2783078840 0.8555127759 -0.4017049740 0.0066157420 -0.0000622217 0.0181482297
0.4380291604 0.0665493328 -0.3976159556 0.0050411314 -0.0001549328 0.0182967266
0.0721057645 1.2758982634 -0.4878001800 0.0060996819 -0.0000096301 0.0179518153
0.1139911233 0.5701712631 0.0197695341 0.0059157498 -0.0012812825 0.0192192766
0.3825546741 0.8902715078 -0.0230575017 0.0046393683 0.0000634364 0.0193141851
0.2578122310 0.9091613714 -0.4179114067 0.0065286762 -0.0000568044 0.0180957970
-0.0817986349 0.9081126638 -0.3640996410 0.0061839327 0.0000199009 0.0204715789
0.4461227389 0.7148507514 -0.1733291491 0.0071095731 -0.0000958375 0.0187647950
0.3914045957 1.0389603252 -0.0487462322 0.0049126366 0.0007593682 0.0194471439
-0.1916884036 1.0161289342 -0.4502468902 0.0054603892 -0.0000439762 0.0180225768
-0.3720280339 0.4875191561 0.3420218960 0.0049857607 -0.0000099927 0.0183377162
0.1485688533 0.8998682320 -0.3466374183 0.0054872052 0.0000215948 0.0204265995
-0.3440015550 0.5897144763 -0.2046969635 0.0067545614 -0.0008283333 0.0196841519
-0.0806616558 0.5701712631 0.1802099208 0.0059149003 -0.0012812825 0.0192204541
-0.4188786068 1.0454848308 -0.0499292684 0.0059159202 0.0012714294 0.0193773037
-0.0502882995 0.8302718617 0.1949087591 0.0059153372 0.0012812837 0.0192198044
0.0555924759 0.9594717782 -0.4817145897 0.0060374461 -0.0000465478 0.0179447247
0.3818895546 0.8682394329 -0.0135530786 0.0046374130 0.0000609571 0.0192794162
0.3569471423 0.7047681491 -0.1253386846 0.0046954014 -0.0000495754 0.0196002227
-0.2236208068 0.8319054511 -0.3054824348 0.0066502009 0.0000001576 0.0202672308
-0.2891157442 0.8261818259 0.2604342731 0.0057760207 0.0012634585 0.0193332698
0.1330196616 1.3317669738 -0.4765113297 0.0062311160 0.0000090753 0.0179783430
-0.3825375087 0.8275464751 -0.3028197862 0.0049224038 -0.0000752331 0.0184131300
0.1960477704 1.3586706471 -0.3395912957 0.0055098263 0.0003218879 0.0203875203
0.3651312013 0.4977947249 0.3308395396 0.0068040126 -0.0000120056 0.0182962372
0.1596048513 1.3211012874 -0.3531273972 0.0054744501 0.0000035812 0.0204222149
0.0304774837 0.5739900114 -0.3357992941 0.0059281283 -0.0012644618 0.0190131026
-0.4306321018 0.6170365387 -0.1399025628 0.0048563575 -0.0005756077 0.0188346864
-0.4737959730 0.9628270926 -0.1430787819 0.0046895151 -0.0000881908 0.0188576086
0.3132238435 0.7015650960 -0.3662953564 0.0067348322 -0.0000718493 0.0182371264
-0.3657775525 0.6681338664 -0.0842874171 0.0071664698 -0.0000841304 0.0194738164
0.2753728333 1.3598688793 -0.4181854310 0.0064344955 0.0010401064 0.0186927638
0.3442390973 0.8294271088 0.0757776905 0.0059816834 0.0012785828 0.0192326391
0.2425192332 0.5782569809 -0.2781586132 0.0060832571 -0.0012478845 0.0190066924
0.3705426391 1.0948844024 -0.3336313800 0.0057116170 -0.0006469035 0.0181336103
0.4391458261 0.9943024567 -0.2388817610 0.0070570033 -0.0000811065 0.0186434292
0.1997293893 1.3364061524 -0.4561625823 0.0063643695 0.0000208529 0.0180196862
-0.3718137174 0.3941255439 0.3437957437 0.0048596030 -0.0000327509 0.0185272847
0.2043953724 0.5701712631 0.0636561556 0.0059162175 -0.0012812825 0.0192195892
0.4346117525 0.6756067436 -0.1906974293 0.0070634648 -0.0000622435 0.0186563625
0.3624914864 0.8053441522 0.3155791915 0.0063845895 0.0011216089 0.0195659561
-0.0913935026 0.9917045411 -0.3646907010 0.0062109999 0.0000270799 0.0204655492
-0.1807172156 0.5701712631 0.0727146408 0.0059142943 -0.0012812825 0.0192195687
-0.1736505258 0.7116378441 0.4559412277 0.0054284507 -0.0000039489 0.0204029073
-0.4703886923 1.0522372986 -0.1274680834 0.0071217568 0.0003167410 0.0194871123
0.1459432928 1.0183438881 -0.4672146322 0.0062446630 -0.0000446374 0.0179824367
0.0512114273 0.5702543928 0.3368050673 0.0059342874 -0.0012734179 0.0193581331
0.2442622891 0.8302718617 -0.0667120353 0.0059159125 0.0012812837 0.0192188460
0.1205453855 0.6763693048 0.4777536291 0.0062220971 -0.0000631135 0.0204605766
0.3780257218 0.6306559263 -0.0166798606 0.0046910360 -0.0002313319 0.0192844837
-0.2322020214 0.5858937344 0.3627516498 0.0057105663 -0.0012252237 0.0195203782
-0.3387152422 0.8291000624 -0.0455060373 0.0058230656 0.0012775283 0.0192006672
-0.4782689704 0.7489819003 0.0309055888 0.0046517583 -0.0001162278 0.0193766784
-0.3756631985 0.6954397397 0.0248921014 0.0071911025 -0.0000407282 0.0192860135
0.3263612044 0.5393782235 -0.2131058775 0.0064633577 -0.0000342064 0.0203419758
-0.2505146078 0.5701712234 -0.0634690588 0.0059139637 -0.0012812825 0.0192187820
0.3174232855 1.3407342392 -0.3861848930 0.0063365221 -0.0006371491 0.0182068292
0.0014726076 0.5701712631 -0.0773235657 0.0059152053 -0.0012812825 0.0192187128
-0.4869143901 1.0204403630 0.0529040313 0.0062303421 0.0005657291 0.0202788406
0.3060840731 0.8217406582 0.3269208871 0.0061093415 0.0012473758 0.0194211479
0.4382690500 0.6575904119 -0.1776754762 0.0070766505 -0.0001433180 0.0187068528
0.3834416569 0.5845909058 0.1878780234 0.0062315568 -0.0012289676 0.0193644088
-0.4841829418 0.8209151437 0.0060198105 0.0046395143 -0.0001067361 0.0191741203
-0.4410371354 0.7235273346 0.1749010369 0.0047079080 0.0000074673 0.0196449882
0.3353101128 0.9097622858 -0.1914221798 0.0047838919 0.0000559268 0.0198171658
0.3280244337 1.0575026521 -0.3751173204 0.0067696895 -0.0000530439 0.0182657836
-0.1249214307 0.7903387270 -0.3523195170 0.0062804454 -0.0000335991 0.0204446681
-0.1475569416 0.5701712631 0.2222886317 0.0059146505 -0.0012812812 0.0192208692
-0.0895613642 1.1768064032 -0.3702224155 0.0061977168 0.0000243675 0.0204686269
0.3614038738 0.3030416879 -0.3479105300 0.0050356539 -0.0000801533 0.0182912581
-0.2431806575 0.8107001437 0.4001427842 0.0055392728 0.0009613369 0.0198026540
-0.4035212270 0.6254124699 -0.2057095992 0.0048810440 -0.0004254938 0.0186365064
-0.1335290872 1.1299830845 -0.4720388410 0.0056121086 -0.0000325843 0.0179748810
0.3554499392 0.3483860849 0.3234302409 0.0068265683 -0.0000351866 0.0183191735
-0.2441859822 1.3580409538 -0.3779752610 0.0056773862 0.0012542922 0.0193269954
-0.2096393374 1.1388572877 -0.4472814973 0.0054282957 -0.0000312069 0.0180347451
0.4667585310 0.6081907224 0.0131881894 0.0069053967 -0.0007563802 0.0192004212
0.3518375301 0.6345122508 -0.3008412612 0.0068613141 -0.0002739705 0.0183999392
-0.1068689680 0.7624983328 -0.4429405862 0.0056022773 0.0001000683 0.0179822420
0.2351602198 0.8302718617 0.0891023302 0.0059157536 0.0012812837 0.0192193957
-0.2388220134 0.8242849264 0.3360942380 0.0057846232 0.0012584551 0.0193900473
0.2902617360 0.9459756001 -0.2588438323 0.0049431517 0.0000540394 0.0200514908
0.0406298020 0.6082616132 -0.4557378214 0.0060031526 -0.0004445158 0.0180218541
0.1575795709 0.8302718617 0.2465093840 0.0059163930 0.0012812812 0.0192207142
-0.4641385621 1.0439823872 -0.0338685574 0.0059203355 0.0012709937 0.0193795357
0.3192681611 0.8299134559 -0.0924356885 0.0059759330 0.0012794156 0.0191980418
0.1556813119 1.3746638587 -0.3887262284 0.0059461957 0.0012808622 0.0192149586
-0.4491483880 0.1774459496 -0.3422319894 0.0051106423 -0.0001081416 0.0202101842
-0.2764999196 0.3197140761 0.3402727413 0.0068310899 -0.0000391765 0.0183238809
0.4709209043 0.9656718961 0.0522936982 0.0058610890 -0.0000078953 0.0204989587
0.2190126160 0.5729456447 -0.2548047852 0.0060206831 -0.0012681416 0.0190798793
0.3863709188 1.0705710582 -0.3159001774 0.0068903032 0.0008183431 0.0192177595
0.3745345682 0.3664032764 -0.3587521739 0.0066351970 0.0005254711 0.0183400878
-0.4547139642 0.6783925043 0.1293779752 0.0046787524 -0.0000539241 0.0195457387
0.1555951315 0.9245155826 -0.3450367131 0.0054762208 0.0000238229 0.0204226044
-0.3589979471 0.9656096462 -0.1467018846 0.0071116296 0.0000655851 0.0196730522
0.4283115343 1.0576658633 -0.2119713622 0.0059291572 0.0012795527 0.0192830576
0.2309050778 0.6830087698 -0.4191729830 0.0064860543 -0.0000818458 0.0180755899
-0.1861317221 1.1245958117 -0.4560179062 0.0054861328 -0.0000333185 0.0180130133
0.4215894085 0.5912123444 -0.0839560989 0.0063622541 -0.0011959285 0.0191414924
0.2800393839 0.6277912987 -0.2717529569 0.0050136235 -0.0003468153 0.0199815879
0.4358698104 0.6452488281 0.2114484152 0.0070682286 -0.0002143101 0.0197270698
0.0889887201 0.8302718617 0.0218669059 0.0059155038 0.0012812837 0.0192192497
0.3755053060 0.8269454044 0.0860003154 0.0060637317 0.0012690424 0.0192485052
0.1420018245 0.5827496857 0.3957518607 0.0060259709 -0.0012352152 0.0195229921
-0.1970894976 0.5821558094 -0.3270401272 0.0057548039 -0.0012353036 0.0189426679
-0.3432239003 0.5802983632 -0.1529317013 0.0056558798 -0.0012439048 0.0190918285
-0.1873589677 0.8231308792 0.3843300657 0.0058002011 0.0012536119 0.0194347577
0.3150169488 0.6952972533 -0.3444011938 0.0067387196 -0.0000304907 0.0182394648
0.2068752202 0.8302718617 0.1661941976 0.0059157754 0.0012812837 0.0192197699
0.1287090925 0.6684832007 -0.4555511114 0.0062180918 -0.0000935875 0.0179780906
0.3059381643 0.8302718617 0.0623273299 0.0059158638 0.0012812837 0.0192193137
-0.0250620342 0.5717772075 -0.3170936381 0.0058994839 -0.0012699521 0.0190538193
0.3185839005 0.4140685331 -0.3165281884 0.0050645494 -0.0000431716 0.0182623024
-0.1695180257 0.7404285651 -0.4243066821 0.0054496162 0.0000342436 0.0180267089
-0.4362363882 0.9327263088 -0.2333921200 0.0047883124 -0.0000816434 0.0186156599
0.3174802565 0.4255804972 0.3067289368 0.0050287427 -0.0000219510 0.0182947740
-0.2190567229 0.9139230164 -0.4345870596 0.0053791751 -0.0000521406 0.0180571612
0.3763364901 0.7255000925 -0.0117557527 0.0046385162 -0.0000295285 0.0192695157
0.0122061816 0.8302718617 -0.2919573599 0.0059147760 0.0012812696 0.0192139515
-0.0678818884 0.8302718617 0.0849676942 0.0059152424 0.0012812837 0.0192193803
-0.0495782569 1.2810818941 -0.4894005329 0.0057749764 -0.0000085718 0.0179459611
0.3748220050 0.3206765636 -0.3611440628 0.0050880943 -0.0000560626 0.0182427564
0.3324489640 0.8300866765 0.0292115408 0.0059611444 0.0012801280 0.0192196366
-0.3617095702 0.3745963684 0.3334435746 0.0050113672 -0.0000305151 0.0183123263
-0.1573570529 0.7791635458 -0.4267054912 0.0054537214 0.0001343618 0.0180319929
0.3149370441 1.3105888796 -0.3984807670 0.0067677945 -0.0000361425 0.0182648893
-0.2416533071 0.8005949408 -0.3788010112 0.0053583196 0.0006653591 0.0183024104
0.3978470659 0.3782998832 -0.3250912216 0.0067588242 0.0005296020 0.0184136784
0.2001103572 0.6457711870 -0.4302963542 0.0064054295 -0.0001080481 0.0180404315
-0.3264782945 1.3046667747 -0.3782695795 0.0050792099 0.0000529619 0.0182512334
0.1650516179 0.9499717127 -0.4585060246 0.0063145442 -0.0000477906 0.0180028681
-0.3812138389 0.8059678235 0.2689688195 0.0051863483 0.0008262435 0.0196883110
-0.0414569219 1.0075957754 -0.4842093157 0.0057832138 -0.0000434765 0.0179456626
-0.3215727549 1.1417879590 -0.3066686421 0.0050693248 0.0004565970 0.0200571938
0.1618741957 1.2373300905 -0.3519962248 0.0054682307 0.0000161378 0.0204198240
-0.3068745521 1.2146445480 -0.3942724098 0.0051513961 -0.0000173678 0.0181909964
-0.0471723315 0.8291967225 -0.3270951429 0.0059026858 0.0012777128 0.0191315881
0.0526775054 0.5701712631 0.2830992074 0.0059161444 -0.0012812786 0.0192223158
-0.1041195919 0.5901481922 -0.4309159984 0.0058452536 -0.0012496450 0.0189576589
-0.3105189843 0.1068644130 0.3288227529 0.0068039587 -0.0001300682 0.0183059263
-0.1092553039 0.5701712631 -0.0493556761 0.0059146569 -0.0012812825 0.0192188691
0.4552574374 0.7744058894 -0.1317167344 0.0071169213 0.0001293072 0.0187986375
0.0253582785 0.8302718617 0.2159703295 0.0059154935 0.0012812837 0.0192199428
0.0338683281 0.8302718617 -0.2663748734 0.0059154026 0.0012812786 0.0192168255
-0.1490559820 0.9868757184 -0.4631220556 0.0055548865 -0.0000477458 0.0179909303
0.2436673954 0.8822295445 -0.4230767778 0.0065068765 -0.0000568570 0.0180840925
-0.3412365191 0.4615040287 0.3117808348 0.0050077168 -0.0000168015 0.0183152386
0.3519566344 0.8466540571 -0.3406450080 0.0068054079 -0.0000592248 0.0182995134
0.2962702943 0.5750353941 0.2285434925 0.0060945670 -0.0012611150 0.0193469962
-0.2064969506 0.5799365940 -0.3064806611 0.0057523836 -0.0012411834 0.0189718607
0.3016139099 0.6493935670 -0.3007991877 0.0051616272 0.0005056176 0.0183676700
-0.3975782026 0.9016824721 -0.2905836982 0.0049079574 -0.0000763350 0.0184314242
-0.1639130551 0.7455385284 -0.4478135927 0.0055271569 -0.0000639335 0.0180003683
0.0662462797 0.5701712631 -0.1836082568 0.0059160176 -0.0012812799 0.0192171535
-0.2447173934 0.7254304919 -0.4115069048 0.0052858810 -0.0000673725 0.0181053784
-0.0781862553 1.3748174501 -0.4023013924 0.0059154384 0.0012812837 0.0192192561
0.2035869259 0.5795615302 -0.3136544112 0.0060613075 -0.0012429067 0.0189702398
0.2137974491 0.7006501172 -0.4111350468 0.0064612525 -0.0000255027 0.0180621172
-0.2069142045 0.5701712631 -0.0344822090 0.0059141751 -0.0012812825 0.0192189498
0.1320586296 0.8302717836 -0.2528084682 0.0059159394 0.0012812825 0.0192181836
0.1268509018 0.5845334659 0.4117699024 0.0060192301 -0.0012254633 0.0195624607
-0.0611382627 0.5701712631 0.1931345002 0.0059150746 -0.0012812812 0.0192206949
-0.3373585716 0.3946027017 -0.3356021827 0.0067217439 -0.0000494037 0.0182248505
-0.1884638058 0.7797902678 -0.4131679431 0.0053777003 0.0001410514 0.0180653716
-0.4208872202 1.0076583380 0.0482527688 0.0059549327 0.0003853051 0.0204378146
-0.3737646564 0.3896606801 -0.2701400513 0.0050956641 -0.0000579781 0.0202022211
0.2858262366 0.6186652797 0.3619129971 0.0050140835 0.0000679939 0.0201068526
0.2565577325 1.1086323963 -0.4270854418 0.0064993643 -0.0000449731 0.0180798309
0.2219810980 0.5701713028 0.2054409716 0.0059231723 -0.0012812069 0.0192259226
0.4760787683 0.7164299106 -0.0164114112 0.0071898007 -0.0001041146 0.0191377792
-0.3141657433 0.8271542063 0.2064477019 0.0057822887 0.0012681455 0.0192974438
-0.2746849966 0.8298385367 0.1937737352 0.0058736622 0.0012796232 0.0192475776
0.4679690405 0.7182060658 0.1288063676 0.0071577942 0.0000014555 0.0195281198
-0.3707085871 0.7411432652 -0.3090108916 0.0049304298 -0.0000785927 0.0184036677
-0.0748902093 0.6022033565 -0.4262048334 0.0059506827 0.0012525753 0.0194072229
0.0285623181 0.6569230245 0.4890775136 0.0059920848 -0.0001474834 0.0204857192
0.1064038146 0.7757578680 -0.4449081434 0.0061832677 0.0001320952 0.0179741122
0.3267167952 0.7658764054 -0.3591157407 0.0067715436 -0.0000615196 0.0182679580
0.1711166398 0.5701712631 0.1070700194 0.0059161829 -0.0012812825 0.0192201196
-0.4660407021 0.6849618203 0.0669929414 0.0046426163 -0.0000493269 0.0193465170
-0.2099207137 0.8265308476 0.3276106995 0.0058174331 0.0012670743 0.0193518702
0.0884563992 0.5890683211 0.4481929180 0.0059919529 -0.0012129503 0.0196237035
-0.2477946166 0.8292985422 0.2506454999 0.0058533154 0.0012781369 0.0192768664
0.3696427141 0.5757703884 0.0177110877 0.0061442181 -0.0012588869 0.0192154263
0.3396382380 0.7781347813 0.3512868818 0.0068216584 0.0001389270 0.0201118624
0.2420309911 1.3344191619 -0.3147047602 0.0050302469 0.0000254437 0.0201423941
0.4040396370 0.8226700271 -0.1219038755 0.0061690788 0.0012480870 0.0191291113
-0.4581412650 0.0794553541 -0.4117719358 0.0067118665 -0.0001237079 0.0182235218
0.3749251548 0.6496563685 0.0152372709 0.0046407033 -0.0001095882 0.0191841937
0.2212613330 0.9966362010 -0.3162794630 0.0052275326 0.0000363910 0.0202993270
-0.2865521594 0.6279658083 0.3263924472 0.0068115914 0.0000861522 0.0183231031
-0.4740470059 0.7087791207 -0.0236341870 0.0046397488 -0.0001015507 0.0191599749
-0.0916708505 0.8302718617 -0.1701158714 0.0059152475 0.0012812837 0.0192188332
0.1182545745 0.9917821972 -0.3596835364 0.0055804263 0.0000277488 0.0204554066
-0.3882591005 0.7720196702 -0.2439767294 0.0048381530 0.0001122533 0.0185363446
0.1072407274 0.8302718617 -0.1133477152 0.0059156486 0.0012812837 0.0192188217
0.0835461471 1.3748174501 -0.4594872420 0.0059154384 0.0012812837 0.0192192561
0.3515755102 0.7052192263 0.3436705981 0.0068507897 -0.0000194255 0.0200923523
0.2013459888 0.8287477568 -0.2807085318 0.0059785686 0.0012756435 0.0191250650
0.1896395733 0.9908615090 -0.3334066236 0.0053742063 0.0000322012 0.0203800581
0.2914854221 0.1771723558 0.3509289052 0.0047665920 -0.0001341619 0.0196601022
0.0650716756 0.7264570667 -0.4709957261 0.0060726404 -0.0000626458 0.0179497614
0.1876609496 1.1852996782 -0.4591830704 0.0063267497 -0.0000264880 0.0180067286
0.3226108651 1.0913927799 -0.3819929593 0.0067648258 -0.0000519561 0.0182614068
0.3270621025 0.7422017478 0.3673738591 0.0067594085 0.0000433868 0.0201816962
0.0805092958 0.5701712631 0.0675959340 0.0059155807 -0.0012812825 0.0192195495
-0.4328777502 0.9109959430 -0.2366062190 0.0047922241 -0.0000832809 0.0186084809
0.0564258010 1.3748174501 -0.3902787599 0.0058844724 0.0012524446 0.0194834222
0.0253909308 1.0883749121 -0.3782557378 0.0058302075 0.0000334594 0.0204969932
0.1230872884 0.6468149284 -0.3588569265 0.0055529338 -0.0002120550 0.0204066576
-0.1211462614 0.8451946262 -0.3529643820 0.0062680926 0.0000069997 0.0204503045
-0.4683075839 0.6885039625 -0.0705522208 0.0046514508 -0.0001081109 0.0190420584
-0.2082095657 0.7222717021 -0.4073729184 0.0053473454 0.0000102554 0.0180732131
0.1016357952 0.9351666444 -0.4744197814 0.0061531345 -0.0000486619 0.0179614096
0.3705489340 0.9244955625 -0.3276081177 0.0067902823 -0.0000664358 0.0182890569
