-0.4512391546 1.9855360448 -0.5367943709 0.1227106822 0.0514747247 0.0845829119
0.1106471152 0.9229087953 0.2097608760 0.1223654966 0.0522983610 0.0840018615
-0.1007101598 0.9229087953 -0.2888154020 0.1223528657 0.0523050093 0.0839397864
0.2732785135 0.9246819150 0.2692508730 0.1223650630 0.0505339110 0.0839147774
-0.1338507313 2.1342832980 -0.5686109061 0.1230351223 0.0515774141 0.0840426832
-0.2393463469 0.8284206934 0.6239033126 0.1226294795 0.0513902258 0.0844923117
-0.2755316140 0.9246819150 0.2672134193 0.1223650630 0.0505339110 0.0839147774
0.4935450881 0.8983112510 -0.1905483547 0.1232080387 0.0515620243 0.0840515204
0.1101735159 0.9911739031 -0.1476359415 0.1223650630 0.0523070307 0.0839147774
0.3829648479 0.9911739031 0.0114282901 0.1223819697 0.0523066636 0.0839146879
-0.5000000000 0.9553232069 -0.2838095367 0.1214929240 0.0515492445 0.0839117968
-0.1661173914 0.7987904175 0.5582701793 0.1224303981 0.0507993044 0.0835317516
-0.3452663579 0.8943985158 -0.5435733834 0.1223677085 0.0514894567 0.0832913928
0.3309775887 0.9907772669 0.5607719076 0.1223666358 0.0523019870 0.0839651083
-0.2310379602 0.9229087953 -0.3611131558 0.1223226438 0.0522886150 0.0840292261
-0.4832263569 2.0279283674 -0.5371662784 0.1219398734 0.0514375885 0.0844664224
0.2272594617 0.9911739031 -0.0420744722 0.1223650630 0.0523070307 0.0839147774
-0.4973583398 2.2216499174 -0.5504388647 0.1217898027 0.0517141092 0.0844282303
0.4062209190 0.9246819150 0.4351532932 0.1223707547 0.0505339482 0.0839163386
0.3704389435 0.9833842541 -0.4653886967 0.1223845097 0.0522096385 0.0835312498
0.2072508345 2.1616004231 -0.6059888949 0.1221109626 0.0510076345 0.0834451888
0.4466436974 1.4214698130 -0.5763095399 0.1218194005 0.0513855253 0.0832565555
-0.2459486857 0.9911739031 -0.1453698946 0.1223650630 0.0523070307 0.0839147774
-0.0983076039 0.9911739031 -0.3637948043 0.1223649496 0.0523066619 0.0838940080
-0.2888073387 0.9246819150 0.3764746553 0.1223650630 0.0505339110 0.0839147774
0.3417883260 0.9911739031 -0.2809879829 0.1223704764 0.0523068560 0.0839114333
0.2772018546 0.9911739031 -0.3545896845 0.1223649575 0.0523067035 0.0838962944
-0.3515650783 2.1687232045 -0.5824887282 0.1227307113 0.0511252845 0.0839005960
0.2548665832 0.8072262640 -0.4677844748 0.1222672675 0.0508199232 0.0845074693
0.4788073836 2.0033839058 -0.6102282459 0.1227691721 0.0513386458 0.0834590590
-0.4669903105 0.2055574005 -0.6008236448 0.1225982185 0.0513577804 0.0833453941
0.0852560955 0.9523071498 0.6216041225 0.1223698301 0.0515813868 0.0847726889
0.1822897297 2.1656659144 -0.6182831491 0.1221397004 0.0510725440 0.0832152249
-0.4507092968 0.7123678238 -0.5099970935 0.1230272922 0.0512799298 0.0838110659
-0.1177195790 1.9118933549 -0.5329499239 0.1228721673 0.0517329052 0.0844855960
-0.2817668071 0.9911740113 -0.2221615670 0.1223650630 0.0523070307 0.0839147774
-0.4978303522 0.2563768840 -0.5873703270 0.1217046052 0.0514244125 0.0834739568
-0.2769649144 0.9911739031 -0.3778737035 0.1223649628 0.0523066060 0.0838908713
0.2027441999 2.2589544769 -0.6208013816 0.1223617127 0.0519526887 0.0832595059
-0.0402529499 1.7394304096 -0.5242361621 0.1224826936 0.0521485962 0.0842782527
-0.1683430981 0.8556274852 0.6236226366 0.1225524800 0.0516469833 0.0843820964
0.4762617441 1.1471834361 -0.5609353245 0.1225133792 0.0513689918 0.0832150397
-0.1580231231 2.1705032499 -0.6169292836 0.1225477405 0.0511124081 0.0832085093
0.2477393912 0.9229087953 -0.3279719753 0.1223866508 0.0522860600 0.0840266373
0.2312990273 0.9259117570 0.5906978476 0.1223654132 0.0505361203 0.0839691333
-0.4848978556 0.9853113746 -0.2087601139 0.1219264136 0.0521660038 0.0839164787
-0.4150954450 0.9911739031 0.5265696311 0.1223391710 0.0523060555 0.0839389034
0.0322706240 0.9246819150 -0.0077922803 0.1223650630 0.0505339110 0.0839147774
0.2826027187 0.9229087953 0.3699795654 0.1223653716 0.0523029091 0.0839757178
0.4459090274 1.6852640059 -0.5263967732 0.1220168046 0.0516809191 0.0843785564
-0.0414227284 0.9229087953 0.4922903010 0.1223658361 0.0522898518 0.0840726356
0.3670748159 0.9911739031 -0.0267633639 0.1223774571 0.0523067612 0.0839147118
-0.0503802622 0.8451073250 -0.4663139460 0.1223782728 0.0511332343 0.0847137717
0.3043501796 0.9246819150 0.4334813353 0.1223650754 0.0505339172 0.0839162464
-0.0911538302 0.9229087953 -0.5113447903 0.1228509989 0.0515736391 0.0836191549
0.2910921488 2.2241619812 -0.6225487440 0.1221419399 0.0516310137 0.0832203040
-0.4920208533 0.5546834916 0.6103199649 0.1216719337 0.0513542280 0.0843204406
-0.1701106715 0.9246819150 0.2479257913 0.1223650630 0.0505339110 0.0839147774
0.4985000888 0.9457027551 0.2808875525 0.1232466927 0.0514649380 0.0839100139
0.1435879208 0.8401994290 0.6221113624 0.1222214731 0.0513994301 0.0844261478
0.1279995631 1.1270218835 -0.5332637696 0.1216753425 0.0514683938 0.0836659963
-0.1139004024 0.9246819691 0.1910321433 0.1223650630 0.0505339110 0.0839147774
0.0643862463 0.9251344480 0.5714225845 0.1223652146 0.0505347506 0.0839397935
0.4487063391 0.7987904175 -0.2536337650 0.1217242008 0.0511116572 0.0839535396
0.4964242435 0.9150464750 0.3689697942 0.1231990632 0.0516828952 0.0839441190
0.4927841476 0.8826726466 -0.3384254157 0.1231887055 0.0514614512 0.0840997537
0.2120995402 0.9911739031 0.5150600461 0.1223651898 0.0523066308 0.0839372845
-0.2424863459 0.9246819150 0.3547437393 0.1223650630 0.0505339110 0.0839147774
0.4600695540 1.1149961842 -0.4895986415 0.1223801266 0.0519046167 0.0841722707
-0.4638435204 0.1996225651 0.5594657691 0.1225750633 0.0513654288 0.0833382059
-0.4508524753 0.5867956917 -0.5334280518 0.1230252567 0.0512968338 0.0837170790
0.1278332161 1.5647649173 -0.5539242284 0.1216067051 0.0513654270 0.0840254139
-0.1158381554 2.2589544769 -0.5618968279 0.1223678078 0.0518877739 0.0844456920
0.0030061001 0.9911739031 0.4868883136 0.1223651535 0.0523067381 0.0839312639
-0.1292433152 1.8697547064 -0.5778174603 0.1227724391 0.0509637019 0.0836578382
0.4920605171 1.2774458297 -0.5267947073 0.1231652879 0.0515313848 0.0838804126
-0.1302179681 0.8240236074 0.6234719374 0.1225119793 0.0512397412 0.0844934687
-0.1252848823 0.9246819150 0.4489244080 0.1223650746 0.0505339207 0.0839169264
-0.4512391546 1.1652861609 -0.5240199337 0.1228317783 0.0517913507 0.0836250177
-0.2876561479 0.7987903634 -0.5141198343 0.1225215852 0.0510674498 0.0836822558
-0.3956476751 0.9911739031 0.5086151985 0.1223446261 0.0523062354 0.0839352463
0.4749825517 0.9871891456 0.1026189701 0.1226748953 0.0522113966 0.0839131275
-0.2101739614 0.8083219101 -0.4652462753 0.1224068634 0.0510383875 0.0846984201
0.2656904159 0.8023820017 0.6213859995 0.1220947908 0.0510316399 0.0845751820
-0.1796156498 2.1140118989 -0.5873136182 0.1215649614 0.0515366979 0.0839268222
0.4647283763 0.9424280468 0.6173801392 0.1225385451 0.0514403901 0.0847404536
-0.4459752596 0.8014075111 -0.2307709479 0.1230437689 0.0508895039 0.0839609113
-0.1029613125 0.7987904175 -0.5296016241 0.1224192895 0.0509139224 0.0834932271
-0.4889882929 1.4601051866 -0.5045697284 0.1217644666 0.0515279813 0.0843082938
0.4794249018 0.7987904175 -0.0816419944 0.1227201560 0.0509871071 0.0840489990
0.4997941071 0.9503011353 0.5146182538 0.1232415453 0.0515049148 0.0839411260
-0.3924039184 0.9229087953 -0.1982033476 0.1225382897 0.0522585793 0.0840172956
0.4441786559 0.8713378407 -0.0507585679 0.1214900985 0.0513397761 0.0839401561
0.2650797694 0.9911739031 0.0400989589 0.1223650630 0.0523070307 0.0839147774
0.2870873568 0.9911739031 0.0679272283 0.1223650630 0.0523070307 0.0839147774
0.0910165969 0.9229087953 0.3469600693 0.1223656490 0.0522947288 0.0840327049
0.1279658091 0.9542287514 -0.5259996502 0.1217825418 0.0514918708 0.0835017620
-0.3408690016 0.9069859988 -0.4643730812 0.1226045016 0.0513995329 0.0847567087
0.4487024436 1.1458490509 -0.4911730645 0.1220873278 0.0520321466 0.0841662634
0.2209211049 0.9911739031 0.4886961457 0.1223651588 0.0523067266 0.0839318800
-0.3875580869 0.9911739031 0.0439719222 0.1223471749 0.0523066441 0.0839148723
0.1499569854 0.8769105493 0.6220735382 0.1222141590 0.0518365449 0.0842911557
-0.4701353141 1.8101768460 -0.5943427868 0.1224313750 0.0512664018 0.0832786548
0.4455826821 1.4544644061 -0.5544423987 0.1218771865 0.0516204441 0.0835239056
0.1145093174 0.9524307948 0.6214438449 0.1223698549 0.0515830792 0.0847723849
0.1849893363 0.9029530824 0.5428217225 0.1222538955 0.0513877355 0.0830515128
-0.2285454841 2.1624019202 -0.5621335651 0.1225804882 0.0510059536 0.0842717250
0.4455527314 2.0556288170 -0.5757123674 0.1219386703 0.0513557803 0.0839897351
0.0236462266 0.9911739031 -0.0839214470 0.1223650630 0.0523070307 0.0839147774
-0.3764245213 0.8216385425 -0.4641354787 0.1224677267 0.0511463128 0.0847363941
-0.2041957971 0.9229087953 -0.0031488460 0.1223589192 0.0523054801 0.0839453167
-0.3950296702 0.9229088494 -0.3131056212 0.1225789642 0.0522494273 0.0840242339
0.4926123988 0.8608262305 -0.3718053893 0.1231679884 0.0513478749 0.0841222227
-0.4005432346 0.9911739031 0.4780528281 0.1223431730 0.0523063143 0.0839289925
-0.2244845382 2.1621934829 -0.5937760242 0.1226296072 0.0509881399 0.0836325065
0.1838182732 0.9911739031 0.1133959836 0.1223650630 0.0523070307 0.0839147774
-0.3236599796 0.9844030621 -0.4592079392 0.1223633591 0.0522303902 0.0835614753
-0.4935525822 0.8308559190 0.2623409653 0.1215182069 0.0513038847 0.0839227307
0.4254347391 0.9229088494 0.2941778470 0.1223001039 0.0522875840 0.0839872794
-0.1412046219 0.9229087953 -0.3982125787 0.1223087558 0.0522988043 0.0839929126
0.4621755396 0.9250286601 -0.2903131216 0.1223961582 0.0505355476 0.0839133722
0.1617150065 1.9996482769 -0.5391311680 0.1227404732 0.0514999686 0.0843788675
0.4800398774 0.9852859427 -0.4117210910 0.1228038135 0.0521653141 0.0838741747
-0.2121377420 0.9911739031 0.1452665758 0.1223650630 0.0523070307 0.0839147774
0.2206470453 0.9246819150 0.2758210687 0.1223650630 0.0505339110 0.0839147774
0.1831789882 0.9911739031 -0.0383753004 0.1223650630 0.0523070307 0.0839147774
0.1276844221 1.7548512696 -0.5344360916 0.1219381020 0.0517601961 0.0844010182
0.3292349871 0.9229087953 0.3168428726 0.1223670206 0.0523056760 0.0839546593
-0.3602012439 0.8573397302 -0.4642439174 0.1225239549 0.0512522355 0.0847450646
0.4452823644 0.1887604489 -0.5940809955 0.1215554052 0.0513958750 0.0837076513
-0.4070567224 0.8364622849 0.6245661757 0.1227040755 0.0515523475 0.0844408638
0.1040878792 0.9229087953 -0.4207496187 0.1224092642 0.0523006554 0.0839745963
-0.2113752864 0.9246819150 -0.1630264449 0.1223650630 0.0505339110 0.0839147774
0.1285765362 1.9534361288 -0.5362807460 0.1218007766 0.0517203843 0.0845028068
-0.1335449754 1.4988222673 -0.5539069130 0.1231804747 0.0513927889 0.0839036537
0.1699696473 0.9911739031 0.4800901737 0.1223651464 0.0523067594 0.0839300555
-0.3714038566 0.7987904175 -0.5020060420 0.1225132542 0.0510951450 0.0839406437
0.1658493276 1.6801612006 -0.5204137390 0.1229380821 0.0514497016 0.0842856130
-0.2910157026 0.9229087953 0.4318390293 0.1223653450 0.0523023221 0.0839820629
0.4578052659 0.0582634087 0.6202834276 0.1220356821 0.0513922100 0.0846194772
0.4459214729 0.7645970420 -0.5097355734 0.1217381872 0.0513021284 0.0837639833
-0.2887772799 0.9911739031 0.1623206705 0.1223650630 0.0523070307 0.0839147774
0.2001260849 0.9246819150 0.4735620213 0.1223650843 0.0505339261 0.0839182651
-0.4647703930 0.7720417855 0.6247162809 0.1224364134 0.0513199376 0.0846378849
0.4459172254 0.9824200990 -0.5343321434 0.1218332903 0.0516744002 0.0834452340
-0.4450332357 0.3474163089 0.5702158480 0.1230493888 0.0513321455 0.0836727350
-0.1021036749 0.9911739031 0.1871272133 0.1223650630 0.0523070307 0.0839147774
-0.4299884491 0.9911739031 -0.2227043571 0.1223355158 0.0523063923 0.0839149379
0.2766360530 0.9044470953 0.5422066929 0.1221875817 0.0513921452 0.0830616994
-0.2391152110 0.9887068598 -0.4311568481 0.1223643511 0.0522787503 0.0837660384
-0.2107829571 0.9229087953 0.2935254134 0.1223653653 0.0523014028 0.0839834025
0.1559722531 0.9888365103 -0.4324588747 0.1223643591 0.0522802087 0.0837722345
-0.1745068912 0.9229087953 0.4216261675 0.1223655409 0.0522972537 0.0840175749
0.3887475080 0.9911739031 0.5175954858 0.1223826542 0.0523062532 0.0839377251
-0.1889144905 0.9828032073 0.6081041061 0.1223670906 0.0521967072 0.0843112142
0.3932997853 0.9246819150 0.5103210034 0.1223697662 0.0505339589 0.0839201437
0.1737855339 1.7415411836 -0.5498609562 0.1231297865 0.0514187243 0.0838859784
0.4937567986 0.9610928798 -0.4234064302 0.1232165408 0.0516029851 0.0838279007
0.4739783542 0.9311376115 -0.4714136669 0.1227385494 0.0508504669 0.0834671640
0.4534856946 1.9420234023 -0.6067001340 0.1220129303 0.0512219532 0.0832422668
-0.0579408037 0.9246819150 0.0850366480 0.1223650630 0.0505339110 0.0839147774
0.4967704744 0.9065287582 0.4362517266 0.1232014551 0.0516594785 0.0839238168
-0.4956645468 0.9564718817 0.5455456865 0.1214948070 0.0515574177 0.0839574723
-0.3550105078 0.8603003223 0.6243604450 0.1226107500 0.0517572128 0.0843300881
-0.4344534446 0.9229087953 0.5983260284 0.1223652146 0.0523055421 0.0839654886
-0.1334399721 1.6864722034 -0.5565011724 0.1230559254 0.0513198294 0.0841274516
-0.4705230218 1.1842223087 -0.5580692095 0.1224757748 0.0513936063 0.0832311591
-0.4787205619 2.0514886517 -0.6080368464 0.1221246413 0.0513101287 0.0834291749
0.3647221911 0.9911739031 0.0708071151 0.1223766326 0.0523067789 0.0839147162
0.3307528103 0.8400791388 -0.5469574506 0.1220711879 0.0513474014 0.0830975359
-0.1793936845 1.7343935121 -0.5475593307 0.1216037998 0.0514185496 0.0838885707
0.4440417542 0.8739654321 -0.0777815165 0.1214897607 0.0513447409 0.0839454453
0.4920605171 1.5648602614 -0.5184079948 0.1231608649 0.0515296684 0.0842333458
0.4427614536 0.8697666102 -0.3305097422 0.1214921074 0.0513368071 0.0839770245
-0.0039728121 0.9246819150 -0.1450650049 0.1223650630 0.0505339110 0.0839147774
0.0280694891 2.2589546932 -0.5891083283 0.1223652918 0.0518655505 0.0839196943
-0.4925421620 1.0550579425 -0.5505614271 0.1219515901 0.0513608559 0.0832057006
0.2595338331 0.7988660650 0.5423214093 0.1223171861 0.0510186349 0.0831324557
0.4968045378 0.8310026145 0.4428705687 0.1232263107 0.0513879944 0.0838694254
0.1408156837 0.9911739031 -0.0816839978 0.1223650630 0.0523070307 0.0839147774
-0.0451848717 0.9911739031 -0.1247927946 0.1223650630 0.0523070307 0.0839147774
-0.0421410564 0.9246819150 -0.3479499284 0.1223650391 0.0505339305 0.0839104155
0.3083382787 0.9632810336 0.6200285629 0.1223698079 0.0517373158 0.0847365865
0.2001729051 0.9911739031 0.1883640494 0.1223650630 0.0523070307 0.0839147774
-0.1863457445 0.9911739031 0.3068101882 0.1223650630 0.0523070307 0.0839147774
0.1364069953 2.0750104088 -0.6125721319 0.1220535419 0.0515008809 0.0832860735
0.2144699946 0.9075030866 -0.4676041760 0.1223276520 0.0513912064 0.0847903049
0.1734297450 0.9229087953 0.0448368544 0.1223652528 0.0523044951 0.0839522860
-0.3743174265 0.8276709270 -0.5433163546 0.1226458179 0.0512352392 0.0831108760
-0.4971263102 0.8173077978 -0.4321571500 0.1215651476 0.0512257255 0.0841877297
0.4654053356 0.9894218871 0.0332195303 0.1225228725 0.0522645113 0.0839139334
0.4178385108 0.9229087953 -0.3387524109 0.1221035554 0.0522419696 0.0840270336
-0.0747956947 0.9246819150 0.3298483934 0.1223650630 0.0505339110 0.0839147774
-0.4920209073 0.4674084281 0.6019884452 0.1215977942 0.0513210813 0.0841787453
0.1737855339 1.6540331171 -0.5495731381 0.1231059682 0.0514352648 0.0838152841
0.4448310487 0.9034728751 0.0780286566 0.1214831647 0.0514004975 0.0839427156
-0.2168678562 0.9229087953 0.5781015442 0.1223656021 0.0522961047 0.0840315613
-0.2598713926 0.9263420506 -0.4586929074 0.1223647111 0.0505369457 0.0838433889
-0.1095426824 0.9911739031 0.2694208363 0.1223650630 0.0523070307 0.0839147774
-0.4509564227 0.2547325894 -0.5294380458 0.1229991351 0.0513021302 0.0844460510
0.4343442488 0.9257846492 -0.4474355895 0.1223733745 0.0505359846 0.0838647994
-0.4899908130 0.0000000000 -0.6196289514 0.1220834437 0.0514249107 0.0832856444
-0.3440644372 0.9229087953 0.1559139990 0.1223463008 0.0522972679 0.0839964251
-0.4450332357 0.4305085131 0.5696904274 0.1230142855 0.0513270576 0.0836166521
-0.4699014991 1.5302306409 -0.5781774089 0.1224767855 0.0513008367 0.0832296581
0.4460993913 0.8278572323 0.3284043780 0.1216315748 0.0510246032 0.0838772227
-0.4460445221 0.8829564610 -0.2444454730 0.1232215880 0.0513222258 0.0839304012
0.1436847908 0.9911739031 0.3698478581 0.1223650630 0.0523070307 0.0839147774
-0.1660471555 0.9246819150 -0.0750164286 0.1223650630 0.0505339110 0.0839147774
-0.1777937755 0.8347577779 -0.4654626668 0.1224013198 0.0511425441 0.0847287759
0.4801172288 0.4974823084 0.5546780534 0.1225827277 0.0513378895 0.0833500397
0.4552985862 0.2387796667 0.5546780534 0.1217442202 0.0513580295 0.0834569428
0.1352047794 0.9109572284 -0.4672502879 0.1223433122 0.0514066618 0.0847958601
-0.2236247631 0.9911739031 -0.0477230039 0.1223650630 0.0523070307 0.0839147774
-0.2322628508 0.8481261960 -0.5441813241 0.1224894669 0.0513197053 0.0830985812
0.1390076823 0.9911739031 0.1740645520 0.1223650630 0.0523070307 0.0839147774
0.4458997744 0.7450648042 -0.5267847513 0.1218485089 0.0512972151 0.0835338368
0.4951151014 0.8661512165 0.1145534043 0.1232167536 0.0514791389 0.0839639930
0.0514746565 0.9009878674 -0.4668765409 0.1223596754 0.0513620527 0.0847821813
0.2545655341 0.9911739031 0.4870332777 0.1223651579 0.0523067319 0.0839315759
0.4965028938 0.8325072883 0.3842516966 0.1232261768 0.0513870732 0.0838829632
-0.1563353366 0.9229087953 -0.1983436848 0.1223428645 0.0523034401 0.0839572933
0.4271053715 0.9247717395 -0.4209570267 0.1223722220 0.0505341441 0.0839036422
0.4456643901 1.4239710545 -0.5302928420 0.1219511433 0.0518189254 0.0838227551
0.4457083555 0.5725862758 -0.5256308812 0.1215768049 0.0513403631 0.0839419256
0.4968994759 0.9301662052 -0.0210676265 0.1230983535 0.0509264611 0.0839108579
0.4796007634 0.9229087953 -0.3301781209 0.1229092973 0.0518033583 0.0840938687
0.4422439332 0.9229087953 -0.0923175481 0.1221448362 0.0522542724 0.0840115197
0.4969565092 0.8569488300 0.4724017122 0.1232175754 0.0514847021 0.0838813390
0.4920460697 1.6410748632 -0.5894294784 0.1230637511 0.0513939680 0.0834389802
-0.3036509667 0.9246819150 -0.2002324136 0.1223650630 0.0505339110 0.0839147774
-0.4906908513 0.9795446229 0.0491300133 0.1217702975 0.0520259495 0.0839178671
-0.1511930838 0.9246819150 0.0397375191 0.1223650630 0.0505339110 0.0839147774
0.3042890469 0.9911739031 0.3717981656 0.1223650630 0.0523070307 0.0839147774
0.4661629480 0.7987904175 0.0618029971 0.1223205958 0.0508978722 0.0839964562
-0.4450332357 0.7717976358 0.6067977504 0.1228652681 0.0512528206 0.0842502685
-0.1446520808 0.9446946071 -0.5459191090 0.1225301369 0.0514973081 0.0832090501
0.4952726457 0.8542767049 0.1451744853 0.1232204789 0.0514396560 0.0839491422
-0.4920209073 0.2291377735 0.5832494790 0.1216416683 0.0513287154 0.0837480084
-0.4408646083 0.9911739031 0.1978520838 0.1223317922 0.0523063117 0.0839149547
-0.3115791407 2.2041804029 -0.5483067166 0.1225831754 0.0515156368 0.0847155120
-0.3175127173 2.1681247331 -0.6159207571 0.1227389413 0.0511120446 0.0832308009
0.1913981320 0.9229087953 -0.3015020707 0.1224295860 0.0522975968 0.0840065080
-0.1689354008 0.9911739031 0.2325752896 0.1223650630 0.0523070307 0.0839147774
-0.4976227820 1.3215021825 -0.5279370521 0.1215709590 0.0515188568 0.0838490940
0.4463996009 1.9980677934 -0.6098216536 0.1218463519 0.0512285297 0.0832522761
0.4920604896 0.2418253083 -0.6025494168 0.1229730285 0.0514303444 0.0833391962
0.4512787643 0.5447102350 0.5946066873 0.1217796968 0.0512076273 0.0841875869
-0.4512391546 1.4151068630 -0.5353174571 0.1228111649 0.0517554646 0.0836595625
0.2355893785 0.9229087953 0.0415219681 0.1223776664 0.0523045323 0.0839554723
0.0993597607 0.9229087953 -0.5277502593 0.1219161074 0.0515294219 0.0834029992
-0.4975235954 1.1816108961 -0.5167712892 0.1215921274 0.0515272091 0.0838437382
0.4920605171 2.1581593758 -0.5840733236 0.1231592699 0.0514279295 0.0840051232
0.1627879088 2.1843780418 -0.6194215425 0.1221630728 0.0512423556 0.0832094774
-0.2327495012 0.9246819150 -0.0198418361 0.1223650630 0.0505339110 0.0839147774
0.4060556624 0.9229087953 -0.4739119864 0.1220782813 0.0522348142 0.0840355401
0.2525444365 0.9911739031 0.1238704771 0.1223650630 0.0523070307 0.0839147774
0.0562125626 0.9229087953 0.5228398197 0.1223658583 0.0522896372 0.0840753192
-0.4449115935 0.9911739031 0.2680966643 0.1223305368 0.0523062842 0.0839149627
0.2555813118 0.9506305650 0.6206720006 0.1223700047 0.0515581740 0.0847768159
-0.3868716848 0.9911737950 -0.1819911638 0.1223477095 0.0523066557 0.0839148705
-0.4446614905 0.8242578011 0.0285624766 0.1231624110 0.0511316873 0.0839246005
0.2793263729 0.9088632290 -0.4678937256 0.1223148935 0.0513972926 0.0847917686
0.4602977146 1.6285677894 -0.5886104496 0.1221583004 0.0512866490 0.0832347328
0.4554590261 0.9911739031 0.1229512103 0.1224026523 0.0523062141 0.0839145770
0.1361273992 2.1702688400 -0.6183751918 0.1221950545 0.0511085560 0.0832076963
0.4857444272 1.7669612746 -0.5275044862 0.1229965711 0.0514898459 0.0843503540
-0.4943219911 0.8031954035 0.1128244796 0.1215370534 0.0511943307 0.0839951893
0.0938055014 0.9229087953 -0.2567000093 0.1223676793 0.0523063595 0.0839285076
-0.1190174388 0.9911737950 -0.2741253962 0.1223650506 0.0523069899 0.0839124777
-0.2533123161 0.9911739031 0.3526011742 0.1223650630 0.0523070307 0.0839147774
0.2978841884 0.9911739031 0.1517817002 0.1223650630 0.0523070307 0.0839147774
-0.2924955394 0.9911739031 0.0366329027 0.1223650630 0.0523070307 0.0839147774
-0.4970258799 0.8536394900 -0.4126465566 0.1215511293 0.0513626476 0.0841578987
-0.3088326936 0.8290434059 0.6241779272 0.1227043362 0.0514603651 0.0844996099
0.3053622914 0.9246819150 0.2448478993 0.1223650630 0.0505339110 0.0839147774
-0.4644125012 1.1558179793 -0.5564185441 0.1226237231 0.0514204362 0.0832388305
-0.2980839126 0.9825615461 -0.4625547789 0.1223630798 0.0521899321 0.0835126879
-0.4562945591 0.9044694978 0.6247162809 0.1222694821 0.0520383871 0.0841630736
-0.1810605030 0.9911739031 0.3364761100 0.1223650630 0.0523070307 0.0839147774
0.1004207255 0.9911739031 -0.0408167763 0.1223650630 0.0523070307 0.0839147774
0.0209383209 1.6942158577 -0.5619758310 0.1222762705 0.0507805608 0.0840478376
-0.4511872616 0.1034811398 -0.6067438015 0.1231607425 0.0513985595 0.0836210592
-0.1330282661 1.2703212087 -0.5004700922 0.1230704402 0.0514531760 0.0843194388
-0.1331717966 1.0787134629 -0.5006529886 0.1231880512 0.0515242489 0.0840492322
-0.4938725425 0.8759851918 0.2001549939 0.1215245573 0.0514902511 0.0839623334
-0.3794584345 0.9911739031 0.4195151223 0.1223489649 0.0523066450 0.0839170559
-0.4958012863 0.9441388839 0.5214041105 0.1214829032 0.0514484631 0.0839528259
-0.0639818314 0.8844328340 0.5443401938 0.1223727619 0.0512881030 0.0830710943
-0.0678751820 0.9911739031 -0.3293539244 0.1223649886 0.0523067886 0.0839011457
0.4946513667 0.8553719175 0.0244387880 0.1232131586 0.0514219797 0.0839840275
0.4269869218 0.9911739031 0.5205082170 0.1223933434 0.0523060182 0.0839381950
0.4440176203 0.8285848674 -0.0825340464 0.1215226592 0.0512173883 0.0839206189
0.4338383343 0.7987904715 -0.4220921744 0.1216047635 0.0511659679 0.0841238220
-0.4977511337 1.5389615026 -0.5411470313 0.1215310709 0.0515145588 0.0839086158
0.4948037442 0.8746346810 0.0540501456 0.1232143315 0.0515031656 0.0839828271
-0.4982378648 0.9334297676 0.0729610894 0.1215841173 0.0510802482 0.0839189079
0.3527661603 0.9428037957 -0.4801465846 0.1223785919 0.0514496511 0.0830340440
0.1737855339 1.1068779708 -0.5497439135 0.1230715830 0.0515920725 0.0834916534
-0.2871647357 0.9875040738 0.5854329792 0.1223660480 0.0522652356 0.0841206933
0.4920605171 1.9598169358 -0.5756952683 0.1231765605 0.0514532469 0.0839314802
0.3510851648 0.8708331444 -0.5470068000 0.1223624840 0.0514614166 0.0832445648
0.4860154715 0.9822836300 -0.3801100161 0.1229149730 0.0520927926 0.0838804879
-0.0083430051 1.7394304096 -0.5830107940 0.1223840283 0.0519769316 0.0833361056
-0.4512391546 0.9547784682 -0.4836805947 0.1227480790 0.0521325309 0.0839421029
-0.4331503905 0.9246819150 0.2864841778 0.1223572569 0.0505339535 0.0839148270
0.4455062775 0.3905235498 -0.5409658123 0.1215856342 0.0513452560 0.0840845660
-0.3238072975 0.7987904175 0.5639853084 0.1225092709 0.0507415043 0.0837049225
-0.4739150441 0.7987904175 0.1680011963 0.1221075555 0.0510363750 0.0838947624
0.3492414032 0.8155559981 -0.5469335879 0.1221553269 0.0512852004 0.0830929621
-0.0781693732 2.1546752568 -0.5724048130 0.1224563344 0.0508439073 0.0840161147
-0.2865183219 0.9911739031 0.0630870877 0.1223650630 0.0523070307 0.0839147774
0.4216338247 0.8246847940 0.4762499200 0.1217415996 0.0509794605 0.0836443758
0.3995776450 0.9595133706 0.6198030274 0.1224116668 0.0516755589 0.0847547317
0.4098872854 0.9911739031 0.1682844008 0.1223894753 0.0523065005 0.0839146480
0.0957384084 0.7987904175 0.6088514920 0.1222709441 0.0508947302 0.0843392711
0.1419178292 0.9911739031 -0.1230718383 0.1223650630 0.0523070307 0.0839147774
0.4492378202 1.6461756126 -0.5202597382 0.1221128128 0.0516745695 0.0844476672
0.2449959069 0.9911739031 0.3816920414 0.1223650630 0.0523070307 0.0839147774
-0.4471597027 0.9864137302 0.5932451380 0.1223200054 0.0522518015 0.0841720340
0.0070049265 0.9895319491 0.5706463038 0.1223656588 0.0522880202 0.0840243172
-0.4853641870 1.6985828573 -0.5876478096 0.1220122663 0.0513363026 0.0833641519
0.4920605171 0.6299059620 -0.5395962015 0.1231919813 0.0513597858 0.0838637444
-0.1338288164 1.4434559997 -0.5728634065 0.1230930111 0.0513785463 0.0835403663
-0.0870953596 0.9229087412 0.1076048346 0.1223654212 0.0522994515 0.0839902759
-0.4973402664 0.8259155554 -0.5060766744 0.1215502401 0.0512891899 0.0839503125
-0.4975534654 1.2237057140 -0.5233675675 0.1216003431 0.0515135428 0.0838014830
-0.0153305754 0.9911739031 -0.1777293563 0.1223650630 0.0523070307 0.0839147774
-0.4977235909 1.4637378957 -0.5566183233 0.1216275277 0.0514506449 0.0836196638
0.1467698125 1.1357506884 -0.5587679490 0.1223706945 0.0514669868 0.0832217740
-0.4963269241 0.8570551046 -0.2768039878 0.1215416768 0.0513808044 0.0841055881
-0.3146432210 0.9911739031 0.0629159231 0.1223650630 0.0523070307 0.0839147774
0.1279387770 1.4729276212 -0.5477138732 0.1215707754 0.0513984886 0.0839827712
-0.4119049334 0.9229087953 0.2268029241 0.1224362024 0.0522848170 0.0839912636
0.4503340081 0.9911739031 -0.2039991298 0.1224016762 0.0523062354 0.0839145788
-0.4953687745 0.8102152109 -0.0906100383 0.1215469217 0.0512126151 0.0840659713
0.0677136295 0.9246819150 0.2654858883 0.1223650630 0.0505339110 0.0839147774
0.0625837238 2.1541523248 -0.5690572703 0.1222879669 0.0508277391 0.0840900450
-0.1791200167 1.3071951502 -0.5374122686 0.1216100935 0.0515430590 0.0837596711
0.4455834126 1.6104119269 -0.5474446152 0.1219357677 0.0516733753 0.0837916715
0.0886452027 0.9056214192 0.6224377618 0.1223012591 0.0521223532 0.0841714099
-0.4921176585 0.2519478314 -0.5271410738 0.1216917634 0.0512948311 0.0842388354
-0.0991997234 0.8824323924 0.5444971167 0.1223793508 0.0512791603 0.0830741954
0.1737855339 2.1229876683 -0.5813685696 0.1231504584 0.0515448126 0.0840085692
-0.2392675344 0.9246819150 0.0589751194 0.1223650630 0.0505339110 0.0839147774
0.2620696922 0.9229088494 0.3492393464 0.1223653857 0.0523023984 0.0839785512
-0.1790652557 1.0627335241 -0.5224557913 0.1217942249 0.0517789557 0.0837315547
-0.0374672450 2.2240312482 -0.6210837340 0.1224031754 0.0515896406 0.0831837397
0.0296003385 0.9911739031 -0.1989296565 0.1223650630 0.0523070307 0.0839147774
-0.4512391546 1.1930958072 -0.5429307569 0.1228873762 0.0516092504 0.0834305659
-0.1762532803 0.9911739031 -0.3715077233 0.1223649531 0.0523066317 0.0838923164
-0.4975741356 1.2529384884 -0.5466116798 0.1216901561 0.0514397305 0.0835191660
0.1312143807 0.8009303034 0.6221848449 0.1222350978 0.0509282900 0.0845701153
-0.1302889079 0.9229087953 0.5849597752 0.1223657608 0.0522920549 0.0840604941
0.4435746382 0.8466674629 -0.1699851337 0.1214955455 0.0512931591 0.0839409451
0.4517332725 0.9911739031 -0.0237729692 0.1224018047 0.0523062319 0.0839145815
-0.4512391546 1.0552644312 -0.5249176403 0.1228601172 0.0517478995 0.0835438310
0.4421702875 2.1736841300 -0.6028070955 0.1218804889 0.0512208486 0.0836196673
-0.2313554852 0.9911739031 0.2546141131 0.1223650630 0.0523070307 0.0839147774
-0.2537131999 0.9246819150 -0.0393925533 0.1223650630 0.0505339110 0.0839147774
-0.0940286698 0.9911739031 -0.0186396246 0.1223650630 0.0523070307 0.0839147774
-0.0190337642 0.9246819150 -0.0822939270 0.1223650630 0.0505339110 0.0839147774
0.2108197263 2.1617735789 -0.5660261169 0.1221589849 0.0509860290 0.0842345861
-0.4450332357 0.6602808639 0.5975176055 0.1229136095 0.0512732132 0.0841058275
0.0108515785 0.8129285690 0.6228998723 0.1223604361 0.0509926419 0.0845165042
0.2373104358 0.9229087953 -0.2935259276 0.1224151652 0.0522913013 0.0840244910
0.1436268949 2.0368028402 -0.6103886325 0.1222525710 0.0514839494 0.0833155853
-0.2120357424 0.9246819150 0.3963298563 0.1223650630 0.0505339110 0.0839147774
-0.3842321346 0.9911739031 -0.0704995135 0.1223482920 0.0523066681 0.0839148661
0.4099194817 0.9229087953 0.2159334487 0.1222997599 0.0522856530 0.0839922175
-0.3488835371 0.9246819691 -0.1317792558 0.1223634052 0.0505339198 0.0839147863
-0.2134502389 0.9229087953 -0.5255910011 0.1218795501 0.0518148064 0.0835994777
0.2417316690 0.8946136626 0.5424408865 0.1222295807 0.0513631184 0.0830598740
0.4951447541 0.9032505862 0.1203251473 0.1232044889 0.0516134714 0.0839887892
0.4671405505 0.3633600735 0.6202834817 0.1222140588 0.0513768822 0.0846434117
0.1737855339 1.6102473202 -0.5638933731 0.1230572384 0.0514366514 0.0835950759
-0.1330855432 1.1681092565 -0.4990619532 0.1231383072 0.0514929196 0.0841974703
-0.4466847132 0.8264503381 -0.3708149903 0.1230628530 0.0509599633 0.0839658725
0.4911528270 0.7987904715 -0.0516821266 0.1230683249 0.0511017091 0.0840385057
-0.4970303712 0.9365438738 0.2999336541 0.1215385330 0.0512270323 0.0839192563
-0.2412228466 0.9246819691 0.0058763332 0.1223650630 0.0505339110 0.0839147774
-0.4974845815 1.1265405090 -0.5000794083 0.1215450466 0.0515728749 0.0840082997
-0.0248781387 0.9911739031 -0.2673631052 0.1223650586 0.0523070165 0.0839139786
-0.0559518608 0.9911739031 -0.2024447545 0.1223650630 0.0523070307 0.0839147774
-0.0637568774 0.9911739031 -0.2620977217 0.1223650630 0.0523070307 0.0839147774
-0.4509231448 0.7356469464 -0.5244003902 0.1228683799 0.0512360469 0.0835331551
0.4907108458 0.7987904175 -0.4655267341 0.1230651722 0.0510221395 0.0841822374
0.4874182255 0.7987904175 -0.1064402913 0.1229587540 0.0510559156 0.0840579231
0.1247795502 0.9246819150 -0.2612176009 0.1223650630 0.0505339110 0.0839147774
-0.2785436931 0.9229087953 -0.1675880293 0.1223401064 0.0522904990 0.0840168825
-0.0249927594 0.9246819150 -0.1787312274 0.1223650630 0.0505339110 0.0839147774
-0.4962413737 0.0000000000 -0.5631321896 0.1216112442 0.0513799391 0.0840265815
-0.4441314164 0.8699789431 0.1332095729 0.1232396543 0.0513369941 0.0838894901
-0.4945610006 0.8480251158 0.0663725641 0.1215240369 0.0513604977 0.0839844344
0.4542057266 0.5819420142 0.5546780534 0.1218517227 0.0513353682 0.0832848855
-0.4457945823 0.8375690237 -0.1950945440 0.1231335349 0.0511005681 0.0839429789
-0.2171855434 0.9911739031 0.5071554910 0.1223651579 0.0523066681 0.0839351798
0.0364233164 0.9911739031 -0.0404344527 0.1223650630 0.0523070307 0.0839147774
-0.4276523559 0.7987904715 0.5037856823 0.1229648926 0.0511303947 0.0834995837
0.4488492748 0.7987904175 -0.1245515794 0.1217413425 0.0510545468 0.0839375487
-0.4924240908 0.8423916947 0.4816479568 0.1215194498 0.0513755799 0.0838795313
0.1276844221 2.0436219482 -0.5826711910 0.1216781175 0.0516628332 0.0838468439
-0.1882580390 0.9911739031 -0.4008706890 0.1223649309 0.0523065236 0.0838862355
-0.4804619720 2.0771099279 -0.5399895902 0.1220082892 0.0514248203 0.0844968013
-0.4512391546 1.3141189095 -0.4971821804 0.1227190034 0.0519469349 0.0842306658
0.4512787643 0.5101920294 0.5635229817 0.1217434631 0.0513102315 0.0835398734
0.4815998521 0.5432160590 -0.5759449378 0.1228343218 0.0513991074 0.0833484988
0.4941781362 0.8354359554 -0.0675296949 0.1231865990 0.0513027578 0.0840263935
0.4157709442 0.9029644455 0.4763605778 0.1217508384 0.0513608772 0.0834252785
0.1737855339 1.4333870736 -0.5611827208 0.1230550123 0.0514894948 0.0835280325
0.2640699166 0.9911739031 0.4600046737 0.1223651260 0.0523068303 0.0839260358
0.3313225748 0.9911739031 -0.0167977770 0.1223671580 0.0523069855 0.0839147659
-0.4512391546 1.2221836716 -0.5543121533 0.1229179856 0.0515035167 0.0833215182
0.4978331671 0.5956186502 0.5882233368 0.1231408641 0.0513409739 0.0841232980
0.4433740204 0.8724799142 -0.2095852033 0.1214908494 0.0513419340 0.0839623529
0.3399811438 0.9246819150 0.4465004639 0.1223660835 0.0505339261 0.0839169113
0.1277279052 1.0841204823 -0.5522591157 0.1218160555 0.0514397854 0.0833156456
0.4721654626 1.2106140223 -0.4953880652 0.1226946940 0.0516789119 0.0842506267
-0.2199543930 0.9911739031 -0.2538299456 0.1223650630 0.0523070307 0.0839147774
-0.3231442713 0.9395661528 0.6238297211 0.1223677626 0.0513536428 0.0847712846
0.4920605171 0.5965859437 -0.5372227708 0.1231884067 0.0513410953 0.0839039809
-0.1798876127 2.1382693544 -0.6101708881 0.1215356961 0.0515403701 0.0836972342
-0.4920208533 0.0449860287 0.5619696074 0.1218243936 0.0513796111 0.0832591691
-0.3793918237 0.9246819691 -0.1469824122 0.1223612428 0.0505339314 0.0839147978
0.4567676274 0.9911268259 -0.2696430578 0.1224067500 0.0523050598 0.0839136887
0.4895746432 0.1936089986 -0.6085023656 0.1228863549 0.0514218131 0.0832578366
0.2019913900 0.9229087953 -0.0146727303 0.1223721147 0.0523053994 0.0839456421
-0.0799630956 0.9012651877 0.6232732939 0.1224506994 0.0521008887 0.0841990342
-0.4848134959 0.9848051090 0.2023357476 0.1218929469 0.0521547002 0.0839173076
0.0025271743 0.9911739031 -0.3848995714 0.1223649265 0.0523065865 0.0838897658
0.1277804968 1.6106309701 -0.5361611066 0.1217355896 0.0513364391 0.0843300172
0.4768432777 0.7237073373 -0.5590330410 0.1227924975 0.0513850208 0.0833881715
-0.4185158222 0.9229087953 -0.2998149615 0.1226136455 0.0522442879 0.0840231292
0.3327987182 0.9246819150 0.2602668789 0.1223656224 0.0505339136 0.0839147747
-0.1790652832 1.2766046147 -0.4958117034 0.1219430676 0.0519113413 0.0841196454
-0.3820300210 0.9246819150 0.0429878505 0.1223609849 0.0505339331 0.0839147987
-0.4931399294 0.8479323151 0.3425320859 0.1215198550 0.0513843878 0.0839127826
0.1542692718 0.8481990296 0.5430278867 0.1223346771 0.0511926817 0.0830867775
0.4135600103 0.9246818609 -0.3649398806 0.1223713159 0.0505339651 0.0839097932
-0.4950332843 0.8908574167 -0.0254140234 0.1215263428 0.0515300124 0.0840203312
0.4920604896 0.7252982645 -0.5249281380 0.1231719043 0.0512854442 0.0839054827
0.3062191036 0.9911739031 -0.4100079808 0.1223648910 0.0523065041 0.0838850032
-0.2643918788 0.9911739031 -0.1881795501 0.1223650630 0.0523070307 0.0839147774
-0.1581090786 0.9911739031 -0.2789652479 0.1223650444 0.0523069713 0.0839114360
-0.4948074234 0.9719635193 -0.0725156330 0.1216474345 0.0518393624 0.0839182403
-0.1472143061 1.9019535385 -0.5319708338 0.1225177251 0.0515418027 0.0847230983
0.4909602990 0.8480324751 -0.5502011000 0.1231706436 0.0514396391 0.0836095251
0.1199012024 0.9246819150 0.2636617958 0.1223650630 0.0505339110 0.0839147774
0.1512576626 0.9246819150 -0.1006378263 0.1223650630 0.0505339110 0.0839147774
-0.4435949573 0.8688788606 0.2391030900 0.1232387740 0.0513349098 0.0838756473
-0.4946339432 0.9676899152 0.3301844244 0.1215789345 0.0517346730 0.0839190320
-0.1796223318 1.8557491824 -0.5724649306 0.1216023822 0.0514101708 0.0837443904
-0.4920209073 0.8904883232 0.6188297266 0.1216652863 0.0515108122 0.0842991578
0.4455996189 0.4746278524 -0.5399670805 0.1215456104 0.0513563185 0.0839325387
-0.4949495204 0.9645611995 -0.4341893003 0.1215947729 0.0517024899 0.0837053002
-0.4978264026 1.9362146604 -0.5698224051 0.1215512516 0.0514562932 0.0839246723
0.1648817025 1.9734631610 -0.5376354777 0.1228432521 0.0514865479 0.0843733310
0.4799197228 2.1201143571 -0.5477776159 0.1228364957 0.0514287344 0.0844667221
0.4656959677 1.0822050494 -0.4878011715 0.1225246465 0.0518537681 0.0841654291
0.1063917397 1.9149692583 -0.5870436022 0.1217806871 0.0518583392 0.0836984621
-0.4978676897 1.7718346479 -0.5636025797 0.1215353742 0.0514767346 0.0838556288
0.4959846703 0.8695815497 0.2835396697 0.1232145780 0.0515097908 0.0839304163
0.1334735302 1.3265161376 -0.5001559760 0.1218236906 0.0515137839 0.0844091746
0.1003223271 0.7987904175 0.5807992643 0.1222636814 0.0509275232 0.0838513201
0.1267921971 0.9229087953 0.1826170689 0.1223654478 0.0522996332 0.0839918478
-0.4689511964 1.3714501758 -0.5689499141 0.1225060057 0.0513472605 0.0832318604
0.3881563694 0.9911739031 -0.0502693748 0.1223835576 0.0523066291 0.0839146790
-0.4228136134 0.9911739031 0.0446358553 0.1223371532 0.0523064278 0.0839149255
0.2652239489 0.9911739031 0.5123507999 0.1223651889 0.0523066397 0.0839367880
0.1678936566 0.9229089035 -0.3530432910 0.1224283927 0.0522978370 0.0840025380
-0.1023191187 0.9246819150 0.1681620280 0.1223650630 0.0505339110 0.0839147774
0.4464737873 0.8760110563 0.4023064789 0.1215439650 0.0512496591 0.0838883083
-0.1522546399 1.8020211878 -0.5953186303 0.1223962850 0.0515551313 0.0832112124
0.2674484516 0.9246819150 0.4754547814 0.1223650923 0.0505339269 0.0839183972
0.4699982502 2.2205228871 -0.6234014302 0.1225028610 0.0514133021 0.0833440696
-0.1328834102 0.8159584236 0.5446471137 0.1224030025 0.0509403535 0.0832162445
0.4440072856 0.8985095151 -0.0845812940 0.1214851072 0.0513911186 0.0839616268
-0.4621585478 1.0074021044 -0.5477934162 0.1226838460 0.0514680897 0.0832425620
0.3374423077 0.9229087953 -0.4969453350 0.1223590903 0.0520731624 0.0838677995
-0.4450332357 0.1582098406 0.5720944302 0.1231292377 0.0513428029 0.0838154508
0.4979918480 0.7270029879 0.5999658724 0.1230326887 0.0513716879 0.0843269550
-0.4973703527 0.9653675664 -0.5094273015 0.1216695373 0.0515059467 0.0837010526
0.4451533087 0.8942606939 0.1416399742 0.1214845380 0.0513830899 0.0839283817
0.4568096982 0.7987904175 0.1097247127 0.1220220699 0.0509174820 0.0839454364
0.3181545857 0.9229087953 -0.5227273224 0.1224660324 0.0518267714 0.0836106360
0.0304366561 1.8924275656 -0.5320298698 0.1222221363 0.0514597880 0.0844901246
-0.1547494690 0.9911739031 0.0492617508 0.1223650630 0.0523070307 0.0839147774
-0.4425272325 0.8034403653 0.4498641047 0.1232249454 0.0512109413 0.0838881549
-0.4885047543 0.7987904175 -0.2486418604 0.1217788883 0.0511087741 0.0840998822
-0.0443612301 1.8945576028 -0.5319301965 0.1225501475 0.0514917626 0.0844863213
-0.3434429694 0.9911739031 -0.2380359334 0.1223601364 0.0523069243 0.0839148040
0.0876418094 0.9911739031 -0.3960393599 0.1223649123 0.0523065475 0.0838875556
0.3956803049 0.9012764967 0.5414076852 0.1221106806 0.0513827858 0.0830760643
-0.2919947120 0.9229087953 -0.2354550398 0.1223838333 0.0522819933 0.0840208295
0.4976218892 0.6740989469 0.5725887378 0.1231913031 0.0513135579 0.0839754562
0.0520232030 0.9246819150 0.0371244265 0.1223650630 0.0505339110 0.0839147774
-0.1424577858 0.9843830409 0.6049312893 0.1223668938 0.0522301633 0.0842690343
0.4459706602 0.8273900888 0.3029857756 0.1216259753 0.0510337729 0.0838797069
0.1196950808 0.8696840369 -0.5460262489 0.1222893180 0.0514100555 0.0830946138
-0.1937244456 0.9229088494 -0.4119927835 0.1222784665 0.0522944584 0.0840322989
-0.4931151465 0.9070033683 0.3473488320 0.1215311950 0.0516405150 0.0839527222
0.4017158270 0.8817597887 0.4766257505 0.1218047173 0.0512774040 0.0833310965
-0.4953080620 0.8745050846 -0.0788046669 0.1215234943 0.0514540058 0.0840215768
-0.1333593732 0.8894282831 0.6234843830 0.1224969920 0.0520004060 0.0842452355
-0.3972732331 0.9884040526 0.5797748284 0.1223447608 0.0522749062 0.0840778060
0.4432844397 0.8945214568 -0.2272718398 0.1214867411 0.0513835828 0.0839784510
-0.4825420117 0.5468036936 0.5598185747 0.1218912784 0.0512814574 0.0835000775
0.0668285333 0.8151267330 0.6225673583 0.1223020029 0.0510544626 0.0845127310
0.1293107283 2.1051077732 -0.6142828076 0.1218522023 0.0515268846 0.0832669788
-0.4512391546 1.2477243215 -0.5329165919 0.1228419258 0.0517273615 0.0835783581
0.4522090998 0.9229087953 0.3437420149 0.1223348136 0.0522552999 0.0839887741
0.4372511083 0.7987904175 0.5623529860 0.1219821126 0.0512181880 0.0834125723
0.4920605171 1.6055142033 -0.5819795405 0.1230802429 0.0514120255 0.0835001954
-0.1542478304 0.8410636945 -0.5446438131 0.1224459953 0.0512141480 0.0831377059
0.1969795795 0.7987904175 -0.4682526999 0.1222849641 0.0507969276 0.0845006844
-0.3192186029 0.9229087953 -0.0733884352 0.1223776637 0.0522868437 0.0840106518
0.4922457939 0.8379650642 -0.4430444018 0.1231417905 0.0512198264 0.0841586408
0.4457328955 1.2424877529 -0.5643974746 0.1217925005 0.0514524047 0.0832760279
0.1805591817 0.9911739031 -0.0074868019 0.1223650630 0.0523070307 0.0839147774
0.0199039289 0.9882573030 -0.4355506333 0.1223641490 0.0522736987 0.0837446882
-0.0801025940 2.2412289080 -0.5519701610 0.1224268642 0.0516654911 0.0847238838
0.3704397822 0.9229087953 0.4742140630 0.1223653281 0.0523047841 0.0839663752
-0.4920209073 0.1211227214 0.5899234607 0.1216552947 0.0513533680 0.0837682379
0.1762516437 2.1884076034 -0.5503607277 0.1222378807 0.0512500696 0.0846466857
-0.1519098426 1.5630830299 -0.5818022720 0.1223731688 0.0513888774 0.0830846480
0.4430802774 0.8967439710 -0.2675730292 0.1214865620 0.0513877825 0.0839852855
0.0952688881 2.2410423315 -0.5529826921 0.1223002706 0.0516817817 0.0847293610
0.1752688673 0.9229087953 -0.0874802808 0.1223738861 0.0523052460 0.0839445055
0.2487761378 0.7987904175 -0.5109855988 0.1222473642 0.0508344202 0.0837429373
-0.2564163847 0.9229087953 0.4283181145 0.1223654026 0.0523008265 0.0839925234
-0.0749787533 0.9911739031 -0.0706981694 0.1223650630 0.0523070307 0.0839147774
0.1919363439 0.9911739031 0.5493212496 0.1223652297 0.0523065058 0.0839442990
0.4451723290 0.0896449461 -0.6065054960 0.1215364780 0.0514073950 0.0837275626
0.1407980668 0.8372679480 -0.5461096884 0.1222773042 0.0512183547 0.0831400367
0.4836505900 0.2394573291 0.5546780534 0.1225721138 0.0513696878 0.0831937010
0.4453732172 1.7500139341 -0.5839563349 0.1218467562 0.0514152844 0.0833837094
-0.1435977758 0.9242828984 -0.4755834850 0.1229825121 0.0517416963 0.0841486625
0.4806402149 0.7930962839 0.6202835358 0.1225084003 0.0513216832 0.0846288792
0.1396602391 1.7222375124 -0.5921036603 0.1221487220 0.0515281098 0.0831856147
0.2852294581 0.9911739031 0.2782497879 0.1223650630 0.0523070307 0.0839147774
0.2392146945 0.9229088494 0.4603490659 0.1223655196 0.0522991429 0.0840057491
0.4979430393 0.9355011482 0.1758875619 0.1231764701 0.0511782228 0.0839104288
0.4456914461 0.5573712006 -0.5504535293 0.1217575302 0.0513299531 0.0835769813
0.4438518779 0.8244903714 -0.1152560127 0.1215232053 0.0512104031 0.0839224506
-0.4326834093 0.9911739031 0.1722893019 0.1223341558 0.0523063631 0.0839149414
0.0839940438 0.8341769473 -0.5458851263 0.1223106451 0.0511409766 0.0831678268
-0.4409357645 0.9229087953 -0.2635662220 0.1226393026 0.0522411185 0.0840206459
0.4902249525 0.6823390721 -0.5649001691 0.1230896679 0.0514337036 0.0835161916
-0.4928843076 0.8682382360 0.3922164491 0.1215239802 0.0514776690 0.0839163590
-0.4424957392 0.8356164164 0.4560887460 0.1232310485 0.0512718967 0.0838669209
0.1673179193 0.9063659912 -0.4673936828 0.1223369254 0.0513861184 0.0847890282
-0.4967323257 0.7998914202 -0.3555925025 0.1215666521 0.0511634775 0.0841702902
-0.0158601353 0.9911739031 -0.2918475298 0.1223650311 0.0523069269 0.0839089394
0.3526822067 0.9911739031 -0.0731716926 0.1223733878 0.0523068498 0.0839147331
0.0988900125 0.9229087953 0.4696687665 0.1223657448 0.0522926267 0.0840521791
0.4568605903 0.8628943645 0.6202834817 0.1222240238 0.0516793818 0.0843234602
0.2188947917 0.7987904175 -0.4864837773 0.1222740346 0.0507658820 0.0841711253
0.3222898945 0.8650957759 0.6210497522 0.1221493719 0.0517420146 0.0843043132
0.3555268926 0.8626266225 0.5416771595 0.1222084017 0.0512686998 0.0830800255
-0.3374905073 0.9814763978 0.6098254950 0.1223580459 0.0521644444 0.0843401204
0.4239060129 0.8701866224 -0.5472439699 0.1220173676 0.0514270934 0.0831989335
0.1276844221 1.9432409070 -0.5627379347 0.1217244659 0.0517491797 0.0841097337
0.4512787643 0.4075717808 0.6103098457 0.1218353214 0.0512440064 0.0844701566
0.1279377317 1.4738364745 -0.5142033828 0.1217496371 0.0513780862 0.0844390392
0.0381043925 0.9911739031 0.3830157940 0.1223650630 0.0523070307 0.0839147774
-0.0465248847 1.7116468450 -0.5905995281 0.1226483659 0.0513526720 0.0834855973
0.4452320140 0.0656508077 -0.6189226904 0.1215747065 0.0514120396 0.0835852803
0.1070484075 0.9911739031 0.1777057765 0.1223650630 0.0523070307 0.0839147774
-0.2175684087 0.9911739031 0.3490583437 0.1223650630 0.0523070307 0.0839147774
-0.4954405805 0.8326984093 -0.1045591248 0.1215398265 0.0512963205 0.0840571243
-0.4874119221 0.7987903634 -0.4500006819 0.1218516598 0.0510856376 0.0841655098
-0.4934239060 0.9513692387 0.5716657608 0.1215181102 0.0515071179 0.0840495797
-0.4821074971 0.7987904715 0.5108585991 0.1218505356 0.0511816768 0.0838472153
0.3498220440 0.9246819150 -0.2211434355 0.1223669931 0.0505339216 0.0839147668
-0.3247698293 2.2230470719 -0.6194059045 0.1225883139 0.0516245418 0.0832221552
-0.4595013578 0.7987904175 -0.3783312145 0.1226305904 0.0508918905 0.0840257259
-0.4349093873 0.9911739031 -0.1350115812 0.1223339856 0.0523063587 0.0839149441
0.2356135461 0.9229087953 0.1173777038 0.1223652208 0.0523058480 0.0839454479
0.4446503447 0.9229088494 -0.4714125304 0.1220156813 0.0522251817 0.0840353194
0.0253267212 0.8995113862 -0.5456532599 0.1223443193 0.0515111358 0.0830827108
-0.1821428915 0.9229087953 -0.2130957019 0.1223263035 0.0523010739 0.0839784856
-0.4973403205 0.1486319889 -0.5383352988 0.1215288296 0.0513369525 0.0841755226
-0.4201430575 0.9229087953 0.0728663552 0.1224985107 0.0522713271 0.0840004989
0.4707271026 0.0637504384 0.5546780534 0.1221234515 0.0513757829 0.0834057245
-0.0242346869 0.9897006685 0.5697201883 0.1223655985 0.0522899165 0.0840162965
0.0097151054 1.9149692583 -0.5467933315 0.1222982333 0.0521862262 0.0840222143
-0.4882114705 0.7987904175 -0.3094814612 0.1217998262 0.0511020469 0.0841198626
-0.3578505943 0.9229087953 0.2845193555 0.1223392260 0.0523022370 0.0839849770
-0.2097675039 0.9246819150 -0.3427707176 0.1223650426 0.0505339296 0.0839106327
0.1526193538 1.4304530499 -0.5757154518 0.1224914652 0.0514088542 0.0831864499
0.4454942371 1.5792561448 -0.5630006446 0.1218776971 0.0515733501 0.0835084112
-0.4866908342 0.9831572035 0.4844200255 0.1218293415 0.0521145027 0.0839383501
0.3231313656 0.9246819150 0.1139658128 0.1223650630 0.0505339110 0.0839147774
0.4724435410 0.4368392942 0.5546780534 0.1223253248 0.0513520257 0.0831978262
-0.4337200743 0.9911739031 -0.1644619909 0.1223343677 0.0523063675 0.0839149432
-0.4920209073 0.0624224550 0.5879263197 0.1216901667 0.0513682923 0.0836891089
-0.4505371145 0.6690913227 -0.5007901606 0.1231734327 0.0513233207 0.0840509317
0.3365502698 0.9911739031 0.2301466653 0.1223682857 0.0523069606 0.0839147606
0.3220742476 0.9229087953 0.0842366589 0.1224006274 0.0522981119 0.0840006319
0.4547114239 0.9246819691 -0.3975302893 0.1223741857 0.0505339872 0.0839081752
-0.3052188416 0.9911739031 0.3472031374 0.1223650630 0.0523070307 0.0839147774
-0.3643896230 0.9911739031 0.3532479125 0.1223532939 0.0523067762 0.0839148403
0.0700654014 0.9229087953 -0.3206626449 0.1223690942 0.0523062452 0.0839273267
-0.1633603659 2.2330299609 -0.6209867666 0.1225252272 0.0516905622 0.0831994468
-0.2258979531 0.9911739031 0.1698374639 0.1223650630 0.0523070307 0.0839147774
-0.3448129056 0.9229087412 -0.5409082382 0.1224342874 0.0516000781 0.0833567749
-0.3007332300 0.9229087953 -0.2664492996 0.1224080993 0.0522774329 0.0840225990
