0.1325196339 0.4769230329 0.0350947583 0.0384615503 0.0153846140 0.1153515201
-0.3909672408 0.1384615257 0.1891651595 0.0384615503 -0.0153846140 0.1153515201
0.1130382203 0.5854941152 -0.2538792150 0.0382501811 0.0001268308 0.1307286572
0.3791796265 0.1585073700 0.4123204004 0.0403586270 -0.0058715072 0.1293154265
-0.4552294195 0.8044781411 -0.0791152004 0.0243494593 0.0049455688 0.1137033664
-0.1960984896 0.9410624824 -0.3262268853 0.0355476429 0.0139335372 0.1210003658
-0.0714917626 0.1384615257 0.2219150487 0.0384615503 -0.0153846140 0.1153515201
0.3531090136 0.6597015391 -0.0716756780 0.0242798131 0.0024986613 0.1207350735
0.4666045877 0.1942929667 -0.0373578350 0.0530327643 -0.0039068612 0.1133824126
0.1767980452 0.5533205489 -0.4026387859 0.0420436423 0.0000000000 0.1004708292
0.2949206651 0.5317681663 -0.1768828683 0.0267527052 0.0000000000 0.1251430423
0.4679312183 0.7852962660 0.0473155418 0.0490509032 0.0108183836 0.1176733045
0.4784876635 0.2519770998 0.0139176833 0.0536149181 -0.0006692769 0.1130692896
-0.4557169425 0.2615652066 0.4076591854 0.0384615503 0.0000000000 0.1307361341
-0.4353076060 0.5261273976 -0.1678793614 0.0239304901 0.0000267846 0.1103126129
-0.0856003152 0.1384615257 0.0758091238 0.0384615503 -0.0153846140 0.1153515201
0.4230768994 0.6850080598 0.3262315776 0.0237054594 0.0041785996 0.1164581816
0.1344365876 0.5731151317 -0.2538792150 0.0365430428 0.0001637231 0.1305484418
0.2354273937 0.5580203793 -0.3784732035 0.0441752575 0.0000000000 0.1010672599
0.3765900883 0.4933245852 0.0370966197 0.0234453055 0.0000000000 0.1186974429
-0.2462048080 0.4769230329 0.2825171662 0.0384615503 0.0153846140 0.1153515201
0.3676476584 0.6821070140 -0.3093084561 0.0489735339 -0.0001974461 0.1044258750
0.3572040747 0.1384615257 0.3232383163 0.0384615503 -0.0153846140 0.1153515201
-0.4293622219 0.2781524974 0.4076591854 0.0384615503 0.0000000000 0.1307361341
-0.3205398166 0.6222365733 -0.3410316531 0.0297607203 -0.0001004769 0.1026815213
-0.4894404471 0.2132906265 0.1394771025 0.0232718902 -0.0010721691 0.1134036895
0.3633872588 0.3840366876 0.4076591854 0.0427419499 0.0000000000 0.1300415188
-0.3592352745 0.8015819106 -0.1200239351 0.0500331954 0.0048529842 0.1237084117
-0.3611308897 0.4695785105 -0.0247401439 0.0533730412 0.0000000000 0.1191270890
-0.4670071569 0.6291897727 -0.0473888033 0.0234659671 0.0002300307 0.1119368897
0.4999999692 0.6840600138 0.2612460913 0.0538066566 0.0002708307 0.1149822740
-0.3590098899 0.1636828464 0.4076591854 0.0368660120 -0.0006829076 0.1305759033
-0.4302714218 0.1606223852 -0.1133261972 0.0267833052 -0.0094696760 0.1126347511
0.3664566431 0.7556569456 -0.0858689075 0.0249072285 0.0032310920 0.1218172734
0.3236035086 0.1384615257 -0.1554895780 0.0384615503 -0.0153846140 0.1153515201
0.3923076715 0.4796876942 0.1459076865 0.0231229517 0.0000000000 0.1162742585
-0.4241877301 0.6931855976 0.1989933586 0.0523477798 0.0062186917 0.1175836738
-0.0932106683 0.1384615257 0.2700595520 0.0384615503 -0.0153846140 0.1153515201
-0.3862448259 0.4957045389 0.0850374768 0.0536555335 0.0000000000 0.1175942891
-0.0047805688 0.1384615103 0.2819121355 0.0384615503 -0.0153846140 0.1153515201
-0.3191629398 0.4999332308 -0.3424084992 0.0299277049 0.0000000000 0.1025507521
0.2246906100 0.1384615257 0.2688303521 0.0384615503 -0.0153846140 0.1153515201
-0.1439731713 0.2661542216 -0.4135804464 0.0359744582 0.0003679230 0.1002231523
0.1000892677 0.4774617252 0.2264546329 0.0396233656 0.0153022140 0.1145260587
-0.4999999385 0.6629987234 0.1733514378 0.0231410902 -0.0005155692 0.1147613048
0.2478629464 0.7120180574 -0.2270987867 0.0310895356 0.0010209230 0.1287641804
-0.0531735489 0.1384615257 -0.3187919167 0.0384434888 -0.0153719524 0.1152070124
-0.0826945616 0.7994995570 -0.2722407056 0.0387553657 0.0016123845 0.1306358418
0.1412696639 0.9352953137 -0.2968668880 0.0389717195 0.0088586300 0.1278517497
0.0961420065 0.1384615257 -0.3146926710 0.0384615503 -0.0153846140 0.1153515201
-0.4917402469 0.5660105324 0.1509762399 0.0232523363 -0.0004273538 0.1131895819
-0.3934554252 0.2328074400 0.4076591854 0.0384615503 0.0000000000 0.1307361341
-0.1707507535 0.6167658969 -0.2456802004 0.0424269807 0.0008891845 0.1301457034
0.4846153860 0.4888545241 0.1265555037 0.0537698104 0.0000000000 0.1138206895
-0.0029519536 0.7677977291 -0.4331724292 0.0378040888 -0.0009824768 0.1000420446
-0.4999999385 0.2720853441 0.3340597153 0.0230769363 0.0000000000 0.1153515201
0.3989890555 0.1384615257 -0.0358329890 0.0389937349 -0.0153040140 0.1152716894
0.0751797315 0.2283542405 -0.4231099686 0.0409746116 -0.0002188461 0.1002896754
-0.2712336211 0.1298183572 -0.2297502326 0.0462890111 0.0027807690 0.1245407808
-0.4117288543 0.4155117001 -0.2263848791 0.0245636900 0.0000000000 0.1087773823
0.3627131357 0.4769230329 0.1574193162 0.0402811809 0.0149509986 0.1151695509
-0.0075851378 0.9846152937 -0.3869353104 0.0384615503 0.0153039217 0.1160070278
-0.2040154273 0.4769230329 -0.0830064616 0.0384615503 0.0153846140 0.1153515201
-0.4064003009 0.2040851504 0.4076591854 0.0384615503 0.0000000000 0.1307361341
0.4076922854 0.6077166054 0.3822835263 0.0235022901 0.0034692920 0.1162015200
-0.1425428176 0.4769230329 0.1094791360 0.0384615503 0.0153846140 0.1153515201
-0.1321592186 0.7165571800 -0.2567704917 0.0406568270 0.0013180614 0.1305004418
-0.3769230267 0.4859176782 -0.2974001802 0.0245582900 0.0000000000 0.1088161823
-0.2246822254 0.4494718354 -0.3815492494 0.0335418738 -0.0000919846 0.1007764907
-0.3579608439 0.8824278416 -0.3016833183 0.0269029514 0.0084666146 0.1103786744
0.4467597126 0.1672434153 -0.1102312898 0.0508815491 -0.0083315531 0.1119885358
-0.2252668100 0.2026927351 -0.3842266491 0.0327818893 -0.0022200459 0.1012461522
0.2901032501 0.4551187888 0.4076591854 0.0403171963 0.0064828148 0.1288293496
0.2652758986 0.4769230329 0.0374755888 0.0384615503 0.0153846140 0.1153515201
-0.1645706771 0.5082949223 -0.4062092163 0.0351790737 -0.0001811384 0.1003468446
0.3923076715 0.5257303207 0.1975035895 0.0230769363 0.0000000000 0.1153515201
0.2076075193 0.1525817090 -0.3744555270 0.0410976116 -0.0127818142 0.1073635824
-0.1907883209 0.1384615257 0.2769042437 0.0384615503 -0.0153846140 0.1153515201
0.3109254790 0.5609505328 -0.3484164678 0.0465225188 0.0000000000 0.1022932598
0.1509604784 0.8561183364 -0.2717549365 0.0364864736 0.0024055229 0.1303430572
0.3392158302 0.8999036708 -0.2779832282 0.0440001806 0.0140271679 0.1180952122
-0.0554095487 0.3453319527 -0.4231099686 0.0382719657 0.0000000000 0.0999902446
0.4740876947 0.1883950903 0.4076591854 0.0384615503 0.0000000000 0.1307361341
-0.1617340928 0.3078318947 -0.4077253547 0.0373489042 0.0003368615 0.1000564292
0.1983001048 0.7683074829 -0.2538792150 0.0340338430 0.0012459230 0.1299902418
-0.2125866111 0.8356995690 -0.2519286767 0.0447984882 0.0014305537 0.1292079650
-0.3822614878 0.8159338016 -0.2946946266 0.0269014437 0.0000571846 0.1053245364
0.3056411564 0.7063744733 -0.1797288373 0.0271755975 0.0011563076 0.1255785346
-0.3967144403 0.6545364934 -0.2450656774 0.0241682593 -0.0009839691 0.1099616898
0.4663635262 0.5038525689 -0.0374460042 0.0536839950 0.0000000000 0.1132738126
-0.0930868068 0.9692428336 -0.3644196817 0.0362575505 0.0148264140 0.1187625198
-0.2655771909 0.4333263908 -0.3679175583 0.0330979200 0.0000000000 0.1009390291
0.0682439168 0.1692680151 -0.4077440162 0.0400939501 -0.0072443070 0.1020285829
-0.3863536566 0.7738962516 -0.0550680641 0.0515116260 0.0051549534 0.1215300734
-0.4846153245 0.3325119078 0.0698570012 0.0231532902 0.0000000000 0.1138206895
0.4692307413 0.3706089043 0.0107277298 0.0533442566 0.0027330305 0.1134448434
0.0623121173 0.4588046346 0.4321029986 0.0384615503 0.0079803531 0.1276662574
0.2647049756 0.1384615257 -0.2685541829 0.0384615503 -0.0153846140 0.1153515201
0.4928824160 0.5673578707 0.1998303431 0.0534379489 -0.0029274767 0.1135898280
-0.1444050328 0.7858113121 -0.4231099686 0.0357923813 -0.0014916768 0.1002765061
0.2573534686 0.1384615257 0.4041171550 0.0388687041 -0.0144173371 0.1194028582
-0.2687721752 0.1384615257 -0.2966181342 0.0383719811 -0.0153547832 0.1151902894
-0.2197146413 0.1384615257 -0.2025842505 0.0384615503 -0.0153846140 0.1153515201
-0.2741278362 0.2190674721 0.4230437994 0.0362858428 0.0000000000 0.1305815033
0.4886780934 0.3953298712 0.3882118334 0.0523783798 0.0016675845 0.1213372119
0.4579436347 0.6788048912 -0.0682583245 0.0534747951 -0.0006455384 0.1120699204
0.4659350801 0.4706852950 -0.0395883887 0.0536738258 0.0000000000 0.1132171972
0.1157556509 0.4769230329 0.1809957602 0.0386882734 0.0153678909 0.1150114432
-0.3813608725 0.7931368806 -0.0757727545 0.0496572877 0.0070068763 0.1226621502
-0.1244833270 0.2454582543 0.4384284134 0.0384615503 0.0000000000 0.1307361341
-0.1982716125 0.4769230329 0.1682021614 0.0384615503 0.0153846140 0.1153515201
-0.4554232657 0.7973260649 -0.0176262368 0.0303377049 0.0125301373 0.1178678276
-0.2548410534 0.1384615257 -0.1124684435 0.0384615503 -0.0153846140 0.1153515201
0.1792142604 0.1384615257 0.2519830614 0.0384615503 -0.0153846140 0.1153515201
0.4536471735 0.1384615257 0.2682117522 0.0432164422 -0.0146250602 0.1153080278
-0.0019810921 0.2602500683 0.4384284134 0.0384615503 0.0000000000 0.1307361341
-0.1871966289 0.9640223879 -0.3911459716 0.0336216892 0.0129767988 0.1091533361
-0.2359666244 0.7455074543 -0.3935882021 0.0327062431 -0.0002334307 0.1010915522
-0.2734291286 0.9230641609 -0.3594786822 0.0302256434 0.0090768915 0.1065311979
0.3424991222 0.3750211192 0.4171788461 0.0421831653 0.0000000000 0.1302503034
-0.0276620898 0.9729366948 -0.4347885676 0.0381015503 0.0089133684 0.1038644750
0.4999999692 0.2269453483 0.3084629177 0.0537835643 -0.0004748307 0.1152515509
0.3707742427 0.7095358576 -0.0477053571 0.0240511209 0.0017829075 0.1202696735
0.0251643669 0.7178568260 -0.4297585680 0.0398919963 -0.0013133999 0.1001426600
0.1279963574 0.4769230329 -0.2230977871 0.0392313195 0.0146411986 0.1115026436
-0.2700666828 0.6081094054 -0.3664210816 0.0317746740 -0.0013315383 0.1016011214
0.0403753809 0.1384615257 0.3729992656 0.0384615503 -0.0153846140 0.1153515201
-0.4622970035 0.5698326243 -0.0662294785 0.0233765055 -0.0004421230 0.1125089512
0.0763273622 0.4769230637 -0.1362823182 0.0384615503 0.0153846140 0.1153515201
-0.1301076957 0.4771435560 0.3198603936 0.0365004736 0.0152543063 0.1152298894
-0.0556160103 0.9846152937 -0.4205534766 0.0371299504 0.0145847525 0.1108670436
0.4624922496 0.1538461396 0.3916241408 0.0459172111 -0.0123162296 0.1188727660
0.4832170631 0.7315521171 0.2422059546 0.0394575348 0.0150539986 0.1181505352
-0.4230768686 0.1338322184 0.4052327703 0.0441308267 0.0087433684 0.1205646889
0.0618296404 0.3811516571 0.4538130273 0.0393670425 0.0030151690 0.1293888727
0.3337990000 0.6421279253 -0.3292873773 0.0469973803 -0.0003754769 0.1025691828
-0.1535499243 0.1384615257 0.1801733449 0.0384615503 -0.0153846140 0.1153515201
0.2295520403 0.1384615257 0.4194944920 0.0393472425 -0.0139200910 0.1214242426
-0.0897433148 0.5264855668 -0.4205459689 0.0349252122 -0.0000399231 0.1003839523
-0.4124232389 0.0496886416 0.3922745715 0.0384615503 0.0000000000 0.1307361341
-0.1070096055 0.8430855837 -0.4348040137 0.0360592582 -0.0013004922 0.1002477984
-0.4623291573 0.4768946944 0.4076591854 0.0384615503 0.0000000000 0.1307361341
0.1011987753 0.6041722827 -0.2538792150 0.0380074119 0.0002724769 0.1307200725
0.3094739099 0.4769230329 -0.0188025598 0.0384615503 0.0153846140 0.1153515201
0.3454825835 0.7977631571 -0.1454714558 0.0267047206 0.0028645844 0.1248347500
0.2653870832 0.8091118330 -0.3865702797 0.0453415958 -0.0002847077 0.1017119060
0.4068663163 0.4311961140 0.4076591854 0.0384615503 0.0000000000 0.1307361341
-0.3203547089 0.5731603779 -0.3412167608 0.0299748280 0.0000000000 0.1025195828
0.1425698945 0.1384615257 0.0957816912 0.0384615503 -0.0153846140 0.1153515201
0.2359496090 0.1968153664 0.4238810916 0.0407249501 0.0002723384 0.1305660264
0.3409869993 0.8189912475 -0.3333857154 0.0471255649 0.0000000000 0.1026434598
-0.3970319326 0.1384615257 0.0503299723 0.0384615503 -0.0153846140 0.1153515201
-0.4802290634 0.2638333603 0.0164970677 0.0232573055 -0.0004320307 0.1133077665
0.1961204281 0.2056903964 -0.3961980480 0.0428576422 -0.0004209692 0.1006835984
0.4905644932 0.1994040431 0.2374048781 0.0532734105 -0.0039852919 0.1142337664
-0.3917814715 0.6868365366 0.0363238351 0.0530505182 0.0028679536 0.1192534582
0.3863692413 0.4813088786 0.0856594306 0.0232652286 0.0000000000 0.1175796738
-0.4755386946 0.4426537284 0.0699681551 0.0232444748 0.0000000000 0.1132112742
0.4846153860 0.2279514867 0.0752304623 0.0537232412 -0.0009154461 0.1138104741
-0.1720353380 0.4769230021 0.2350361245 0.0381347196 0.0153660601 0.1152861509
0.4609270190 0.3630787511 -0.0646286325 0.0535030566 0.0005174615 0.1123026435
-0.0703065474 0.9846152937 -0.4015900322 0.0361271197 0.0148192756 0.1134698126
0.3317747386 0.4417112977 0.4109713698 0.0396010117 0.0045151996 0.1299991649
0.1805762295 0.9238494070 -0.2866387505 0.0384674426 0.0099269068 0.1268927806
0.3086337254 0.1384615257 0.4072598163 0.0387610272 -0.0137983064 0.1220509810
-0.0618910866 0.8393052764 -0.2802018280 0.0388585656 0.0017165998 0.1306194418
0.3863448874 0.1691230152 -0.2503124154 0.0509076568 -0.0065321994 0.1091263515
0.4743389101 0.1589543084 0.2486800770 0.0504540877 -0.0091999068 0.1152083048
-0.1806007218 0.1384615257 0.0238336516 0.0384615503 -0.0153846140 0.1153515201
-0.4539306043 0.7895200810 0.0188094213 0.0360144736 0.0142665679 0.1190400275
-0.1443041559 0.3330549077 -0.4077253547 0.0371476735 0.0005251692 0.1001119677
0.1455787250 0.1384615257 0.3364031920 0.0384615503 -0.0153846140 0.1153515201
0.3214650011 0.3485765832 -0.3431466991 0.0456685342 0.0000000000 0.1017807368
0.4846153553 0.4781290020 0.3378707765 0.0535289489 -0.0016430768 0.1173141046
-0.1046003750 0.1384615257 -0.0749071854 0.0384615503 -0.0153846140 0.1153515201
-0.2661834370 0.1384615257 0.2285116481 0.0384615503 -0.0153846140 0.1153515201
0.1759358761 0.9475941279 -0.4113449082 0.0446280882 0.0065413071 0.1031444597
-0.3071076793 0.5441202729 -0.3503253754 0.0307219818 0.0000000000 0.1021280752
-0.4743433408 0.2608428682 -0.0129316680 0.0233719209 -0.0005062153 0.1126169819
-0.3859839336 0.1775327221 -0.2594439530 0.0256699976 -0.0052649995 0.1087307823
-0.2157554570 0.8531017366 -0.4036937550 0.0329507200 -0.0001639846 0.1009929214
0.4826576478 0.6451822174 0.0440245575 0.0534661181 -0.0018109691 0.1131437049
-0.2349243629 0.9479223740 -0.3710228350 0.0308559664 0.0114603989 0.1085201054
-0.4623352035 0.3129931865 -0.0660766170 0.0234849671 0.0000000000 0.1118375666
0.3907823178 0.7453184697 -0.2746001823 0.0510398107 -0.0010986614 0.1065671671
-0.4999999385 0.6867219674 0.2130436496 0.0230769363 0.0000000000 0.1153515201
0.2950211266 0.1384615257 0.1617009005 0.0384615503 -0.0153846140 0.1153515201
-0.2927495114 0.1384615257 0.2109016498 0.0384615503 -0.0153846140 0.1153515201
0.3397789379 0.3323065539 0.4108108621 0.0406847347 0.0044495381 0.1298053957
-0.0655465324 0.4866299089 0.2505158153 0.0376557042 0.0152807524 0.1140909664
-0.3847987952 0.1771095067 0.4076591854 0.0380500734 0.0000000000 0.1307020726
-0.3923076407 0.5470212572 0.3605152821 0.0535070874 0.0021082767 0.1160992739
-0.4812326325 0.5795936696 0.0725307702 0.0233458440 -0.0016518306 0.1132467511
0.2554478380 0.1384615257 -0.1234398578 0.0384615503 -0.0153846140 0.1153515201
0.0251078746 0.2957063573 -0.4231099686 0.0384615503 0.0000000000 0.0999669062
-0.4999999385 0.2971009264 0.3230349933 0.0230769363 0.0000000000 0.1153515201
0.2310147633 0.4769230329 0.3833022338 0.0384615503 0.0153846140 0.1153515201
-0.3663026123 0.5297927972 -0.0040532689 0.0534156105 0.0000000000 0.1189608429
-0.1316686648 0.4769230329 0.0122851450 0.0384615503 0.0153846140 0.1153515201
-0.3386433687 0.4845958630 -0.0996693370 0.0526109336 0.0000000000 0.1212979811
0.3849867337 0.5498602723 0.0787469543 0.0232955671 0.0000000000 0.1177837968
0.4944099697 0.4233264840 0.2412476931 0.0537585181 0.0000000000 0.1137136587
-0.0861142074 0.8445211374 -0.4377451365 0.0369131812 -0.0007375845 0.1001057061
0.0805643772 0.4197539613 0.4384284134 0.0384615503 0.0017416614 0.1304535033
0.1208643273 0.9692306798 -0.3631198357 0.0405457193 0.0149400602 0.1182822275
-0.1567306163 0.4769230329 0.1357451336 0.0384615503 0.0153846140 0.1153515201
0.0446866420 0.4085529777 -0.4231099686 0.0386973195 0.0004715384 0.0999995215
-0.2575132685 0.1934404129 0.4230437994 0.0362858428 0.0000000000 0.1305815033
0.4692307413 0.4952190312 -0.0151607909 0.0537519797 0.0000160769 0.1136525818
0.3631112742 0.8429585837 -0.3138448095 0.0492658262 0.0011978460 0.1045472442
0.0018622152 0.7899067117 -0.4368123674 0.0382537503 -0.0008965076 0.1000083215
0.4900153855 0.6151014509 0.1423516253 0.0537009797 -0.0006805538 0.1134363203
0.3453208450 0.8436074298 -0.3312187925 0.0472184572 0.0014744306 0.1029466597
0.4030899936 0.4115198851 -0.2323145555 0.0521239490 0.0002232461 0.1082970746
-0.3398253686 0.8432436760 -0.3339664846 0.0282073205 0.0011477537 0.1040104442
-0.2604237144 0.9203377612 -0.2945548882 0.0370298735 0.0136727372 0.1221101503
-0.1867380289 0.5619189943 -0.3951255866 0.0332700585 -0.0015308306 0.1010107676
-0.2366972397 0.8647215356 -0.2462745542 0.0433359498 0.0043351842 0.1291013650
-0.3068771563 0.4769230329 0.3586749900 0.0384615503 0.0153846140 0.1153515201
0.4539259119 0.6282437266 -0.0932844145 0.0533871951 0.0005038307 0.1116621358
0.4712247719 0.1850368291 0.0483986032 0.0529626566 -0.0045224304 0.1134601049
-0.0660179785 0.1384615257 -0.2786751512 0.0384615503 -0.0153846140 0.1153515201
0.1132848819 0.4333160831 -0.4077253547 0.0408149655 0.0010898461 0.1002289061
-0.1518161860 0.4458211896 -0.4058379087 0.0352121967 0.0000092154 0.1003278907
-0.2444225005 0.1384615257 0.0739270778 0.0384615503 -0.0153846140 0.1153515201
-0.1445917713 0.2648107448 0.4384284134 0.0379728426 0.0000000000 0.1307013956
0.2241687178 0.2014177814 -0.3868485720 0.0436576267 0.0002674154 0.1008838445
-0.3604588590 0.3946766405 -0.3159574247 0.0299277049 0.0000000000 0.1025507521
-0.1061646364 0.1384615257 -0.3288011466 0.0383740734 -0.0152971370 0.1144767817
-0.4157424693 0.6808029679 0.1764540683 0.0528438567 0.0049185688 0.1172049046
-0.1325602031 0.4769230329 0.2324262632 0.0377333811 0.0153432909 0.1152058894
0.1192025890 0.2785070820 0.4384284134 0.0384615503 0.0000000000 0.1307361341
0.1852028137 0.1384615257 -0.1430537329 0.0384615503 -0.0153846140 0.1153515201
0.2583783915 0.1384615257 0.0639947864 0.0384615503 -0.0153846140 0.1153515201
-0.2455144696 0.4609334651 -0.3746051270 0.0334668277 0.0000000000 0.1008039061
0.4545301888 0.2009498584 -0.0972969218 0.0533865028 -0.0001171385 0.1116865512
0.2903773270 0.4005324707 0.4230437994 0.0389856579 0.0004621538 0.1306573495
0.4117473928 0.7564102686 0.0567948794 0.0254328438 0.0066135071 0.1190888736
-0.4455867435 0.1384615257 0.2541833227 0.0349025506 -0.0148066909 0.1153040432
0.0026032305 0.1384615257 -0.1250784423 0.0384615503 -0.0153846140 0.1153515201
0.0030502920 0.1384615257 0.1733588378 0.0384615503 -0.0153846140 0.1153515201
0.1608196313 0.4769230021 -0.0019446998 0.0384615503 0.0153846140 0.1153515201
0.3151768478 0.1384615257 -0.1861981905 0.0384615503 -0.0153846140 0.1153515201
0.0952439604 0.8244534777 -0.2692638290 0.0369030274 0.0014522922 0.1305575649
0.2863232659 0.6601820160 -0.3607175436 0.0455592573 -0.0010049691 0.1017845368
0.2402894394 0.9026923936 -0.2592643068 0.0362155967 0.0105171221 0.1261983037
-0.4619340804 0.1465495249 0.2654450601 0.0304351049 -0.0126411681 0.1153396586
-0.3947783328 0.7550174842 -0.0180833753 0.0514268260 0.0062033533 0.1207656735
-0.3419912915 0.3317277694 0.4090466776 0.0358360121 0.0020712460 0.1302524726
0.4692307413 0.3731979040 -0.0145172525 0.0536684258 0.0008343692 0.1132446895
0.4010174399 0.8283754620 -0.2672288907 0.0523853336 0.0029349997 0.1095756437
-0.1754445838 0.1384615257 -0.3568502978 0.0381851349 -0.0150858140 0.1125385358
-0.4189571459 0.7496055462 0.0771919544 0.0507888107 0.0079254454 0.1193346121
-0.0362678120 0.1384615257 0.3455783143 0.0384615503 -0.0153846140 0.1153515201
0.3516293829 0.6737638609 -0.3203721935 0.0472767341 -0.0004716615 0.1027630597
-0.3840847338 0.4613692497 0.3922745715 0.0295547665 0.0097671529 0.1223330272
0.2054328272 0.4296635757 0.4313009679 0.0406206424 0.0014341845 0.1304651649
0.4369492520 0.4632901880 -0.1507236707 0.0530261182 0.0000000000 0.1104030590
-0.4931047853 0.7204757027 0.0808757079 0.0232821825 0.0001237385 0.1130360434
0.2072701193 0.4769230329 0.2510597537 0.0384615503 0.0153846140 0.1153515201
-0.3595488437 0.7534737766 -0.3164124246 0.0293053665 -0.0002942461 0.1030370443
-0.2958094188 0.4643631725 -0.1684876998 0.0313299971 0.0124422450 0.1099577668
0.4178248537 0.3837453030 -0.2028448813 0.0525669798 0.0000000000 0.1092395976
0.1670482461 0.1384615257 -0.1686853306 0.0384615503 -0.0153846140 0.1153515201
-0.4095786545 0.8475491218 -0.2328353554 0.0243967670 0.0027996459 0.1105799821
0.4110965774 0.0207248750 0.3615053436 0.0297103819 0.0000000000 0.1039095212
0.4683761260 0.7580246377 -0.0265284514 0.0534869335 0.0004659538 0.1121875820
0.4235868071 0.3153544170 0.4076591854 0.0384709195 0.0010892614 0.1306585649
0.2256248715 0.4449904974 0.4242071378 0.0399271040 0.0060941533 0.1293265034
0.0070623070 0.1724421841 0.4384284134 0.0384615503 0.0000000000 0.1307361341
-0.1764047683 0.6858619675 -0.4077253547 0.0355241660 -0.0009321999 0.1002899523
0.2936611114 0.5186068752 -0.3570486363 0.0450043343 0.0000000000 0.1015033829
-0.4164420539 0.4767726175 -0.2122451419 0.0244032131 0.0000000000 0.1091347515
-0.2942446959 0.5403234732 -0.1778967297 0.0501159338 0.0000000000 0.1252143346
-0.0542610719 0.9535990504 -0.4384945826 0.0384382426 0.0000558923 0.0999756908
-0.0146437371 0.5600615945 -0.4231099686 0.0384615503 0.0000000000 0.0999669062
0.3831129954 0.8434425221 -0.2938431498 0.0504457338 0.0015229383 0.1064131979
0.4930657853 0.6959109973 0.1660541462 0.0537769489 0.0001155385 0.1139029818
-0.2024567813 0.3282596005 0.4332457369 0.0366331351 0.0040288150 0.1296603034
-0.4103754237 0.5180449368 -0.2304451249 0.0246097670 0.0000000000 0.1086747515
-0.1703957997 0.6747672454 -0.2494941385 0.0407072578 0.0011074614 0.1304383803
-0.0424481653 0.7082392731 -0.4232011686 0.0377575350 -0.0013897229 0.1000736446
-0.4999999385 0.4528061736 0.3870874335 0.0244273208 0.0000000000 0.1210718427
-0.3206860012 0.1384615257 0.3458374373 0.0384615503 -0.0153846140 0.1153515201
-0.1987103355 0.3729482425 0.4362941828 0.0365204428 -0.0004921538 0.1305472726
-0.1682453383 0.4769230329 0.1838236984 0.0384615503 0.0153846140 0.1153515201
-0.3085700331 0.7909448962 -0.3649787740 0.0298659203 -0.0003032615 0.1026823367
0.3408326455 0.7011826737 -0.3288030389 0.0468853187 -0.0007496153 0.1025063982
-0.0658234093 0.5500984261 -0.4231099686 0.0374094581 -0.0002104154 0.1000637985
-0.4999999385 0.7073039039 0.1289577804 0.0231743671 0.0002974615 0.1141437972
0.0553315641 0.7826073739 -0.4355958752 0.0405984270 -0.0014550768 0.1002119061
-0.4999999385 0.2767268821 0.3102123944 0.0230769363 0.0000000000 0.1153515201
-0.4083394085 0.7987311570 -0.2231610179 0.0236529824 0.0028349844 0.1123559204
0.0908118993 0.3973036249 0.4411247824 0.0388321503 0.0044710150 0.1299942880
-0.3327383385 0.8751951654 -0.3375100535 0.0287721204 0.0030706920 0.1038880596
0.0154701216 0.8821230724 -0.4436407821 0.0387827810 -0.0011890922 0.1000500908
-0.2227614102 0.4769230329 -0.1285160728 0.0384615503 0.0153846140 0.1153515201
0.2669392677 0.7313332710 -0.2143812341 0.0296195050 0.0005675384 0.1278273651
-0.4999999385 0.4804888018 0.1987603893 0.0231468440 0.0000000000 0.1139497664
-0.1913761977 0.2650605140 -0.4077253547 0.0353288121 -0.0004385538 0.1003200292
0.0985119909 0.4769230637 -0.0698675705 0.0384615503 0.0153846140 0.1153515201
-0.1113049897 0.1384615257 0.3069648870 0.0384615503 -0.0153846140 0.1153515201
-0.1171458507 0.4784283097 0.2663671523 0.0368976274 0.0152810909 0.1147747971
0.0877681765 0.3864915951 -0.4215335534 0.0421196884 0.0000000000 0.1004097984
0.1600179391 0.1384615257 -0.3064436871 0.0384615503 -0.0153846140 0.1153515201
-0.4711773873 0.5879081150 -0.0287614973 0.0233452132 -0.0005580769 0.1127048896
-0.4076922547 0.5896847763 0.3201239320 0.0528555028 0.0043143381 0.1160885662
0.0523076567 0.4820526786 0.2230525717 0.0386706426 0.0153249678 0.1140628895
-0.0289496589 0.6741679839 -0.2625589681 0.0384615503 0.0015816152 0.1306533956
0.4514495583 0.1449555559 0.1116645051 0.0447024113 -0.0136757064 0.1147715509
-0.4754876330 0.6832016600 0.0019177460 0.0233696902 -0.0001139077 0.1124822896
-0.4833533092 0.1693655998 0.1090414438 0.0239696747 -0.0049127842 0.1138222587
-0.4999999385 0.5944206836 0.4000253246 0.0251494900 0.0000000000 0.1206225812
0.3833076262 0.4179999922 -0.2771167360 0.0522853798 0.0020352306 0.1090559822
-0.4172171461 0.3936601175 -0.2099198806 0.0243768131 0.0000000000 0.1091935207
0.2119741343 0.5198143674 -0.3901998178 0.0441752575 0.0000000000 0.1010672599
0.0218472134 0.2606136990 0.4384284134 0.0384615503 0.0000000000 0.1307361341
-0.0853193614 0.4769230329 -0.0378539119 0.0384615503 0.0153846140 0.1153515201
-0.4538460966 0.1299560034 0.3807529572 0.0234847671 0.0000000000 0.1170791046
-0.0717917934 0.2460533311 -0.4231099686 0.0380987965 0.0001813692 0.0999830754
0.3982590402 0.1864226905 -0.2437837698 0.0513387183 -0.0041856458 0.1083861361
0.4955971389 0.4013271322 0.2471835387 0.0537571489 0.0000000000 0.1137006895
0.2797980819 0.1384615257 -0.2362874167 0.0337599507 0.0127457988 0.1211865657
0.4124674388 0.3474089064 -0.2135596649 0.0523845644 0.0000000000 0.1088333823
-0.4116499158 0.5534227951 -0.2266216175 0.0245726593 0.0003767077 0.1087745361
0.1092115284 0.1384615257 0.0186192367 0.0384615503 -0.0153846140 0.1153515201
-0.4652222801 0.3304266772 -0.0545283411 0.0234675209 0.0000000000 0.1119114897
-0.1350586798 0.5475235648 -0.4077253547 0.0354505352 -0.0006789076 0.1002964600
-0.4713230488 0.5734153778 0.0170388830 0.0233693517 -0.0022424306 0.1136544434
-0.3489653832 0.1384615257 -0.1842843599 0.0384615503 -0.0153846140 0.1153515201
0.1426726638 0.1384615257 -0.1397187179 0.0384615503 -0.0153846140 0.1153515201
0.4645376033 0.2640490987 -0.0465757265 0.0534320412 0.0002761846 0.1118296897
-0.2240245486 0.5921569915 -0.2279223097 0.0446355190 0.0005361846 0.1293810111
-0.2468510234 0.4769230329 -0.0926791530 0.0384615503 0.0153846140 0.1153515201
-0.2054859041 0.4769230021 -0.0606048944 0.0384615503 0.0153846140 0.1153515201
0.3183407552 0.7017096275 -0.3447088528 0.0471178110 -0.0006146461 0.1026513674
0.3029176797 0.0414252269 -0.2231099871 0.0384615503 0.0000000000 0.1307361341
0.2413146085 0.9477668510 -0.3646728048 0.0436689652 0.0131970911 0.1135698280
0.3818558109 0.4615384189 0.0744020470 0.0458083496 0.0122795527 0.1142334125
0.3860947336 0.5029645074 0.0842868461 0.0232703979 0.0000000000 0.1176119045
0.0174563369 0.3891604102 0.4492679662 0.0384615503 0.0062848763 0.1293585342
-0.2597581299 0.6729282610 -0.2165847415 0.0472959033 0.0011665537 0.1278245497
0.4303381449 0.1627063234 -0.1340001646 0.0500941031 -0.0091425222 0.1115794282
0.4942714159 0.1885428287 0.2986830570 0.0525679028 -0.0055757226 0.1148466586
0.2445834851 0.4657417416 -0.2148253725 0.0432039806 0.0115909682 0.1070277824
0.4761978176 0.1608132313 0.1830264677 0.0505170107 -0.0088866915 0.1149234125
0.2522448998 0.7122964112 -0.3878927411 0.0455694112 -0.0015790460 0.1018505521
-0.4924629238 0.1849259983 0.3606309898 0.0245770747 -0.0060840917 0.1153515201
0.3317486771 0.1384615257 -0.2226343256 0.0384615503 -0.0153846140 0.1153515201
0.2217465641 0.2434217775 -0.3853136029 0.0440681652 0.0003581077 0.1010349984
0.4303466218 0.3741113193 -0.1705315458 0.0528927028 0.0000000000 0.1100388437
-0.2704881443 0.6887756287 -0.3807822033 0.0311856587 -0.0013049691 0.1019018137
-0.3897456871 0.8106568329 -0.0931396452 0.0465866880 0.0108108913 0.1223355349
-0.2977856648 0.1384615257 0.0402373886 0.0384615503 -0.0153846140 0.1153515201
0.4999999692 0.5405709501 0.3370324381 0.0536385643 -0.0014551537 0.1162908277
0.2969606495 0.1384615257 0.0456192343 0.0384615503 -0.0153846140 0.1153515201
-0.4142918848 0.4736981101 0.4076591854 0.0423903038 0.0000000000 0.1298086726
0.2347478399 0.6437036944 -0.2260404330 0.0317389663 0.0009293384 0.1291270727
0.4850274937 0.4369242366 0.1943351436 0.0537691797 0.0000454923 0.1138503203
0.2947592343 0.5807967618 -0.1771249606 0.0268083514 0.0001944615 0.1251952115
0.1166059739 0.8562295517 -0.2716385980 0.0386041811 0.0022874459 0.1305228110
0.2203128412 0.1384615257 0.1633811157 0.0384615503 -0.0153846140 0.1153515201
-0.0220490133 0.4224727764 0.4384284134 0.0384615503 0.0013117691 0.1305232572
0.3387110918 0.8682800737 -0.3315033309 0.0479061802 0.0033375074 0.1040130135
-0.1473800633 0.4769230329 -0.0562152487 0.0384615503 0.0153846140 0.1153515201
-0.4883588934 0.4556683118 0.1340691184 0.0233215825 0.0000000000 0.1126960127
-0.0442707651 0.7967692341 -0.4379561211 0.0383950272 -0.0015256306 0.1000469061
0.4618951420 0.7144470725 -0.0524525259 0.0535500874 -0.0001168461 0.1124386435
0.4889476472 0.4316387909 0.2139360649 0.0537644873 0.0000960000 0.1138453818
0.2211759180 0.1384615257 0.0429301883 0.0384615503 -0.0153846140 0.1153515201
-0.4999999385 0.2272995944 0.1954416512 0.0232014748 -0.0004195077 0.1138869664
-0.3322213847 0.3976328556 -0.3300762080 0.0299277049 0.0000000000 0.1025507521
-0.4772279559 0.7565263456 0.1271193190 0.0347149506 0.0140216295 0.1188097967
-0.1968151049 0.6671179538 -0.4077252931 0.0352082275 -0.0009727076 0.1003619215
-0.2870938350 0.1384615257 -0.1211064273 0.0384615503 -0.0153846140 0.1153515201
-0.3164454016 0.4856687859 -0.1440652405 0.0518552568 0.0000000000 0.1229075040
-0.2992258031 0.1384615257 0.3860846644 0.0384615503 -0.0153846140 0.1153515201
-0.0865928997 0.1384615257 -0.1299994418 0.0384615503 -0.0153846140 0.1153515201
0.1513039091 0.1384615257 -0.0974069064 0.0384615503 -0.0153846140 0.1153515201
-0.0312580740 0.9397869133 -0.2930035037 0.0383775041 0.0070634147 0.1281925036
0.3398982609 0.6238530655 -0.1028052751 0.0244897362 0.0014698306 0.1214938734
0.3191704475 0.4617404189 -0.1386152718 0.0249750900 0.0000000000 0.1227099194
0.0546041334 0.4769230329 0.0057990995 0.0384615503 0.0153846140 0.1153515201
-0.2494198693 0.4769230329 -0.0046949611 0.0384615503 0.0153846140 0.1153515201
-0.4376263596 0.6613594620 -0.1486922709 0.0238833824 0.0000017846 0.1104402744
0.3298973234 0.8940600252 -0.3439898682 0.0499631185 0.0041400304 0.1063572902
-0.4767319252 0.1613473236 0.2416975392 0.0264732129 -0.0094546299 0.1151932278
-0.0369901966 0.4923076469 0.3100690868 0.0384615503 0.0153029986 0.1150524125
-0.4191814690 0.7153911186 -0.2020332814 0.0239570901 -0.0009450768 0.1104177821
-0.1535510012 0.2153631186 -0.4103878313 0.0356452121 -0.0010800461 0.1002855984
-0.0976178987 0.3810722879 0.4494788585 0.0368637197 0.0009829999 0.1305370880
0.2546383765 0.8010295414 -0.2225818333 0.0302468741 0.0013552153 0.1282610728
0.4846153553 0.6789228604 0.0767551545 0.0537575181 0.0000722308 0.1137081510
0.0891303764 0.1384615257 0.1862858367 0.0384615503 -0.0153846140 0.1153515201
-0.4773336021 0.4788467558 0.0789429543 0.0232704286 0.0000000000 0.1130378588
0.1674824615 0.1384615257 -0.0534760951 0.0384615503 -0.0153846140 0.1153515201
-0.0897186686 0.7108035652 -0.2673344446 0.0402530424 0.0015891075 0.1305424879
0.0127966450 0.1384615257 -0.1567040702 0.0384615503 -0.0153846140 0.1153515201
0.0626640250 0.9452693435 -0.4384945826 0.0397299040 0.0011267076 0.1002090446
-0.4793978788 0.5497787493 0.0892642918 0.0232783363 -0.0004605076 0.1130182434
0.1197698043 0.9728971256 -0.3924395099 0.0410273347 0.0149513371 0.1154585355
-0.0086489223 0.4905004163 0.2737388593 0.0384615503 0.0153214294 0.1139586587
-0.3287207235 0.4681505722 0.3966608018 0.0383731965 0.0091567530 0.1272209036
0.2644764217 0.6179547276 -0.2061094041 0.0294947973 0.0008190153 0.1275979344
0.2870738350 0.8905933486 -0.2395268625 0.0363424274 0.0113524297 0.1250187346
-0.4999999385 0.6626292927 0.2665646446 0.0230769363 0.0000000000 0.1153515201
-0.1708812150 0.2314933017 -0.4077253547 0.0352909198 -0.0005311846 0.1003325061
-0.3979583786 0.6938751821 -0.2683061675 0.0241098285 -0.0017031537 0.1101729360
0.1393812333 0.4769230637 0.0070938378 0.0384615503 0.0153846140 0.1153515201
-0.4692307105 0.4214708996 0.0185800521 0.0231578594 0.0000000000 0.1137773203
-0.4076922547 0.5732275163 0.4011848476 0.0519964721 0.0003274307 0.1213525503
-0.1524154475 0.2300252095 0.4384284134 0.0376962427 0.0000000000 0.1306817495
0.0337323815 0.6749114300 -0.2627076604 0.0384615503 0.0016024768 0.1306522264
0.2567877763 0.4769230329 0.3232389779 0.0384615503 0.0153846140 0.1153515201
-0.3897852717 0.6453798789 0.0569514486 0.0533668105 0.0027944767 0.1178888891
-0.0596325945 0.4769230021 0.4061550164 0.0379760426 0.0143917987 0.1201402735
-0.2062436271 0.3606706129 -0.3919754638 0.0331485046 0.0028065228 0.1012775983
-0.2993075878 0.0259496591 -0.2231099871 0.0385973349 0.0000000000 0.1307226879
0.0127070758 0.4769230329 0.0035188843 0.0384615503 0.0153846140 0.1153515201
0.2551728380 0.1384615257 0.3783894343 0.0384615503 -0.0153846140 0.1153515201
-0.4805818941 0.7117256112 0.3511838522 0.0334749508 0.0139660602 0.1179841045
-0.1673691692 0.1384615257 0.3740775885 0.0384615503 -0.0153846140 0.1153515201
0.4846153553 0.4896872779 0.1846669753 0.0537698104 0.0000000000 0.1138206895
-0.4091533776 0.7016200737 0.1226571041 0.0531174259 0.0038795843 0.1178507814
0.0871869612 0.3328575385 0.4384284134 0.0384615503 0.0000000000 0.1307361341
-0.4999999385 0.6859918444 0.1240703193 0.0232443055 -0.0011563691 0.1137150741
-0.3637654280 0.7637929295 -0.0939736913 0.0518119952 0.0032391382 0.1221713349
-0.0378038273 0.4769230329 -0.0624839250 0.0384615503 0.0153846140 0.1153515201
0.2287669635 0.1384615257 0.2893065041 0.0384615503 -0.0153846140 0.1153515201
0.0973814525 0.2628034527 -0.4167269231 0.0418965654 0.0000000000 0.1003596292
-0.3274067390 0.8129366788 -0.3495493447 0.0286309974 0.0001782000 0.1035682135
-0.4735092178 0.4665348800 0.0598210329 0.0232151363 0.0000000000 0.1134073357
-0.4049957318 0.7128486573 -0.2524533998 0.0238875363 -0.0017540921 0.1107881975
0.3272066467 0.8005254184 -0.3402758840 0.0474727033 0.0000000000 0.1028907367
0.2393519625 0.1384615257 -0.0937219529 0.0384615503 -0.0153846140 0.1153515201
0.4093564084 0.4820721401 0.4076591854 0.0384615503 0.0000000000 0.1307361341
-0.2714613596 0.7503339154 -0.3813408033 0.0323353816 -0.0003099230 0.1012453983
0.4700717720 0.2311687787 -0.0341561738 0.0534786258 0.0005493846 0.1121136281
0.4252922992 0.7184439337 0.2355799090 0.0248670900 0.0058455379 0.1164726892
0.3362863536 0.4769230329 0.3715223888 0.0384615503 0.0153846140 0.1153515201
-0.0852651460 0.6719009380 -0.2621055835 0.0394655964 0.0014481076 0.1306129187
-0.3561261210 0.1384615257 -0.1291688573 0.0384615503 -0.0153846140 0.1153515201
0.3949486405 0.6489557093 0.1194847659 0.0236821978 0.0036691535 0.1175336430
0.2824270816 0.1384615257 -0.1187301044 0.0384615503 -0.0153846140 0.1153515201
-0.3053099257 0.4769230021 0.0446574651 0.0384615503 0.0153846140 0.1153515201
-0.0769465775 0.4769230329 -0.0023146075 0.0384615503 0.0153846140 0.1153515201
-0.4076922854 0.1366515720 0.3623299589 0.0447608420 0.0127818604 0.1153515201
0.1993777508 0.1384615257 0.2742295824 0.0384615503 -0.0153846140 0.1153515201
0.1951777204 0.1384615103 -0.0764276929 0.0384615503 -0.0153846140 0.1153515201
-0.3501475215 0.4769230329 0.0762906776 0.0384615503 0.0153846140 0.1153515201
-0.0743285470 0.1384615257 0.1610452390 0.0384615503 -0.0153846140 0.1153515201
-0.0195800136 0.1384615257 -0.1418769792 0.0384615503 -0.0153846140 0.1153515201
0.0263149514 0.1384615257 -0.3150803632 0.0384615503 -0.0153846140 0.1153515201
0.4364199443 0.1422489253 0.0092834684 0.0444413805 -0.0138398603 0.1143457971
-0.2397940702 0.7216292718 -0.3918965869 0.0325451047 -0.0003790307 0.1011590137
0.1909970593 0.9645393110 -0.3801494341 0.0416828115 0.0142701064 0.1151942586
-0.2744429901 0.6279059267 -0.3676372968 0.0312611202 -0.0014154460 0.1018391060
0.4346017137 0.7483961155 0.1248925192 0.0299973049 0.0117691528 0.1185067660
-0.4999999385 0.6420188946 0.3640713433 0.0230769363 0.0000000000 0.1153515201
0.4986136463 0.6269636960 0.1853430521 0.0537518258 -0.0000944923 0.1136857510
0.4998440923 0.5959777911 0.3924304792 0.0522953952 -0.0018117383 0.1217799041
0.2784874666 0.7704614981 -0.2066824348 0.0289881050 0.0010971076 0.1273088267
-0.4538978043 0.1850031675 -0.0773309852 0.0246340131 -0.0056555072 0.1125631204
0.1664462769 0.4769230329 0.0519240183 0.0384615503 0.0153846140 0.1153515201
0.4796440173 0.1642594156 0.1395545333 0.0513238414 -0.0074123532 0.1144083971
0.3040892489 0.1384615257 -0.1496555939 0.0384615503 -0.0153846140 0.1153515201
-0.4999999385 0.6424768945 0.2470873080 0.0231033056 -0.0002682154 0.1149760278
0.1005325292 0.8585044592 -0.4305360141 0.0411941962 -0.0017116614 0.1003157677
0.4384615134 0.0358143659 0.3862027720 0.0538461643 0.0000000000 0.1153515201
-0.3938152713 0.7683542522 -0.0346028968 0.0514473799 0.0058438918 0.1210843042
-0.2173681030 0.8081775869 -0.2474286156 0.0448686266 0.0009416461 0.1292430265
-0.4999999385 0.7362515936 0.1274528421 0.0235880440 0.0034539689 0.1146652740
-0.3248783239 0.2507588076 -0.3414400069 0.0308924125 0.0001128000 0.1019810290
-0.3769230267 0.4672317107 -0.2901123194 0.0241628747 0.0000000000 0.1097707822
-0.2872087427 0.2164943954 -0.3602748360 0.0316883663 -0.0004311538 0.1015828599
0.1118766204 0.3840790876 -0.4094793545 0.0415601346 0.0000000000 0.1002839677
0.4401149132 0.1185235891 0.3768899575 0.0464374573 -0.0019939844 0.1034455212
-0.3039338181 0.4452274204 -0.3519122829 0.0309772125 0.0000000000 0.1019986752
-0.4858494013 0.2367016551 0.1215219965 0.0231532902 0.0000000000 0.1138206895
-0.0085387684 0.4769230329 -0.1389569487 0.0384615503 0.0153846140 0.1153515201
0.4945221851 0.2789520050 0.4071519547 0.0488063801 0.0009935230 0.1250279346
-0.4370100212 0.3538981212 -0.1659258847 0.0237810901 0.0002385231 0.1107818744
0.4067574548 0.6498977092 0.1572776239 0.0236282440 0.0036224612 0.1171888430
0.1129947896 0.8945837482 -0.4366969212 0.0413801808 -0.0008948922 0.1002910600
0.2707231442 0.7583232531 -0.3836778030 0.0457580419 -0.0009231999 0.1019539214
0.4990330001 0.5281443205 0.2643628448 0.0537526720 -0.0001850923 0.1137264433
0.1268098191 0.3412181223 -0.4077253547 0.0413579346 0.0000000000 0.1002435215
-0.4383296672 0.2256201023 -0.1619669620 0.0237344440 -0.0005365076 0.1111042436
-0.1513051553 0.4769230021 0.1547839319 0.0384615503 0.0153846140 0.1153515201
0.3499641831 0.3046419257 -0.3269919314 0.0475761187 0.0000000000 0.1030268290
-0.4934416006 0.7376102704 0.1965309126 0.0321629201 0.0126332296 0.1175632430
0.3580815669 0.1384615257 0.1347554260 0.0384615503 -0.0153846140 0.1153515201
0.3373695227 0.5762811622 -0.1022170598 0.0243667054 0.0001903846 0.1213980580
-0.4043808088 0.1384615257 -0.0808161695 0.0352824737 -0.0148017217 0.1146351202
-0.4080983469 0.1384615257 0.1724924995 0.0384615503 -0.0153846140 0.1153515201
0.2814609125 0.2441164544 -0.3626230204 0.0443190882 0.0002102615 0.1011281830
0.0498980877 0.4918828315 0.2820333817 0.0390354426 0.0152762294 0.1139723972
-0.4342324830 0.6210549581 -0.1588738392 0.0239701978 0.0006141230 0.1102470591
-0.0226372287 0.4683520491 -0.2470656310 0.0384615503 0.0125245681 0.1071362440
0.1869943674 0.2833840969 0.4359105982 0.0406372578 0.0000000000 0.1305815033
-0.1853298290 0.1687665844 -0.3993306785 0.0345222430 -0.0049023842 0.1014952752
0.3072220639 0.8882706103 -0.2399184779 0.0378087504 0.0131453065 0.1231394579
0.0538808566 0.6248707116 -0.4231099686 0.0384657503 0.0000000000 0.0999674292
-0.2008399353 0.1384615257 0.0945867067 0.0384615503 -0.0153846140 0.1153515201
-0.0185462291 0.9846152937 -0.4159513078 0.0384615503 0.0147787986 0.1116183666
-0.4082840239 0.6034236674 -0.2259133715 0.0247039823 0.0008551384 0.1085258284
-0.4076922547 0.0284050128 0.3831134339 0.0538461643 0.0000000000 0.1153515201
0.3859404105 0.7869699120 -0.0666137554 0.0253678746 0.0046893996 0.1217706734
0.0287640281 0.4832084169 0.2299867711 0.0384615503 0.0153214294 0.1139586587
0.2703587597 0.4769230329 0.0645245556 0.0384615503 0.0153846140 0.1153515201
0.4218733611 0.1384615257 0.2737733363 0.0384615503 -0.0153846140 0.1153515201
-0.2796425896 0.1871131520 -0.3632290819 0.0328250124 -0.0021560306 0.1013677522
0.2381199319 0.8759641499 -0.2488648770 0.0333684431 0.0046040765 0.1288739496
-0.0850471614 0.4187587613 -0.4228940610 0.0347340429 0.0000000000 0.1004253369
-0.4410423901 0.1397519717 0.0899135071 0.0332256892 -0.0143750448 0.1147600279
-0.0123019681 0.7392309779 -0.2692638290 0.0384615503 0.0014619691 0.1306664110
-0.2378867780 0.1384615257 -0.3202965474 0.0381645196 -0.0152549986 0.1142623818
0.1821234755 0.7542513765 -0.4101755083 0.0418207346 -0.0010822307 0.1004153830
0.3212881703 0.1201751889 -0.2290135866 0.0499613185 -0.0015748460 0.1252764269
0.3338693384 0.1905404440 -0.3322147770 0.0465325496 -0.0037431689 0.1029288136
0.4020640860 0.1384615257 0.2393554164 0.0384615503 -0.0153846140 0.1153515201
0.2744130208 0.1625636619 -0.3600056052 0.0445627805 -0.0074912916 0.1043091673
0.0080159531 0.3060219718 -0.4231099686 0.0384615503 0.0000000000 0.0999669062
0.2550464226 0.1384615257 0.0984976140 0.0384615503 -0.0153846140 0.1153515201
-0.0590441638 0.6858507521 -0.4231099686 0.0383110580 -0.0009426461 0.1000121215
-0.1843025984 0.3556060749 0.4384284134 0.0367028274 -0.0061243225 0.1292155650
-0.3562215825 0.8522429675 -0.3207344704 0.0277495051 0.0002386615 0.1043345673
-0.3652712432 0.4162261616 0.4076591854 0.0378220734 0.0006394769 0.1306655187
-0.4003721169 0.6266842191 0.1556738241 0.0534770104 0.0027245228 0.1172439661
-0.2789078204 0.3580739823 -0.3634740203 0.0324820893 0.0003998153 0.1011954137
0.1358732490 0.4769230637 0.2027917890 0.0386772426 0.0153708294 0.1153110740
-0.4558092041 0.2605628683 -0.0921806761 0.0235244132 0.0000000000 0.1116704743
0.3205910473 0.4769230021 -0.0638144018 0.0384615503 0.0153846140 0.1153515201
0.4076922854 0.6188133890 0.3073933793 0.0236823363 0.0041564304 0.1162646893
-0.3805363956 0.8421731069 -0.2964197188 0.0269402437 0.0007524153 0.1055231518
-0.4981656002 0.7258303022 0.1061797364 0.0234007055 0.0018933537 0.1139402279
-0.1156091586 0.4819763863 0.3376168842 0.0363680736 0.0152124755 0.1157920893
0.4999999692 0.6270848806 0.2308669556 0.0538029181 0.0000000000 0.1145384125
-0.1864812136 0.8833963646 -0.2630281219 0.0420762269 0.0038068612 0.1297963957
-0.1209880042 0.1384615257 -0.1372468873 0.0384615503 -0.0153846140 0.1153515201
-0.4725822487 0.1571976470 0.3816456494 0.0277704282 -0.0107141375 0.1170790277
0.0039209996 0.4847429860 -0.2538792150 0.0384615503 0.0000000000 0.1307361341
0.3313215540 0.1384615257 0.1967416972 0.0384615503 -0.0153846140 0.1153515201
0.3140083249 0.5237004901 -0.1482513479 0.0252148438 0.0000000000 0.1231295963
0.0688546244 0.9692306798 -0.3261607160 0.0398509040 0.0144779833 0.1201569043
0.1383742180 0.3667671969 -0.4077253547 0.0412356731 0.0000000000 0.1002211215
-0.4955056312 0.6030465905 0.1698032689 0.0231500132 0.0000000000 0.1138547972
0.4971833080 0.7239994255 0.2171297569 0.0524337490 0.0056968456 0.1152999970
-0.2108486113 0.1384615257 0.3659953585 0.0384615503 -0.0153846140 0.1153515201
-0.1890611979 0.4769230329 0.1454231327 0.0384615503 0.0153846140 0.1153515201
0.2180927799 0.8247893546 -0.2469455695 0.0315858125 0.0011351076 0.1290383496
-0.2366194705 0.9300080834 -0.3138954249 0.0368313966 0.0137242449 0.1220758426
-0.0726423471 0.4769230329 0.0644819556 0.0384615503 0.0153846140 0.1153515201
0.4999999692 0.4042618242 0.2712803519 0.0537389335 0.0001200769 0.1137581049
0.4999999692 0.6045855596 0.3358896228 0.0538461643 0.0000000000 0.1153515201
-0.3646453663 0.1384615257 0.2737558440 0.0384615503 -0.0153846140 0.1153515201
0.4486056663 0.7236100409 0.2819164432 0.0350447814 0.0144907217 0.1182780275
0.3297932157 0.4769230329 0.0952024451 0.0384615503 0.0153846140 0.1153515201
-0.0154327370 0.4803829864 0.2130342034 0.0384615503 0.0153214294 0.1139586587
-0.2182588106 0.1384615257 -0.2419093392 0.0384615503 -0.0153846140 0.1153515201
-0.4504899276 0.4195241613 -0.1134577203 0.0236083055 0.0000000000 0.1113728743
0.0074230455 0.4769230329 0.1678646230 0.0384615503 0.0153414755 0.1144006587
-0.0101093375 0.1384615257 0.1511304860 0.0384615503 -0.0153846140 0.1153515201
0.4996664462 0.5558846256 0.2624337065 0.0537217489 -0.0012717845 0.1139648279
-0.4862693243 0.4741488639 0.1236216732 0.0233517825 0.0000000000 0.1124941512
0.4692307413 0.4750437408 0.0149539448 0.0537520720 0.0000000000 0.1136525664
-0.4432081129 0.4047019319 -0.1425850253 0.0237645670 0.0000000000 0.1108362744
0.2972835418 0.1384615257 -0.3057349179 0.0414028116 -0.0145447679 0.1117402743
0.4604275421 0.7409267008 0.1928677745 0.0376829658 0.0149004909 0.1185641044
-0.4999999385 0.5437950267 0.2425799391 0.0231063517 0.0000000000 0.1147927048
-0.1341828030 0.6515190168 -0.4168438923 0.0355507813 -0.0007090461 0.1002650754
-0.2959657419 0.7848509429 -0.1950302051 0.0490823032 0.0001914923 0.1264247653
0.1156433278 0.8708717196 -0.4264805837 0.0414449039 -0.0016986306 0.1003681830
-0.0407067962 0.1432669406 -0.3865669259 0.0380962734 -0.0143065371 0.1107269667
-0.0340828738 0.8840389953 -0.4386167672 0.0371432273 -0.0009091999 0.1000744138
0.4999999692 0.3336382000 0.2891887502 0.0538461643 0.0000000000 0.1153515201
-0.4831110477 0.7337972092 0.2155958339 0.0379558273 0.0150479832 0.1184087968
0.1350475721 0.1384615257 0.4038137396 0.0384615503 -0.0153846140 0.1153515201
0.4755764330 0.1601918314 0.2065136656 0.0507080261 -0.0088070761 0.1151627817
0.1605991544 0.4769230329 0.3315067617 0.0391902579 0.0153335986 0.1152589663
0.4810210018 0.5583678100 0.0973795987 0.0536857797 -0.0004887384 0.1132345511
0.3923076715 0.5681584860 0.2384435395 0.0230769363 0.0000000000 0.1153515201
0.4846153860 0.2778876974 0.0697649397 0.0537584720 0.0000199077 0.1137211510
0.4737443563 0.3649540125 0.0503048030 0.0531535951 0.0039815535 0.1136289357
-0.1393890487 0.1384615257 -0.1569105932 0.0384615503 -0.0153846140 0.1153515201
0.2202393181 0.4769230637 -0.0746953085 0.0384615503 0.0153846140 0.1153515201
-0.0971220372 0.5616412251 -0.2538792150 0.0384615503 0.0000000000 0.1307361341
-0.4418202361 0.6802817680 0.4013350014 0.0495206877 0.0085183223 0.1206701350
0.4509244199 0.5564596409 -0.1087982746 0.0533241182 0.0000000000 0.1114048897
0.4076922854 0.0740720855 0.3859433413 0.0230769363 0.0000000000 0.1153515201
0.2266221483 0.2649880986 -0.3828758339 0.0441256421 0.0000714000 0.1010484907
0.4788786943 0.1735259378 0.0866682458 0.0529057336 -0.0048151226 0.1136374280
-0.2668844523 0.1384615257 0.0657581555 0.0384615503 -0.0153846140 0.1153515201
-0.0855673306 0.4769230329 -0.0774123236 0.0384615503 0.0153846140 0.1153515201
0.4230768994 0.7401380548 -0.2119748650 0.0528703644 -0.0012287999 0.1102652744
0.4115551005 0.1965914895 -0.2273604944 0.0517990260 -0.0029156151 0.1085900900
0.4999999692 0.3193356782 0.3076359639 0.0538461643 0.0000000000 0.1153515201
-0.4314700832 0.7292541942 -0.1671611769 0.0239084286 -0.0001149385 0.1103855360
0.0181859676 0.1384615257 0.3496396523 0.0384615503 -0.0153846140 0.1153515201
-0.0703132089 0.2837766507 -0.4231099686 0.0378753042 0.0002931230 0.0999930292
-0.3709969196 0.6097161591 0.0096705760 0.0532555335 0.0018347998 0.1189619506
-0.2921174500 0.7825579585 -0.3732050809 0.0316272586 -0.0002369384 0.1016668291
0.0473614879 0.4382035134 -0.4231099686 0.0392001656 0.0008766307 0.1000762908
0.1989473970 0.7808071895 -0.4098787237 0.0425090422 -0.0007324615 0.1005509369
