-0.2464878997 0.5079946862 0.1005563719 -0.0028502504 0.0046906201 -0.0024588750
0.4735759614 0.2441836751 -0.3374462365 -0.0012601337 0.0032917103 -0.0024876776
0.4549057905 0.3433802749 -0.4749576233 -0.0012817613 0.0034153289 -0.0025415414
0.0251752079 0.6186504956 -0.4466193457 -0.0028342229 0.0028545523 -0.0008997035
0.0453335012 0.5026352733 0.3368722293 -0.0028500275 0.0046895552 -0.0024227339
-0.1748098003 0.4958673781 0.3955113062 -0.0028457985 0.0046063452 -0.0019791755
-0.0101197052 0.9828633349 -0.4330291335 -0.0027335020 0.0022251674 -0.0028305584
-0.4488698630 0.2019854448 0.5230776274 -0.0022352636 0.0031403331 -0.0010396559
0.3797762403 0.0976040487 0.5235298940 -0.0028476876 0.0031272789 -0.0008831933
-0.0981171254 0.2324941216 -0.5307672330 -0.0028644191 0.0032583131 -0.0040808221
0.1392633873 0.4092483466 0.4664527053 -0.0028512158 0.0036603820 -0.0009886981
0.4804154573 0.1998744357 0.0056701177 -0.0012524535 0.0032158036 -0.0024968508
-0.4194248264 0.2497084607 -0.5265526063 -0.0028771365 0.0032969448 -0.0040758891
0.4773899561 0.2086318190 -0.2536671460 -0.0012536194 0.0032290823 -0.0024968236
-0.1866590110 0.1059589445 0.5277653705 -0.0028373133 0.0031358924 -0.0008836007
0.2279180824 0.5104658785 -0.0557679606 -0.0028503610 0.0046906522 -0.0024608492
0.4878841922 0.0681740244 0.4817044249 -0.0012581226 0.0030813535 -0.0026588286
-0.4799659812 0.2195789086 -0.1920318709 -0.0044458084 0.0032461971 -0.0024722804
-0.0548014876 0.2000581614 0.5195680967 -0.0028385641 0.0032848208 -0.0008951746
0.0391871295 0.8747719990 -0.4148301690 -0.0035342078 0.0030025537 -0.0010408090
0.0948443597 0.2616678028 -0.5286551238 -0.0028607258 0.0032922989 -0.0040765627
-0.4553609453 0.3903157033 0.4853935212 -0.0043312026 0.0034185540 -0.0024141749
-0.3988077955 0.3005805066 0.5043874391 -0.0027763226 0.0034370961 -0.0009245514
-0.4420931586 0.4223918235 -0.1255670578 -0.0044171037 0.0034297623 -0.0024748127
-0.4927892841 0.0115581969 -0.4370661528 -0.0025627616 0.0046422378 -0.0024177046
0.4851446546 0.1306470830 0.1608986429 -0.0012471244 0.0031175428 -0.0024971716
-0.2109695932 0.5155683998 -0.3435101103 -0.0028501413 0.0046903571 -0.0024468584
-0.2551844479 0.5157634796 -0.3510023362 -0.0028500098 0.0046903170 -0.0024452082
0.2560631645 0.1459233473 0.5215870722 -0.0028417700 0.0031926878 -0.0008862901
0.2264866479 0.5076137766 0.1181994495 -0.0028502921 0.0046906056 -0.0024581213
0.4350545190 0.4691639351 0.3392496737 -0.0012725512 0.0033728275 -0.0025035736
-0.4849659213 0.1463582890 -0.2495475615 -0.0044528599 0.0031455307 -0.0024748127
0.0708142981 0.4527874949 -0.4970261318 -0.0028631714 0.0033443151 -0.0040692097
-0.2046650992 0.2089320973 0.5191625205 -0.0028376260 0.0032997689 -0.0008972145
0.2983605744 0.5010101765 0.3669602807 -0.0028487782 0.0046790958 -0.0023143168
-0.4790085931 0.0809809631 -0.5449105801 -0.0025524851 0.0031778422 -0.0040592442
0.4335656284 0.4740703469 0.1694469716 -0.0012796203 0.0031611765 -0.0025053729
0.4336401656 0.4536090714 -0.2631683868 -0.0012714511 0.0033666452 -0.0025000502
0.0429321777 0.5003419819 0.3785464928 -0.0028488118 0.0046734620 -0.0022579705
-0.0975662437 0.5073094586 0.1381071009 -0.0028502167 0.0046905912 -0.0024572553
-0.4742878137 0.2662080127 -0.2312052479 -0.0044365711 0.0033200270 -0.0024728786
-0.0894071863 0.5159790164 -0.3616360789 -0.0028503129 0.0046903282 -0.0024454504
-0.4738677015 0.1400953935 0.5494123957 -0.0018377669 0.0031582738 -0.0012517768
0.0332596271 0.5938985376 -0.4748417313 -0.0028541907 0.0033389604 -0.0040701607
-0.4106460560 0.5093464934 -0.0783905199 -0.0031034663 0.0046681553 -0.0024620263
-0.0290656257 0.1807552282 0.5215014726 -0.0028392441 0.0032608678 -0.0008923521
-0.4364255131 0.4835001104 -0.4662253236 -0.0039947222 0.0032001755 -0.0014665117
-0.3296639607 0.0395210977 -0.5413322872 -0.0028622028 0.0031997585 -0.0040806970
-0.1309337033 0.3640939403 0.4855449946 -0.0028336424 0.0035852033 -0.0009633739
-0.4852821806 0.1710342168 -0.4711935487 -0.0044512177 0.0031712750 -0.0024485584
0.4862804840 0.0532032280 0.2781250658 -0.0012469608 0.0030687965 -0.0024978772
-0.1753856069 0.5116575988 -0.1285352376 -0.0028502456 0.0046906506 -0.0024606760
-0.2315706928 0.5100249662 -0.0243378044 -0.0028502712 0.0046906538 -0.0024608749
0.2095421214 0.5074366086 0.1286494537 -0.0028502985 0.0046906008 -0.0024577813
0.2113304853 0.2995869003 0.5002083922 -0.0028374383 0.0034373318 -0.0009221506
0.3494864536 0.1702614572 0.5196900587 -0.0028379692 0.0032286365 -0.0008891495
-0.4327429246 0.4506825783 0.2801710557 -0.0044270803 0.0033802526 -0.0024716710
0.0692520683 0.6758645255 -0.4657471668 -0.0030215809 0.0031999237 -0.0040768850
0.1434376021 0.5119309845 -0.1485960880 -0.0028503257 0.0046906441 -0.0024603504
0.0303015635 0.5231380495 -0.4865669865 -0.0028643742 0.0033879649 -0.0040615006
0.4803585401 0.2358241124 0.3742969711 -0.0012579655 0.0032753637 -0.0025028808
-0.4557019690 0.3679129515 -0.3805107033 -0.0044159843 0.0034343858 -0.0024680947
-0.2460610824 0.5057432885 0.2225383346 -0.0028502584 0.0046905014 -0.0024527697
-0.0272989296 0.8175070226 -0.4466935413 -0.0025331780 0.0031764262 -0.0040557161
-0.2203922347 0.0476856511 -0.5429180338 -0.0028634361 0.0031431316 -0.0040884734
-0.1441402652 0.5054794464 0.2345593665 -0.0028501493 0.0046904725 -0.0024513921
0.0422650415 0.5109412945 -0.0853393149 -0.0028502648 0.0046906538 -0.0024609454
0.4804747753 0.1265667861 -0.4441437977 -0.0012473345 0.0031144027 -0.0025125976
-0.4459456696 0.4319948869 0.4679481054 -0.0042185197 0.0036468916 -0.0020845631
-0.3424135572 0.5151637521 -0.3241026394 -0.0028508614 0.0046904341 -0.0024500675
0.4693226212 0.2628707073 -0.4906178569 -0.0013378269 0.0032744111 -0.0022012249
0.4357737613 0.4480102377 -0.0770366390 -0.0012764771 0.0033940606 -0.0024963745
0.4850721237 0.0172457990 0.2725755638 -0.0012468229 0.0030871477 -0.0024981001
-0.4868506023 0.0844848472 -0.4029154613 -0.0044540354 0.0030819677 -0.0024676537
0.4318233182 0.5016118124 0.0411990198 -0.0019035045 0.0043227904 -0.0025022136
0.4387558020 0.4533256048 0.3733483168 -0.0012740795 0.0033343273 -0.0025643044
-0.0385679795 0.1450651983 -0.5394486342 -0.0028630175 0.0031854438 -0.0040868553
-0.1435001371 0.6555375445 -0.4730053556 -0.0023519927 0.0027359308 -0.0039682578
0.4387384274 0.3587808490 -0.5182313146 -0.0032151886 0.0032821426 -0.0040350475
0.4588314691 0.3429777810 -0.0601467012 -0.0012786260 0.0034048166 -0.0024971796
0.0188447129 0.5076657512 0.1166997900 -0.0028502680 0.0046906153 -0.0024585896
0.2781472835 0.4357698747 -0.5011923570 -0.0028671390 0.0033416562 -0.0040695400
-0.2814100774 0.4798237876 0.4289409207 -0.0028436880 0.0042234808 -0.0013639994
-0.0427659710 0.7754304352 -0.4253444209 -0.0028472787 0.0029179854 -0.0008917876
-0.2038904809 0.3524938770 0.4898438994 -0.0028374656 0.0035486019 -0.0009510847
0.4826886333 0.0790140119 -0.1931237027 -0.0012468742 0.0030788469 -0.0024992452
-0.2697092932 0.5057230769 0.2235482858 -0.0028502840 0.0046904998 -0.0024526895
-0.4834184953 0.1017229100 -0.0697602321 -0.0044539553 0.0031007391 -0.0024722195
-0.1060150014 0.5775218040 -0.4516389601 -0.0028387245 0.0028862239 -0.0008954184
-0.0066476547 0.8983926308 -0.4419023847 -0.0028504877 0.0031059817 -0.0040897916
-0.1810858463 0.5128945902 -0.2051307871 -0.0028502840 0.0046906249 -0.0024591108
0.3168992653 0.5137759737 -0.2580973111 -0.0028499777 0.0046905800 -0.0024567004
-0.4812577873 0.1655280775 0.0536937743 -0.0044518496 0.0031686995 -0.0024760620
0.4763955673 0.2239610121 -0.2047466220 -0.0012558406 0.0032537233 -0.0024995451
-0.4545666287 0.3630927726 0.0028845024 -0.0044174356 0.0034275797 -0.0024755648
0.0458871029 0.0484475423 0.5271957927 -0.0028377960 0.0031558875 -0.0008843608
-0.2581567509 0.2422037803 -0.5287391549 -0.0028635627 0.0032771294 -0.0040786475
0.4862804840 0.0714474204 0.3265926256 -0.0012468694 0.0030814866 -0.0024990720
-0.2533436444 0.5146685158 -0.3038978898 -0.0028501237 0.0046905255 -0.0024538249
-0.3480023340 0.2255938660 0.5186162863 -0.0028459268 0.0033184024 -0.0008998494
-0.4542581025 0.3736885378 -0.3604039820 -0.0044159859 0.0034345959 -0.0024715106
0.4384101788 0.4475526373 0.2070808400 -0.0012687921 0.0033509176 -0.0024992708
-0.3103132354 0.5058869310 0.2153573498 -0.0028502953 0.0046905142 -0.0024534160
-0.3803804710 0.5149409714 -0.3154908087 -0.0028550310 0.0046904597 -0.0024513424
-0.1552403453 0.5243988271 -0.4844334405 -0.0028252069 0.0033067258 -0.0040739213
0.2721833721 0.2648537838 0.5071241878 -0.0028436704 0.0033870235 -0.0009116223
0.4776513028 0.2520096070 0.3590820791 -0.0012615385 0.0033004329 -0.0025022842
-0.2584669161 0.5061928640 0.2000614113 -0.0028503899 0.0046905383 -0.0024545643
-0.4724216331 0.2797875313 -0.3235565768 -0.0044341431 0.0033383782 -0.0024755376
-0.2323394383 0.5067589681 0.1710041609 -0.0028503690 0.0046905800 -0.0024565881
0.1719683407 0.4954673315 -0.4922504398 -0.0028569956 0.0032871285 -0.0040775120
0.0409910814 0.5095642337 0.0026619029 -0.0028502840 0.0046906489 -0.0024606551
-0.3456274588 0.5076495521 0.1202404728 -0.0028507267 0.0046906089 -0.0024582368
0.4777136550 0.2158095723 -0.1637755573 -0.0012550628 0.0032437274 -0.0025024414
0.0561044443 0.8070461645 -0.4588778659 -0.0023350720 0.0033594397 -0.0039232225
0.0233973675 0.3787486009 -0.5091026392 -0.0028625316 0.0033596081 -0.0040667111
0.1094135571 0.1647297227 0.5219634304 -0.0028307525 0.0032116741 -0.0008880622
-0.0034667350 0.2755357082 0.5068315672 -0.0028385449 0.0034143892 -0.0009168696
0.2132220654 0.5103048614 -0.0454595190 -0.0028503402 0.0046906538 -0.0024608572
0.4727802752 0.2720412523 0.1423741817 -0.0012658509 0.0033307349 -0.0024973416
0.4679951871 0.3002042702 0.1366674201 -0.0012713372 0.0033657102 -0.0024972774
-0.2219961385 0.1014123471 -0.5397086113 -0.0028632580 0.0031603522 -0.0040883467
0.4715697113 0.2379293947 0.5325023987 -0.0036709191 0.0031405817 -0.0011097684
-0.0107896030 0.5091593423 0.0275356689 -0.0028502584 0.0046906457 -0.0024604002
-0.4640469475 0.3019549005 0.2714684134 -0.0044311008 0.0033563975 -0.0024774700
0.1771316104 0.1431864398 -0.5411067160 -0.0028623808 0.0031965767 -0.0040862523
0.1777311663 0.4975003523 0.3883171807 -0.0028479571 0.0046306799 -0.0020742834
-0.0656464786 0.2918048939 0.5044949629 -0.0028373261 0.0034313676 -0.0009202438
0.2015058519 0.5045723201 0.2710468098 -0.0028501654 0.0046903314 -0.0024458176
0.2115089732 0.5000874863 0.3796437082 -0.0028491053 0.0046678683 -0.0022201551
0.4473625682 0.3977112208 0.0132868395 -0.0012857417 0.0034382283 -0.0024972999
-0.4049749112 0.2195678478 -0.5302117502 -0.0028677725 0.0032549581 -0.0040809183
-0.4614860951 0.3298417935 -0.1128738043 -0.0044245801 0.0033930438 -0.0024747742
0.4935779236 0.0984066982 0.5067502752 -0.0012714623 0.0030835779 -0.0027606175
0.1835669126 0.5122317776 -0.1672442961 -0.0028503803 0.0046906377 -0.0024599479
-0.0251242934 0.5077957879 0.1095954369 -0.0028502584 0.0046906185 -0.0024587676
0.1822809311 0.3586913107 0.4848168470 -0.0028395809 0.0035703642 -0.0009582164
0.4715724520 0.2982521501 0.4703050207 -0.0012809594 0.0033097200 -0.0027255797
0.4253410932 0.4866013243 -0.4580068087 -0.0013484355 0.0029189155 -0.0023778381
-0.3032508369 0.2714228545 0.5107036547 -0.0028390613 0.0033973081 -0.0009135676
0.1894956483 0.5077489035 0.1112523320 -0.0028502696 0.0046906121 -0.0024584132
-0.4792835441 0.1972903857 0.1038123131 -0.0044487352 0.0032130725 -0.0024761245
-0.1786611727 0.5005407808 0.3777237168 -0.0028484141 0.0046734075 -0.0022610929
-0.3622418267 0.5168632385 -0.3888599156 -0.0028509095 0.0046890276 -0.0024167841
-0.0850326426 0.3220573639 -0.5182866184 -0.0028611363 0.0033447706 -0.0040691872
-0.0065540944 0.7677741098 -0.4507462704 -0.0028504877 0.0032361547 -0.0040831202
-0.3206660308 0.4910509183 0.4101063072 -0.0028489482 0.0045570841 -0.0018464285
0.2555542245 0.5136351697 -0.2502727005 -0.0028504380 0.0046905880 -0.0024571607
0.1035497556 0.3938009844 -0.5076874518 -0.0028622413 0.0033607307 -0.0040665186
0.3289709022 0.5163750008 -0.3805900131 -0.0028498158 0.0046900203 -0.0024372041
0.4433785018 0.4270829439 0.3680636126 -0.0012815143 0.0034184321 -0.0024973608
-0.4367720664 0.4533595697 -0.2456330671 -0.0044301161 0.0033630898 -0.0024740509
-0.0153585481 0.1580601140 -0.5385524228 -0.0028624754 0.0031962352 -0.0040860213
0.1222742393 0.5124786380 -0.1821167820 -0.0028502407 0.0046906345 -0.0024597186
0.0396384258 0.2001547960 0.5186913623 -0.0028389619 0.0032897554 -0.0008957423
-0.4366760427 0.5001041761 -0.2490932149 -0.0038691102 0.0039218056 -0.0024581838
0.4720979359 0.2654406383 -0.1061429837 -0.0012641702 0.0033193422 -0.0025019747
-0.2907531413 0.5066729292 0.1759067335 -0.0028503803 0.0046905768 -0.0024564262
0.4954293726 0.0056653122 0.1355797115 -0.0033556798 0.0045920995 -0.0025095634
0.4767157412 0.2295129373 -0.1461761246 -0.0012575180 0.0032695856 -0.0025054371
0.4798656516 0.0322860392 -0.4815218250 -0.0012467796 0.0030871477 -0.0024863642
0.0860528784 0.5088112719 0.0485895098 -0.0028503289 0.0046906345 -0.0024597603
-0.3677163489 0.5083669822 0.0786314834 -0.0028515975 0.0046906297 -0.0024595245
-0.4795924616 0.0220060618 0.3306956919 -0.0044539569 0.0030715757 -0.0024707152
0.3241204293 0.0837210940 -0.5454445299 -0.0028629549 0.0031507380 -0.0040887300
0.0036974108 0.4357767273 0.4568318263 -0.0028391639 0.0038169167 -0.0010788473
0.4575169063 0.2440495762 -0.5362530132 -0.0031626720 0.0032502817 -0.0040505681
0.4144270401 0.5077304528 0.0059810815 -0.0025721674 0.0046650570 -0.0024695044
-0.0296447841 0.6197235832 -0.4462814556 -0.0028377960 0.0028536751 -0.0008998238
-0.4388630339 0.4406483419 -0.2177162954 -0.0044274428 0.0033762177 -0.0024736388
-0.3670822171 0.5200412908 -0.4335537834 -0.0028603265 0.0045905904 -0.0019981185
-0.1614458425 0.5069074555 0.1621642765 -0.0028502119 0.0046905832 -0.0024567886
0.4344673213 0.4878571576 0.4083763312 -0.0026215568 0.0045184476 -0.0018116313
0.4844029011 0.1713515762 0.2857867251 -0.0012493552 0.0031736790 -0.0024992756
0.4967832839 0.0104770347 0.3057922845 -0.0033500332 0.0045935300 -0.0025436374
0.4462585018 0.4021275363 0.0486730277 -0.0012842262 0.0034314927 -0.0024974250
-0.0757198920 0.2058172055 0.5191353585 -0.0028383749 0.0032886392 -0.0008957439
0.4499145633 0.3657744613 -0.4865188287 -0.0014531303 0.0033007761 -0.0018232950
-0.0979100370 0.3179398353 0.4982520624 -0.0028362997 0.0034716672 -0.0009301018
-0.1621431332 0.5049804414 0.2583367318 -0.0028501333 0.0046904228 -0.0024491870
0.3406760918 0.1540921617 0.5210237088 -0.0028422703 0.0032040869 -0.0008872122
-0.4290049857 0.4970823939 -0.0633819337 -0.0043224320 0.0030768712 -0.0024966472
0.0884702102 0.5107027542 -0.0701648171 -0.0028502648 0.0046906538 -0.0024608829
0.4862804840 0.0893668987 0.3291035096 -0.0012468325 0.0030870804 -0.0024992195
0.3648839213 0.0613833181 -0.5461434115 -0.0028599336 0.0031534883 -0.0040885792
-0.2112905738 0.5126508618 -0.1900214608 -0.0028502840 0.0046906297 -0.0024594267
-0.2207365605 0.5093149260 0.0200159747 -0.0028503017 0.0046906441 -0.0024603344
0.0831295046 0.1258542618 0.5245865371 -0.0028311582 0.0031587292 -0.0008844699
0.2650417617 0.5127124795 -0.1970499682 -0.0028503835 0.0046906281 -0.0024593722
-0.4728057741 0.2496764298 0.1863984597 -0.0044400255 0.0032972367 -0.0024731288
-0.4201421105 0.5064607185 0.0068439807 -0.0032854021 0.0046289046 -0.0024678077
-0.4937072274 0.1271364874 -0.5399748509 -0.0039649927 0.0031608108 -0.0035847519
-0.0428373761 0.5023591949 0.3437733413 -0.0028500275 0.0046893355 -0.0024174801
-0.4477951123 0.3802961488 0.2604542007 -0.0044141993 0.0034427026 -0.0024759417
0.0523094262 0.5374064426 -0.4843581689 -0.0028680066 0.0033914048 -0.0040608319
0.0236714958 0.8449911283 -0.4203811384 -0.0028496121 0.0029801259 -0.0008862837
0.2109639145 0.5083455454 0.0763380445 -0.0028502456 0.0046906297 -0.0024594812
-0.4756503386 0.2359620281 0.0947163726 -0.0044425433 0.0032793233 -0.0024756883
-0.1806017814 0.1865908413 -0.5349810787 -0.0028630800 0.0032264121 -0.0040839349
-0.4148672178 0.5119187979 -0.3691963341 -0.0036216789 0.0044913994 -0.0024896149
-0.3423710766 0.5036523706 0.3117350045 -0.0028501060 0.0046901069 -0.0024376018
-0.3500288213 0.0576712133 -0.5407928559 -0.0028636542 0.0031451298 -0.0040888775
-0.2621525131 0.0367650179 -0.5423201666 -0.0028563284 0.0041762371 -0.0030938183
-0.0420405176 0.5046979514 0.2684961601 -0.0028501942 0.0046903859 -0.0024478431
-0.2173416500 0.3447527347 -0.5129502076 -0.0028627978 0.0033536744 -0.0040677102
0.4822657323 0.1797730500 0.0545662989 -0.0012498587 0.0031854534 -0.0024969679
-0.2995172537 0.1585389925 0.5255281175 -0.0028455050 0.0032059248 -0.0008875121
-0.4449057162 0.4106340210 -0.2144183627 -0.0044160356 0.0034346167 -0.0024739435
-0.3526153202 0.0780015878 -0.5400594706 -0.0028646902 0.0031494438 -0.0040887781
-0.4381966483 0.4389518417 -0.1208701992 -0.0044236805 0.0033971702 -0.0024747277
-0.4636659386 0.3271284397 -0.2554990185 -0.0044249346 0.0033909782 -0.0024733934
-0.4778852918 0.2305774338 -0.1149602334 -0.0044430132 0.0032735563 -0.0024649082
-0.1605243647 0.0550458005 -0.5426153804 -0.0028622365 0.0031514243 -0.0040886402
-0.4646793666 0.3242211061 -0.3421099496 -0.0044243588 0.0033933277 -0.0024706847
0.0668761026 0.0543992302 0.5267373102 -0.0028380253 0.0031389651 -0.0008835477
-0.0240303495 0.1465520714 0.5247511257 -0.0028392521 0.0032047621 -0.0008871561
-0.4407656748 0.0523707977 -0.5410736812 -0.0028258451 0.0031525229 -0.0040849420
0.4569197736 0.3705030716 0.4409770034 -0.0012857722 0.0033631571 -0.0026817616
-0.4550675421 0.3683315706 -0.2690443509 -0.0044179456 0.0034255895 -0.0024762576
-0.2042623118 0.1544671503 -0.5371965036 -0.0028632805 0.0032020534 -0.0040857968
0.0633068337 0.1124119019 -0.5418452893 -0.0028614731 0.0031618517 -0.0040882874
-0.4376519809 0.4276351968 0.2725714519 -0.0044198091 0.0034165991 -0.0024724632
-0.4610284930 0.3388606437 -0.1993765269 -0.0044227744 0.0034027847 -0.0024738777
-0.4246817575 0.3800358060 0.4861401692 -0.0020717447 0.0033764069 -0.0011331537
0.4860087614 0.1131633707 0.2257082128 -0.0012471276 0.0031095531 -0.0024980841
-0.4826354351 0.1797102712 0.5099492736 -0.0044287273 0.0031577285 -0.0027543438
0.1930208761 0.4183327308 -0.5034210446 -0.0028579915 0.0033626183 -0.0040662171
-0.2867189590 0.2275254795 -0.5298181633 -0.0028653830 0.0032621075 -0.0040803634
-0.3256531734 0.2369552190 0.5171503479 -0.0028405704 0.0033372668 -0.0009023416
-0.3721980748 0.5215117308 -0.4903146166 -0.0026167521 0.0027885148 -0.0040305026
0.2793475933 0.5377435004 -0.4913585343 -0.0028204326 0.0034006967 -0.0040558075
-0.3711624530 0.2216800805 0.5191213116 -0.0028499906 0.0033100215 -0.0008987878
-0.4122798144 0.0716424329 -0.5396654443 -0.0028594188 0.0031696409 -0.0040877694
0.4361996484 0.4328161218 -0.4642635604 -0.0012784769 0.0034040308 -0.0024978339
-0.1211050206 0.5151216628 -0.3238564397 -0.0028502263 0.0046904485 -0.0024506592
0.0976371212 0.3560365901 -0.5141638040 -0.0028638306 0.0033531997 -0.0040677824
0.1480610974 0.5066164498 0.1756740418 -0.0028503161 0.0046905672 -0.0024559563
-0.4892058032 0.0581554193 -0.5462050773 -0.0033698454 0.0031455002 -0.0038741827
-0.4848507141 0.1525621841 -0.2658805908 -0.0044525488 0.0031526945 -0.0024755167
0.4843027174 0.0317085471 0.0946578389 -0.0012469191 0.0030711892 -0.0024990062
-0.4650291017 0.3200854460 -0.3210885165 -0.0044259449 0.0033852418 -0.0024724616
-0.4717801595 0.2419395710 0.4767357587 -0.0044334134 0.0032603578 -0.0026494838
-0.4545476392 0.3607996288 0.0402223295 -0.0044188485 0.0034211648 -0.0024737799
0.1420371721 0.5088661828 0.0446308317 -0.0028503129 0.0046906361 -0.0024598613
0.4575271845 0.3527005549 0.0057203137 -0.0012808039 0.0034149232 -0.0024970561
-0.1513691126 0.0822835044 -0.5417390870 -0.0028625845 0.0031577077 -0.0040884574
0.4597434898 0.3427004069 0.1209219188 -0.0012783999 0.0034037085 -0.0024973031
-0.0220472955 1.2016890315 -0.5036601719 -0.0028345597 0.0027593851 -0.0040501191
-0.2903298970 0.3578857377 -0.5106858407 -0.0028527281 0.0033579836 -0.0040670094
0.0509785537 0.2985807900 0.5016961090 -0.0028394911 0.0034470551 -0.0009239275
-0.4524562803 0.4451523609 -0.4922058551 -0.0043656519 0.0033128376 -0.0029389178
-0.2937482009 0.4830630150 -0.4899201990 -0.0028576467 0.0033022338 -0.0040754417
0.4375216989 0.4531271475 0.2612225068 -0.0012731173 0.0033760605 -0.0024988058
-0.1127840833 0.1831050342 -0.5353839638 -0.0028625877 0.0032349840 -0.0040831651
-0.0143358089 0.5953653083 -0.4742737187 -0.0028665873 0.0033407068 -0.0040698094
0.2251067228 0.5684731970 -0.4546439547 -0.0029154539 0.0028100173 -0.0009083796
-0.1635150317 0.1977068013 -0.5339309947 -0.0028629181 0.0032413940 -0.0040824659
0.4749464165 0.3336377529 0.5027763908 -0.0014068826 0.0035015860 -0.0020751414
-0.0824924796 0.5173204974 -0.4038550113 -0.0028500531 0.0046885337 -0.0024045254
0.4814128322 0.0551680495 -0.3388278728 -0.0012468518 0.0030862079 -0.0025009515
0.4798246881 0.2168310253 0.0625245994 -0.0012549794 0.0032437739 -0.0024969455
-0.1767014911 0.1459205937 0.5258736925 -0.0028385609 0.0031931240 -0.0008863671
0.4317971345 0.4931750200 -0.3175113975 -0.0016195503 0.0020899251 -0.0024970657
-0.0506997812 1.0014631768 -0.4513611209 -0.0025607746 0.0028260560 -0.0040385211
-0.4790918897 0.2117937926 -0.0785290610 -0.0044464772 0.0032372997 -0.0024701571
0.0896009126 0.5135087542 -0.2417167606 -0.0028502103 0.0046906008 -0.0024578150
-0.4831577853 0.1264405919 -0.0535550247 -0.0044537644 0.0031180704 -0.0024708788
0.4840610948 0.0477668179 0.0755662039 -0.0012469320 0.0030765344 -0.0025019506
-0.1685901087 0.5762044524 -0.4506634132 -0.0028356197 0.0029087192 -0.0008928605
0.4662263018 0.3173129218 0.2581760082 -0.0012742688 0.0033815661 -0.0024996509
-0.4652465468 0.2946177691 0.2942243995 -0.0044325442 0.0033486387 -0.0024786343
0.4447158228 0.4056271561 -0.0658703482 -0.0012842150 0.0034314462 -0.0024974811
-0.4784526677 0.2081119514 -0.0053040521 -0.0044474009 0.0032285050 -0.0024753531
0.3390890238 0.5123527613 -0.1755681201 -0.0028496474 0.0046906345 -0.0024598068
0.1391306837 0.1533704369 -0.5400532065 -0.0028617233 0.0032087441 -0.0040853093
-0.2178118042 0.2398471345 0.5151946051 -0.0028374111 0.0033420363 -0.0009032236
-0.4359644358 0.4578779756 -0.3135302691 -0.0044307544 0.0033571753 -0.0024811586
-0.2245991540 0.5075224519 0.1274847366 -0.0028502343 0.0046906040 -0.0024579978
-0.1769085250 0.5071942514 0.1456498822 -0.0028502135 0.0046905928 -0.0024573932
0.4679125255 0.3416556568 -0.5084414416 -0.0012895104 0.0034170593 -0.0025609110
-0.3197211212 0.5094171640 0.0148386949 -0.0028502664 0.0046906457 -0.0024604098
-0.3875983313 0.5140989365 -0.2745086960 -0.0028608188 0.0046905030 -0.0024552314
0.3023573646 0.3895581901 -0.5100290484 -0.0028636734 0.0033700338 -0.0040648508
0.2472512118 0.1961416223 -0.5372898843 -0.0028644528 0.0032347386 -0.0040830817
-0.1568857146 0.0370537223 -0.5429359456 -0.0028627978 0.0030871477 -0.0040900258
0.1787137968 0.1949642905 -0.5369193989 -0.0028632548 0.0032336657 -0.0040831956
-0.1574157353 0.4440404139 -0.4963750648 -0.0028647559 0.0033549974 -0.0040674744
-0.4823592109 0.1024638327 0.1135335698 -0.0044540114 0.0030987698 -0.0024726813
-0.0742099623 0.5113479965 -0.1106174159 -0.0028502456 0.0046906554 -0.0024610336
0.4372551642 0.3389131347 -0.5187681510 -0.0031749307 0.0032872680 -0.0040431237
0.4343905326 0.4981903269 -0.3375157573 -0.0015858981 0.0037422497 -0.0025061315
0.3284554287 0.2871015132 0.5029527249 -0.0028409072 0.0034284745 -0.0009195526
-0.0561341513 1.0984114628 -0.4561795372 -0.0012708288 0.0029464865 -0.0024863642
-0.1605471213 0.5033607780 0.3199242517 -0.0028500194 0.0046899722 -0.0024336022
-0.4798236601 0.0906503415 0.4109448670 -0.0044541108 0.0030871044 -0.0024701635
0.0138176477 0.4601403843 0.4417443537 -0.0028403266 0.0040518696 -0.0012062427
0.2523211875 0.3553517779 0.4853334704 -0.0028402865 0.0035500517 -0.0009513413
-0.4318146069 0.4541145377 0.4086099273 -0.0044321978 0.0031945769 -0.0027005089
-0.3878592627 0.5079741795 0.1007057156 -0.0028535332 0.0046906217 -0.0024591573
0.4374980105 0.4605463037 0.3912660888 -0.0012729136 0.0031882760 -0.0027038158
0.2473023316 0.1637917988 0.5203547797 -0.0028391270 0.0032184481 -0.0008883300
0.4670594298 0.3039248121 0.1064319815 -0.0012719658 0.0033691405 -0.0024970401
-0.4332239696 0.4555739185 0.1197324614 -0.0044269216 0.0033813833 -0.0024747854
-0.4820906699 0.1311172133 0.1526335354 -0.0044539072 0.0031152591 -0.0024753002
-0.3453500350 0.5087518561 0.0554231874 -0.0028507331 0.0046906361 -0.0024598212
0.4814693597 0.0460372011 -0.2553836140 -0.0012469320 0.0030720119 -0.0024990415
0.4747951388 0.2558104129 -0.0137830156 -0.0012619731 0.0033029892 -0.0024971812
0.1833148642 0.2585492641 0.5088095776 -0.0028383124 0.0033719935 -0.0009087131
0.3426721872 0.3922054487 0.4728322995 -0.0028336520 0.0036218080 -0.0009760368
0.4367718691 0.4477486954 0.0739402892 -0.0012756640 0.0033896600 -0.0024999989
0.4135693433 0.5104884892 -0.1950928926 -0.0023640494 0.0046061464 -0.0024722195
0.2717619882 0.4366539990 0.4537659982 -0.0028369203 0.0038661345 -0.0010927659
-0.0218392930 0.2318037317 0.5149868014 -0.0028381279 0.0033394303 -0.0009028484
0.2032998560 0.1911420864 0.5184820399 -0.0028369284 0.0032539173 -0.0008915903
-0.2113522653 0.3952944520 0.4752499007 -0.0028344378 0.0036246818 -0.0009758652
0.1509222426 0.5124784423 -0.1825385348 -0.0028502808 0.0046906329 -0.0024596576
-0.3622110916 0.1838743057 -0.5335647174 -0.0028563573 0.0032229513 -0.0040842572
-0.4840077009 0.0281104981 -0.1195313740 -0.0044540515 0.0030710096 -0.0024722564
0.4700254190 0.2755112372 -0.1575851943 -0.0012655959 0.0033295161 -0.0024992564
-0.0709614896 0.4540626113 0.4490305369 -0.0028359774 0.0039718638 -0.0011574900
0.0214828977 1.1523035524 -0.4897473866 -0.0038071637 0.0018834237 -0.0021428387
0.2239804627 0.5143488808 -0.2895286540 -0.0028503338 0.0046905447 -0.0024548625
0.4740619988 0.2723919400 0.2425730365 -0.0012657611 0.0033297920 -0.0024997151
-0.0947915416 0.1594876083 -0.5380879199 -0.0028637873 0.0032167466 -0.0040846919
-0.4224814058 0.5085255039 -0.4414167402 -0.0036161060 0.0044863333 -0.0023673306
0.2132671649 0.0406399872 0.5267373102 -0.0028378890 0.0031587934 -0.0008846944
-0.0218310627 0.8129969848 -0.4225793860 -0.0027881067 0.0029611877 -0.0008890853
-0.4081539899 0.5069928096 0.1563098711 -0.0029623399 0.0046867054 -0.0024610641
0.0782697077 0.5573499674 -0.4808361580 -0.0028760364 0.0033499185 -0.0040670815
0.4737223462 0.2438788198 -0.3706693929 -0.0012591811 0.0032835731 -0.0024942881
-0.2009214318 0.0842910696 -0.5408826636 -0.0028634794 0.0031622750 -0.0040882569
-0.1434139025 0.5074500669 0.1308124502 -0.0028502375 0.0046906008 -0.0024577893
-0.0698674383 0.0371504515 0.5283410183 -0.0028363302 0.0030871477 -0.0008827202
0.4798127950 0.2535653771 0.4828744646 -0.0012754491 0.0032649091 -0.0027259838
0.4846767759 0.0295993470 0.2321699296 -0.0012480963 0.0030265949 -0.0024965734
-0.0738940094 0.9751059454 -0.4182403981 -0.0036877821 0.0028626350 -0.0011594802
0.0307855129 0.5067955760 0.1667933270 -0.0028502568 0.0046905864 -0.0024569538
0.4720722894 0.2861931873 0.2844776935 -0.0012688547 0.0033515431 -0.0025006677
-0.3937746250 0.4428302910 0.4560442148 -0.0026148485 0.0038786049 -0.0011443684
0.2520880067 0.5124276898 -0.1793929191 -0.0028504220 0.0046906345 -0.0024597346
0.2414611151 0.1215385213 -0.5426181211 -0.0028641994 0.0031757334 -0.0040874903
0.0362907044 0.8576813106 -0.4195866742 -0.0034102813 0.0029455483 -0.0009906337
0.2344995353 0.1505678993 0.5212667507 -0.0028383845 0.0032024992 -0.0008870182
-0.3235782092 0.5173506455 -0.4027048912 -0.0028492785 0.0046880365 -0.0023966512
-0.4772251719 0.3316446918 -0.5057790840 -0.0043910771 0.0034246000 -0.0027152085
-0.3305178888 0.5118261036 -0.1381208046 -0.0028504172 0.0046906457 -0.0024604451
0.1045846557 0.0692023670 -0.5445159172 -0.0028650494 0.0031461161 -0.0040889176
0.4304603027 0.4663047849 -0.3919582412 -0.0012709732 0.0033643406 -0.0024988346
0.0826602804 0.1450962637 0.5237052017 -0.0028308519 0.0031870267 -0.0008860704
0.2718062313 0.4563559989 0.4408303748 -0.0028289884 0.0040054390 -0.0011724942
-0.3312207828 0.4290122080 -0.4972448984 -0.0028676025 0.0033600604 -0.0040665202
-0.2169954158 0.5313257316 -0.4533752500 -0.0028344827 0.0036914891 -0.0010267877
-0.4812370851 0.2015278444 -0.2346636604 -0.0044483070 0.0032180664 -0.0024738505
0.0081948883 0.6712570946 -0.4632235589 -0.0028683001 0.0033075726 -0.0040746671
0.2247972681 0.3586008680 -0.5142399561 -0.0028647752 0.0033578745 -0.0040669548
0.4629533052 0.3096407870 -0.3590724616 -0.0012728447 0.0033735652 -0.0024918809
-0.2969148733 0.2879327808 0.5076080201 -0.0028392120 0.0034262550 -0.0009189913
-0.4328490307 0.4775351454 0.4031538060 -0.0043369888 0.0026359781 -0.0027920149
0.3406169711 0.2154897897 0.5151089574 -0.0028384599 0.0032940838 -0.0008966821
0.4816718792 0.2081723326 0.2562718743 -0.0012534911 0.0032272878 -0.0024990431
0.4853408105 0.1547907626 0.2798920410 -0.0012485196 0.0031546334 -0.0024989934
0.3135035706 0.4186500164 -0.5042991485 -0.0028643229 0.0033628524 -0.0040661289
-0.2118834246 0.3891504602 -0.5052888401 -0.0028632661 0.0033627321 -0.0040661610
0.4068999671 0.5096932921 -0.0601788924 -0.0026765303 0.0046786259 -0.0024661013
-0.2770556009 0.5050106873 0.2587620561 -0.0028502391 0.0046904357 -0.0024497323
0.0494087865 0.4995101754 -0.4905971066 -0.0028649628 0.0033395056 -0.0040696988
-0.2655092490 0.2942520306 -0.5211676448 -0.0028582432 0.0033298994 -0.0040715270
-0.1187423432 0.5008093217 0.3726602025 -0.0028483740 0.0046742687 -0.0022771508
0.4708553155 0.2829049939 0.0524904672 -0.0012682517 0.0033474648 -0.0024969070
-0.4319384276 0.4754124645 -0.1012206390 -0.0044210712 0.0034023598 -0.0024737013
-0.4332978220 0.4767138127 -0.3202168482 -0.0044334807 0.0033429376 -0.0024804722
0.2305480643 0.3138129828 0.4969765051 -0.0028394077 0.0034729309 -0.0009307513
-0.4392360644 0.4388274821 -0.2656620920 -0.0044228385 0.0034013029 -0.0024743123
0.4130258498 0.2281262831 0.5124978432 -0.0028747133 0.0033115658 -0.0008996586
-0.1710189551 0.5080146058 0.0980658725 -0.0028502311 0.0046906201 -0.0024589312
0.0510629232 0.8861392986 -0.4212953626 -0.0013064760 0.0030648065 -0.0020626821
-0.1214028035 0.5781335705 -0.4756910583 -0.0027990055 0.0033016292 -0.0040743543
0.3060243394 0.4359562929 0.4541764673 -0.0028312737 0.0038711349 -0.0010941018
-0.3621199128 0.5044872114 0.2791770582 -0.0028503755 0.0046903106 -0.0024451345
-0.1592852323 0.2460803710 0.5138516567 -0.0028369652 0.0033491904 -0.0009046125
0.4986467237 0.0289347479 0.5293045742 -0.0012971585 0.0030862320 -0.0026180912
-0.0621050437 0.0381400148 -0.5436809305 -0.0028652114 0.0031060891 -0.0040896072
-0.2896426135 0.5083390857 0.0805997914 -0.0028503514 0.0046906281 -0.0024593658
-0.3705320883 0.3965769582 -0.5030663669 -0.0028735186 0.0033802671 -0.0040628429
-0.4808249994 0.1047152352 0.2488248456 -0.0044540098 0.0031001506 -0.0024738424
-0.2608560338 0.5968198443 -0.4563070785 -0.0036398328 0.0044813153 -0.0024708868
0.4334416602 0.4587991487 -0.1661099709 -0.0012738646 0.0033803040 -0.0024957282
0.0406968363 0.6304013973 -0.4686313749 -0.0028528821 0.0033326979 -0.0040710491
0.0742126101 0.7645932189 -0.4506668885 -0.0013794704 0.0037176776 -0.0025169950
-0.0295460181 0.2383788226 -0.5311731524 -0.0028629132 0.0032825740 -0.0040780156
-0.4286402255 0.4832684709 0.1590134231 -0.0043900042 0.0026497059 -0.0024899934
-0.3036682084 0.5152251244 -0.3271454173 -0.0028500579 0.0046904244 -0.0024496200
0.1104869254 0.1744510773 -0.5378724313 -0.0028620392 0.0032276646 -0.0040837793
0.4660321024 0.2937341837 -0.3688928981 -0.0012701168 0.0033591238 -0.0024908016
0.3288864782 0.0628067261 0.5247899371 -0.0028383541 0.0031337419 -0.0008833890
-0.4688361940 0.3005299753 -0.3234982628 -0.0044299927 0.0033632854 -0.0024732250
0.4938725986 0.0039295547 -0.1072266782 -0.0032905099 0.0046170243 -0.0024717015
-0.3221591071 0.2340123056 -0.5288138893 -0.0028639653 0.0032642580 -0.0040801790
0.4702462416 0.2957161103 0.2506487653 -0.0012705578 0.0033613545 -0.0024999332
-0.3220022020 0.4851036710 -0.4895120778 -0.0028633318 0.0032967411 -0.0040758811
0.0413588743 0.5102194591 -0.0387536713 -0.0028502696 0.0046906538 -0.0024609631
-0.0345383438 0.5055322549 0.2305015953 -0.0028501782 0.0046904998 -0.0024526382
-0.0200311057 0.5159002214 -0.3584857290 -0.0028502199 0.0046902352 -0.0024421997
0.4614419482 0.3419751459 0.3307953351 -0.0012788602 0.0034059248 -0.0025003501
0.3763439633 0.5137746025 -0.2608854715 -0.0028460535 0.0046905720 -0.0024566555
0.4851188140 0.0118265454 -0.4710924365 -0.0030595343 0.0046541309 -0.0024011415
-0.0710835735 0.3148140527 0.4986507378 -0.0028368482 0.0034704789 -0.0009297105
0.4525436888 0.3759568675 0.0059973848 -0.0012858716 0.0034384929 -0.0024971411
-0.4521934646 0.4686654192 -0.4885406412 -0.0043787782 0.0032344243 -0.0028893440
-0.4369559379 0.4980958701 -0.1737859225 -0.0042140790 0.0033351243 -0.0024086934
-0.0166608024 0.1358606755 -0.5399343765 -0.0028623840 0.0031670140 -0.0040880356
-0.0872470091 0.5122792506 -0.1685815193 -0.0028502664 0.0046906393 -0.0024600554
-0.2841959381 0.4894049252 0.4136892990 -0.0028451121 0.0045113672 -0.0017712916
0.3042084944 0.5084536578 0.0688027269 -0.0028503755 0.0046906297 -0.0024594524
0.3551654053 0.5194109758 -0.4341589427 -0.0028429150 0.0046161984 -0.0021024766
0.3611356546 0.1094422916 0.5231887724 -0.0028431716 0.0031493507 -0.0008841347
0.3450389140 0.5128262193 -0.2051874477 -0.0028494629 0.0046906265 -0.0024592551
-0.1091357067 0.4968245224 0.3924382085 -0.0028461064 0.0046219285 -0.0020361263
0.1660130059 0.5299932570 -0.4867115095 -0.0029138999 0.0032990649 -0.0040718141
0.0145614010 0.6264220795 -0.4693234054 -0.0028586233 0.0033329930 -0.0040710684
-0.0238400134 0.6030360719 -0.4488098602 -0.0028335574 0.0028627970 -0.0008985392
0.4820875860 0.0051303713 -0.1943365903 -0.0015199232 0.0033600491 -0.0024893583
0.4847950671 0.1251627349 0.1346815403 -0.0012470362 0.0031102908 -0.0024971700
0.4595961764 0.3269863142 -0.4106146602 -0.0012766936 0.0033942867 -0.0024916484
0.0674212110 0.9640329792 -0.4220583572 -0.0014929921 0.0026384254 -0.0018184502
0.4806954519 0.2180213520 0.1965110629 -0.0012550499 0.0032447489 -0.0024983070
-0.2803117137 0.2402679812 0.5162128779 -0.0028358234 0.0033426986 -0.0009033632
-0.2656822073 0.5114214576 -0.1136734324 -0.0028503145 0.0046906538 -0.0024609085
-0.4941597377 0.0050899835 -0.1914210955 -0.0024958020 0.0046390288 -0.0024603841
-0.3113892835 0.3253626865 0.4979920372 -0.0028444866 0.0034984636 -0.0009369320
0.4603254017 0.3251258348 -0.3055034823 -0.0012761034 0.0033910777 -0.0024989501
-0.1788733465 0.0435745951 0.5294529156 -0.0028385289 0.0031599529 -0.0008845998
0.4493731258 0.3960838741 0.2383553500 -0.0012853568 0.0034364482 -0.0024989389
-0.0635915079 0.9307680751 -0.4355146662 -0.0044042852 0.0026916348 -0.0024863642
-0.4850966444 0.1475571779 -0.3393506159 -0.0044530235 0.0031387567 -0.0024814504
-0.3124822891 0.3382404610 -0.5140727246 -0.0028548931 0.0033515030 -0.0040681031
-0.4809081998 0.0717642666 0.2425017549 -0.0044541253 0.0030819437 -0.0024735008
0.4846106069 0.1253003699 -0.0059125903 -0.0012472896 0.0031189348 -0.0024968909
0.4862804343 0.0786752462 0.3435828384 -0.0012468470 0.0030849859 -0.0024994617
0.0308172150 0.3823503369 0.4778566127 -0.0028407099 0.0036750880 -0.0009950071
-0.3481054781 0.4222330083 -0.4980670635 -0.0028718186 0.0033668825 -0.0040653351
0.4719344715 0.2562173827 -0.3891910284 -0.0012614118 0.0032985084 -0.0024972502
0.4498752629 0.4247788355 -0.4972267910 -0.0013077542 0.0034334220 -0.0027359300
-0.4823592109 0.0312562501 0.0108879793 -0.0044541381 0.0030834608 -0.0024760058
0.3874099069 0.5090084558 0.0328732169 -0.0028455098 0.0046906377 -0.0024604595
-0.0708443740 0.1557780919 -0.5387098171 -0.0028637776 0.0032108898 -0.0040851361
-0.0635827901 0.7556048087 -0.4264386999 -0.0024131902 0.0027340866 -0.0009873638
0.4405902692 0.4302694125 0.0775128377 -0.0012809033 0.0034153145 -0.0024985860
0.4215974756 0.5061170054 -0.3521324405 -0.0021754838 0.0045415105 -0.0024854437
0.0458704163 1.1837056534 -0.5023858382 -0.0031868559 0.0025661831 -0.0039457097
-0.1235290944 0.0587740802 -0.5427841305 -0.0028609712 0.0031417829 -0.0040890828
-0.0821842534 0.5003650817 0.3788734953 -0.0028476556 0.0046671081 -0.0022184728
0.4139063529 0.5049455944 0.2548853435 -0.0027504163 0.0046868947 -0.0024538939
0.4315729345 0.4228606804 0.4709802139 -0.0035224574 0.0036287681 -0.0011412861
-0.4807555028 0.0598300065 0.2688174599 -0.0044541060 0.0030780387 -0.0024726765
-0.3006884674 0.5074959249 0.1289950656 -0.0028502969 0.0046906024 -0.0024579208
0.3004033826 0.5068655618 0.1606095456 -0.0028502279 0.0046905832 -0.0024567982
-0.3239369250 0.5022993397 0.3473323032 -0.0028495479 0.0046891944 -0.0024145966
-0.1218076709 0.3468182049 -0.5139767507 -0.0028615292 0.0033520001 -0.0040680037
-0.4802982936 0.2217919600 -0.2911695826 -0.0044450499 0.0032537971 -0.0024792213
-0.4701426821 0.2881232853 -0.1715104227 -0.0044320037 0.0033525181 -0.0024724199
0.3185535528 0.5145561953 -0.3011396562 -0.0028498655 0.0046905351 -0.0024543157
0.4419136411 0.4183988998 -0.1306319913 -0.0012841155 0.0034309908 -0.0024977986
-0.0664533972 0.7788271082 -0.4200576368 -0.0030687652 0.0029893440 -0.0009079017
0.4613487151 0.3179313196 -0.3434094632 -0.0012746970 0.0033834601 -0.0024957972
0.4055717007 0.4713920357 0.4301585313 -0.0030860885 0.0040512056 -0.0012434840
-0.4461400647 0.4030618502 -0.1389817922 -0.0044165841 0.0034322320 -0.0024747646
0.4699311578 0.2808296385 -0.0939592155 -0.0012671243 0.0033400717 -0.0024993703
-0.4601780402 0.3400098594 -0.1577268546 -0.0044226589 0.0034033380 -0.0024745192
-0.0849359839 0.5150522639 -0.3209409834 -0.0028502552 0.0046904725 -0.0024515910
-0.0763014928 0.5084933977 0.0693018778 -0.0028502680 0.0046906313 -0.0024594941
-0.1500844783 0.5016405413 0.3607457883 -0.0028495127 0.0046864216 -0.0023828288
-0.4698683662 0.2592907738 0.4171822378 -0.0044396133 0.0032989094 -0.0024729588
0.0507386438 0.6467864013 -0.4426114466 -0.0028304462 0.0028553381 -0.0008996794
0.1476682098 0.5053110891 0.2403023815 -0.0028502087 0.0046904597 -0.0024508004
-0.2390972269 0.4080176450 -0.5020075715 -0.0028607258 0.0033658289 -0.0040656302
-0.4871336776 0.0620752556 -0.4551996347 -0.0044533827 0.0030487758 -0.0024581710
-0.1653267520 0.2267148660 0.5168679574 -0.0028378056 0.0033182340 -0.0008997949
0.4845021530 0.0222601998 0.1104118510 -0.0012468758 0.0030776345 -0.0024983984
-0.1269237964 0.4455896504 -0.4966083690 -0.0028649067 0.0033549958 -0.0040674760
0.4620680054 0.3410524797 0.3524417252 -0.0012786790 0.0034049738 -0.0025017614
-0.3998239884 0.5176202144 -0.4149656390 -0.0029403114 0.0046846944 -0.0023861036
0.0642695701 0.5142225631 -0.2809776327 -0.0028502840 0.0046905575 -0.0024555169
-0.3126171466 0.5066767460 0.1756874521 -0.0028503017 0.0046905768 -0.0024564294
0.4663034819 0.3006158908 -0.1043364017 -0.0012708801 0.0033628123 -0.0024993286
-0.4166126601 0.5046644275 0.2203416778 -0.0031126347 0.0046656568 -0.0024607017
-0.4855666271 0.1097806708 -0.2339619403 -0.0044538895 0.0031075100 -0.0024743701
0.4511894343 0.3673089918 -0.4091245444 -0.0012846047 0.0034326554 -0.0024913533
0.3893053792 0.3871848561 0.4735946574 -0.0028870907 0.0035970387 -0.0009676013
-0.2183948420 0.5021585839 0.3503931645 -0.0028499264 0.0046890901 -0.0024120788
-0.2859607370 0.0590043182 0.5296276845 -0.0028370903 0.0031177753 -0.0008830410
-0.1064900742 0.5062502222 0.1958354784 -0.0028501622 0.0046905335 -0.0024543029
0.0350696507 0.1144721103 0.5257383700 -0.0028353936 0.0031480517 -0.0008840353
0.4688759837 0.3121836057 0.4539188412 -0.0012806932 0.0033365468 -0.0026681589
-0.0852674928 0.3852336886 0.4781890710 -0.0028318687 0.0036474801 -0.0009840120
0.0543941906 0.5066241829 0.1759467797 -0.0028502584 0.0046905736 -0.0024562770
0.3019637778 0.2695309055 -0.5293790633 -0.0028660325 0.0033029988 -0.0040751418
-0.4772251238 0.2199329496 0.0249315966 -0.0044458164 0.0032465739 -0.0024759449
-0.4009384789 0.0647972903 0.5304151982 -0.0028448555 0.0031227677 -0.0008831067
0.1596439466 0.5105024863 -0.0581070363 -0.0028503161 0.0046906538 -0.0024608989
0.4389854353 0.4976606846 0.2458275841 -0.0015788466 0.0040238432 -0.0025055237
-0.4502260259 0.3988448484 -0.4665149100 -0.0043912727 0.0034037389 -0.0023661743
0.0751745703 0.3333856805 0.4930755909 -0.0028402208 0.0035068766 -0.0009388260
0.3272495397 0.5112399338 -0.1066853497 -0.0028499649 0.0046906538 -0.0024609214
0.1568618915 0.5132143728 -0.2267616245 -0.0028502696 0.0046906137 -0.0024585142
-0.4346310808 0.1146050337 -0.5375771694 -0.0028769088 0.0031716343 -0.0040876042
0.4480885636 0.4076369295 0.4263403765 -0.0012844668 0.0033426601 -0.0026883833
-0.4057070969 0.4159307898 0.4719081418 -0.0024412390 0.0036236234 -0.0010710405
-0.3960017714 0.2092063410 0.5207308444 -0.0028395729 0.0032848384 -0.0008956862
-0.0149490220 0.5129145082 -0.2079686112 -0.0028503835 0.0046906169 -0.0024586537
0.4373530465 0.4977049758 0.1141033689 -0.0014702563 0.0038354844 -0.0025208824
-0.4797532349 0.1497494180 0.2818021215 -0.0044527621 0.0031449438 -0.0024719645
-0.4179603570 0.5024277615 0.3242014022 -0.0030234492 0.0046794743 -0.0024491485
-0.3781008592 0.5085965658 0.0637606606 -0.0028532685 0.0046906329 -0.0024598485
0.0608405102 1.1333657211 -0.4510532314 -0.0027871284 0.0034189020 -0.0009202695
0.4407979751 0.4175547592 -0.2214331423 -0.0012843898 0.0034321871 -0.0024987753
-0.3329327973 0.5304010848 -0.4458950646 -0.0027598862 0.0036241285 -0.0010825551
0.4704330014 0.2721487264 -0.2145464669 -0.0012636346 0.0033166656 -0.0024975885
0.4645515799 0.3172998548 0.0134815794 -0.0012743506 0.0033821081 -0.0024969438
-0.1176642023 0.5092894271 0.0210271816 -0.0028502808 0.0046906425 -0.0024602077
-0.4823592109 0.0568534152 0.0315613516 -0.0044540371 0.0030697603 -0.0024751206
0.4422869652 0.4172854854 -0.0364004526 -0.0012840145 0.0034305385 -0.0024974779
-0.1895259792 0.5195024465 -0.4308467931 -0.0028483981 0.0046507439 -0.0021851862
-0.4861784417 0.0542193343 -0.4299940887 -0.0044535335 0.0030481584 -0.0024642346
0.2776149743 0.5181949320 -0.4242668814 -0.0028502776 0.0046781384 -0.0023327899
0.1459288472 0.6688614674 -0.4609233668 -0.0017981457 0.0042930528 -0.0024863642
-0.0591243485 0.4961480062 0.3938471303 -0.0028460214 0.0046143028 -0.0020037218
-0.4791517946 0.1272841681 0.4884997274 -0.0044426828 0.0031038664 -0.0026531755
0.4707514128 0.2892214549 0.1880451873 -0.0012694512 0.0033553871 -0.0024986101
0.4809409411 0.1015746792 -0.4299454402 -0.0012472238 0.0030813407 -0.0025083751
0.4752438322 0.2761195783 0.4197906627 -0.0012665533 0.0033346640 -0.0025052254
0.4818381805 0.2180957672 -0.5397444365 -0.0017636996 0.0033134742 -0.0035638524
-0.3113666969 0.5090937121 0.0345690724 -0.0028502937 0.0046906409 -0.0024600954
0.0299959127 0.7123822628 -0.4329501429 -0.0028493106 0.0028665513 -0.0008979234
-0.4777083691 0.1793373498 0.4851959460 -0.0044409283 0.0031660662 -0.0026532797
0.1641674057 0.1217793374 -0.5421013502 -0.0028623327 0.0031752795 -0.0040875240
-0.0597337415 0.4405423352 -0.4979064874 -0.0028642507 0.0033560174 -0.0040672996
0.0117195163 0.5133633011 -0.2337163035 -0.0028503739 0.0046905960 -0.0024575472
0.4718571936 0.2864487591 0.2318559717 -0.0012689348 0.0033523385 -0.0024997263
-0.0329566899 0.0691552115 0.5272743920 -0.0028380590 0.0031243794 -0.0008831516
0.4841945570 0.1537281248 0.1429803561 -0.0012483785 0.0031488504 -0.0024971283
-0.2612084599 0.5022902371 -0.4873914512 -0.0028653541 0.0033858752 -0.0040609393
0.4814693597 0.0120673181 -0.2988063812 -0.0012486880 0.0030314622 -0.0025015978
-0.1202893041 0.5077650528 0.1125437692 -0.0028502568 0.0046906105 -0.0024583250
-0.0968099526 0.3063644611 -0.5208177638 -0.0028626326 0.0033352510 -0.0040706722
-0.2868833535 0.5166967896 -0.3847895168 -0.0028500178 0.0046893772 -0.0024239815
-0.4807555028 0.1278365798 0.2942348974 -0.0044536441 0.0031238550 -0.0024727679
-0.4588777200 0.2912060228 -0.5229622727 -0.0025385617 0.0032673885 -0.0040484753
0.1331775139 0.0803665360 -0.5440174013 -0.0028633799 0.0031550904 -0.0040885616
-0.1405657651 0.5099405919 -0.0190198009 -0.0028502969 0.0046906522 -0.0024607979
0.2585803608 0.5116314150 -0.1300201526 -0.0028503450 0.0046906506 -0.0024607081
-0.4699270475 0.2822886023 0.0182041822 -0.0044359985 0.0033270480 -0.0024752505
0.1941343643 0.5568318269 -0.4905663218 -0.0029493692 0.0033214415 -0.0040672579
0.3161964194 0.5158339065 -0.3586192890 -0.0028499697 0.0046903106 -0.0024449324
-0.0707561332 0.0888570591 -0.5419668600 -0.0028614892 0.0031557175 -0.0040885488
0.1586777108 0.5108121864 -0.0779273642 -0.0028503498 0.0046906538 -0.0024609085
0.2160188650 0.5559716829 -0.4895592572 -0.0028955439 0.0033832885 -0.0040573005
-0.0544199221 0.5092961322 0.0199574842 -0.0028502327 0.0046906457 -0.0024603761
-0.4687498135 0.1665791638 0.5405689991 -0.0019409880 0.0031241084 -0.0011779485
0.4814693597 0.1176601698 -0.2770065611 -0.0012471581 0.0031117342 -0.0024967161
-0.3507625498 0.5351311609 -0.4472022375 -0.0029118328 0.0035099028 -0.0009560337
0.4570552918 0.3495538759 -0.0873045341 -0.0012796123 0.0034095011 -0.0024972838
-0.0493196412 0.7797555237 -0.4545589437 -0.0026603938 0.0032085564 -0.0040620154
0.2741638298 0.4944644270 -0.4924510012 -0.0028562194 0.0033339007 -0.0040698335
0.1250502997 0.5152872809 -0.3328158774 -0.0028501606 0.0046904148 -0.0024493153
0.4748687458 0.2697892917 0.3523166312 -0.0012653105 0.0033266295 -0.0025020918
0.1199987378 0.5078009759 0.1084011346 -0.0028503482 0.0046906105 -0.0024583522
-0.0731377135 0.3704954123 0.4830560365 -0.0028331981 0.0036059826 -0.0009699203
0.4464867640 0.4048243976 0.1216473017 -0.0012838958 0.0034299836 -0.0024977249
0.3529101411 0.1840622395 -0.5394353715 -0.0028683402 0.0032211824 -0.0040843102
0.0493888364 0.6887861501 -0.4365803126 -0.0028429359 0.0028549997 -0.0008996233
0.4562538290 0.3436749995 -0.4235720123 -0.0012802522 0.0034121793 -0.0025005650
0.0415083174 0.5056478534 0.2241024247 -0.0028502247 0.0046905078 -0.0024530407
-0.4460594094 0.4111469510 -0.3728400616 -0.0044195477 0.0034183567 -0.0024761405
-0.4599792413 0.3378786131 -0.0049276377 -0.0044229764 0.0034018257 -0.0024756418
-0.4632882108 0.3289037846 -0.2314213732 -0.0044245320 0.0033932555 -0.0024733870
0.4633825200 0.3289640552 0.1893359285 -0.0012762461 0.0033923671 -0.0024981450
-0.0602601908 0.7456877873 -0.4578064430 -0.0027887353 0.0032373751 -0.0040753246
-0.4823591611 0.1267545627 0.1295373707 -0.0044539456 0.0031118015 -0.0024754285
0.0420948656 1.1430199781 -0.4929396318 -0.0029490292 0.0026234644 -0.0040116526
-0.3889627662 0.2281005644 0.5182928344 -0.0028333056 0.0033195491 -0.0009004653
0.3736618353 0.4136024574 -0.5058474068 -0.0028555073 0.0033623312 -0.0040662685
-0.1870742543 0.3161738624 0.4996508038 -0.0028372876 0.0034741626 -0.0009311169
-0.4791517946 0.0995905331 0.4716925056 -0.0044468332 0.0030903295 -0.0025810519
-0.0777281852 1.1704726143 -0.4910125199 -0.0043226019 0.0037099301 -0.0023732402
0.3505701610 0.5155795086 -0.3479014656 -0.0028492769 0.0046903523 -0.0024466949
-0.4561185562 0.3655079282 -0.3390344304 -0.0044179600 0.0034257322 -0.0024745176
-0.0637366980 0.5132237208 -0.2258831276 -0.0028503225 0.0046906105 -0.0024583827
0.4477229230 0.3834401624 -0.4008538095 -0.0012878009 0.0034474993 -0.0024876472
-0.4753183710 0.2600884678 -0.3150608834 -0.0044378877 0.0033121640 -0.0024784339
0.3819214115 0.2019808807 -0.5383285162 -0.0028673571 0.0032371955 -0.0040826920
0.4355373747 0.4365687442 -0.3877191916 -0.0012769325 0.0033945337 -0.0024925433
