0.1077161676 0.9266999969 0.2132869260 -0.0561218251 -0.0018340121 -0.0875307784
0.4340844379 0.0470229660 -0.5193594476 -0.0545530019 0.0001895276 -0.0879404443
-0.2330328625 0.9125466174 -0.3640291062 -0.0566660347 0.0006497075 -0.0859917383
0.4439819024 1.0673888961 0.3209303197 -0.0571109655 0.0016449232 -0.0875248026
0.3435757116 0.7735682645 0.2973032442 -0.0555922103 -0.0002776235 -0.0892287280
-0.0821309967 0.7916137253 -0.3745289106 -0.0563298994 -0.0007335584 -0.0864381253
-0.2920071043 0.9704783275 0.4417916056 -0.0567857163 -0.0017711447 -0.0874906621
0.2489530238 1.8587158518 -0.4230680366 -0.0565863016 0.0001362376 -0.0857307722
0.3171268771 0.8125027415 -0.3626117993 -0.0563870804 -0.0001486592 -0.0857121610
-0.3463737057 0.2328763004 0.4648334151 -0.0545017432 -0.0001535070 -0.0872766950
0.3337681088 0.9487826666 -0.2761980528 -0.0546534899 0.0006486753 -0.0877362077
0.3723228061 0.5962514725 0.3696235757 -0.0544635641 0.0002689123 -0.0876563511
-0.3886880972 0.0934059034 0.4366477644 -0.0566811437 -0.0003398531 -0.0892809083
-0.2604502465 0.9616481163 -0.4192546230 -0.0567412610 -0.0017832253 -0.0875957121
-0.2190039682 0.9021343983 0.3322302972 -0.0562472300 0.0000791580 -0.0892664721
-0.1549299866 0.9791402324 -0.0640891552 -0.0559882251 0.0018192791 -0.0875206019
-0.3653900920 0.1105161866 -0.4832333422 -0.0545683727 -0.0002734098 -0.0869506238
0.3962128273 1.5423012833 -0.4002316011 -0.0558736584 -0.0001390578 -0.0893355162
-0.3348667248 1.7741664977 -0.4302946648 -0.0566277377 -0.0001306324 -0.0893481682
-0.2601318782 1.4109938590 -0.4164526346 -0.0566241304 -0.0008150444 -0.0890648786
-0.2657563722 0.8940958684 0.3166623407 -0.0545731725 -0.0001933486 -0.0874157049
-0.3792082412 0.3451740644 0.4200540367 -0.0581090400 0.0001510905 -0.0876187305
0.2508090903 0.9909271224 -0.2684375463 -0.0567894692 0.0017711189 -0.0875565322
0.3363565098 0.5666471657 -0.4925909637 -0.0580793233 -0.0001928030 -0.0877788160
-0.3013344488 0.8472787888 0.2873666570 -0.0568037524 0.0000203162 -0.0886099132
-0.0044326901 1.4526010026 -0.4382558486 -0.0563100642 -0.0001572156 -0.0893790757
-0.3227708468 0.8681532931 -0.4916188014 -0.0563390308 0.0000823155 -0.0893821520
-0.0081048820 0.9234638625 0.0476513694 -0.0562741690 -0.0018422588 -0.0875252026
0.3298450057 0.9747355346 -0.0528891071 -0.0546846093 0.0008642884 -0.0876697090
0.1586095790 0.9725912368 -0.4230554638 -0.0565454627 0.0018232421 -0.0875894949
-0.1794867689 0.9831992118 0.3937250737 -0.0559707659 0.0018155834 -0.0874741909
0.0039689122 0.9328663725 -0.3653441759 -0.0562911120 0.0006951784 -0.0859097325
0.3576691839 0.7331964557 0.3779254162 -0.0544582169 0.0002472763 -0.0875942910
-0.1257718861 0.9347079272 0.3055023149 -0.0565514828 -0.0018216126 -0.0875019557
0.1553997126 0.9329909129 0.2221645841 -0.0560023572 -0.0018213601 -0.0875121617
-0.0963345493 0.9305443770 0.4145448449 -0.0565279575 -0.0018225582 -0.0874395785
-0.1717964273 1.8818279183 -0.4325923037 -0.0559009145 0.0013091602 -0.0863686443
0.3643954845 0.3456765283 -0.5113682521 -0.0576714325 -0.0001123179 -0.0885976557
-0.4026708940 0.0796638912 0.4790043440 -0.0581156573 0.0001596947 -0.0875253611
0.3368368953 0.4334064966 0.3985198179 -0.0581051582 -0.0002505960 -0.0875308577
0.2991056052 1.0046426418 -0.3147299971 -0.0568113761 0.0017641736 -0.0875739010
0.3331794384 1.0708684859 -0.4128935624 -0.0547619794 0.0001586883 -0.0874818348
0.0137468591 0.9130166532 0.3311537337 -0.0562890826 0.0003882014 -0.0892789950
-0.3833228515 0.2958110815 0.4177430103 -0.0581076724 0.0001482390 -0.0876425894
0.2556835141 1.5992277837 -0.4339003414 -0.0560035240 -0.0001344497 -0.0893603447
0.2768262819 0.9208812548 0.2836522162 -0.0569112945 0.0004481362 -0.0888445984
0.2846071525 0.8605480668 0.0389914737 -0.0579409512 -0.0005581408 -0.0875407798
-0.2703695221 0.8606504441 0.0210818597 -0.0546071895 -0.0004638093 -0.0875043113
0.1567316443 1.4309029787 -0.4013969866 -0.0564156156 0.0001292536 -0.0857092727
-0.2487585065 0.9021781053 0.3944527964 -0.0566279810 0.0004635567 -0.0861962883
0.3465669290 0.6885098938 -0.3808674707 -0.0560142351 -0.0002633992 -0.0857574218
0.3365821631 0.9301665383 -0.0317313206 -0.0546222746 0.0004991295 -0.0876017635
0.0556025066 0.9238684208 0.1892016558 -0.0562240088 -0.0018420745 -0.0875325442
-0.3083485310 0.7228167477 -0.3852392058 -0.0551073696 -0.0003287587 -0.0861858538
0.1482321917 1.4234693747 -0.4327398220 -0.0561542274 -0.0001434576 -0.0893762242
-0.4218796870 1.0170675310 0.3196828066 -0.0569839901 -0.0017022056 -0.0875024202
-0.3544703161 1.5341692642 -0.4090475788 -0.0566417666 -0.0001321051 -0.0893453794
-0.1926555129 1.5976185474 -0.4392340586 -0.0564356830 -0.0001493044 -0.0893731736
0.3708470814 0.2092944654 0.4698636831 -0.0578730480 -0.0001638015 -0.0868320997
-0.1503879932 1.8513303989 -0.4642773423 -0.0564974500 -0.0001341990 -0.0893665066
-0.3064328375 1.6692218985 -0.3965836497 -0.0559483337 0.0001292223 -0.0857343334
-0.4996473898 1.0489956342 0.1300510121 -0.0577439880 0.0009866686 -0.0875687086
-0.0546294411 0.8023105759 -0.3640291062 -0.0563173026 -0.0006228202 -0.0858553164
0.0551687588 1.7731822124 -0.4337832551 -0.0563069252 0.0001569372 -0.0857066682
0.3950974212 1.7264960305 -0.4148154714 -0.0558725691 -0.0001398946 -0.0893351899
0.2893051449 0.8294690214 -0.2459967385 -0.0580031938 -0.0005659119 -0.0876439110
0.1624232599 0.9731051491 -0.3003270022 -0.0565514514 0.0018223444 -0.0875738550
-0.2989203705 0.9494069429 0.4088150354 -0.0562215186 0.0003533752 -0.0857409912
0.3729161437 0.2378475054 -0.4885193857 -0.0581112888 -0.0001945246 -0.0876007128
-0.3460512177 0.3012131995 -0.4840490981 -0.0544456497 -0.0001820754 -0.0875671658
0.3471013436 1.0203118789 -0.2237893459 -0.0569032082 0.0017328403 -0.0875895483
-0.0375645478 0.7997493443 0.3423406174 -0.0562928779 -0.0007468371 -0.0891748814
-0.2731293925 1.5948062092 -0.4546020695 -0.0580762949 0.0001971273 -0.0877270541
-0.2268984524 0.8319886289 -0.3640291062 -0.0564048824 -0.0006980576 -0.0859236840
0.3546878665 0.6677913166 -0.3844109343 -0.0558903342 -0.0002479325 -0.0857715576
-0.3355123200 0.8275906793 -0.1085132764 -0.0580472896 -0.0002962513 -0.0875979701
-0.3759173183 1.0410135793 -0.1850341131 -0.0555894141 0.0017088137 -0.0875618942
-0.1855205049 1.5293964583 -0.4336643955 -0.0564404754 -0.0001483275 -0.0893729469
-0.2752126993 0.8255375095 -0.3218373990 -0.0546436451 -0.0007479283 -0.0876115456
-0.3838473955 0.1811228087 -0.5229960077 -0.0563389681 0.0000858508 -0.0893829907
-0.3221955380 0.4143944714 0.4046165540 -0.0544492790 -0.0001998350 -0.0874898087
0.3407112299 1.0182578077 0.0092217322 -0.0568773144 0.0017425081 -0.0875639512
0.3653270623 0.4994500883 0.4504087916 -0.0563378474 0.0004299747 -0.0857789159
0.4045308147 0.3526595039 -0.4799711075 -0.0544457179 0.0001824422 -0.0875571239
0.1009479185 0.9263712088 -0.1692096087 -0.0561944985 -0.0018400395 -0.0875736596
-0.3020163835 1.7240169245 -0.4322548523 -0.0566107743 -0.0001276150 -0.0893515082
-0.2963900758 0.8014522946 -0.3841599125 -0.0544469658 -0.0001906169 -0.0874933403
0.2832430876 1.0478959214 -0.4773523299 -0.0578131759 -0.0001295319 -0.0884743594
0.3067362571 1.3189745615 -0.4204312302 -0.0570617122 -0.0000567608 -0.0864181962
0.3115566518 0.8145650261 0.1405269926 -0.0565676148 -0.0010244329 -0.0874889756
-0.3210028982 0.9410279811 0.0204197343 -0.0579297590 0.0006021832 -0.0875343027
-0.3024571394 1.0128269739 -0.4262280912 -0.0562398976 0.0000500182 -0.0857037651
0.0404771676 0.9234639197 0.4971151680 -0.0562539799 -0.0018417574 -0.0875060366
0.2334503456 0.8726928258 0.3357214754 -0.0561976486 -0.0002709288 -0.0892261180
-0.2982216733 0.8558719573 -0.4908060832 -0.0555175940 -0.0000043537 -0.0891650256
-0.2698936654 0.8641005033 0.2395279424 -0.0546077646 -0.0004336925 -0.0874117659
0.3986432755 1.0011055614 0.0909908261 -0.0554598803 -0.0016499203 -0.0875551000
0.2077090098 1.8722531666 -0.4606477312 -0.0560403151 -0.0001350764 -0.0893655684
-0.0161947627 0.9640151699 0.0875328226 -0.0562562176 0.0018421040 -0.0875306899
0.3377648456 0.9223426631 0.0761154195 -0.0546090420 0.0004363431 -0.0875429641
-0.1189022237 0.9337265671 0.1408658227 -0.0565444324 -0.0018228292 -0.0875131828
0.3543504723 0.8657765091 -0.4678169812 -0.0544458782 0.0001839278 -0.0875721057
-0.4305014018 1.7998215717 -0.4130264270 -0.0566199887 -0.0001382154 -0.0893490695
-0.2879086796 0.8111403927 0.3404036621 -0.0552463408 -0.0008717702 -0.0873256312
0.3734809625 0.9900494907 -0.2487652703 -0.0555828042 -0.0017063013 -0.0875535517
-0.3272572499 0.8921302231 0.3715226450 -0.0579637908 -0.0001881046 -0.0874262906
0.1302435027 1.6570706145 -0.4515268704 -0.0561550735 -0.0001431351 -0.0893762887
-0.3724078570 0.4285318202 -0.5095872258 -0.0574625195 0.0001582220 -0.0888633736
-0.1124889293 0.9328320034 -0.2082466307 -0.0565346079 -0.0018252438 -0.0875535756
-0.1682123572 1.5820247984 -0.4086060064 -0.0561137701 0.0001455626 -0.0857129573
-0.0235805695 0.9345233671 -0.3865619544 -0.0562545587 0.0006841227 -0.0871010673
0.1842513632 0.8879599801 0.3342804312 -0.0562964335 0.0000165892 -0.0892495253
0.3644782295 1.4951058028 -0.3732081306 -0.0564801383 -0.0000286274 -0.0857173147
-0.3268438606 1.0129344146 -0.4166128399 -0.0558460080 0.0000225908 -0.0867638297
-0.3834086359 0.3655208469 -0.4611332907 -0.0581146490 0.0001621499 -0.0875956955
-0.3288288821 0.5275570418 -0.5057506076 -0.0553699983 -0.0000216839 -0.0891095385
-0.3547366092 1.9019920817 -0.4043160614 -0.0559334808 0.0001315650 -0.0857372531
-0.2304254761 0.9943468602 -0.2799290587 -0.0558717230 0.0017965501 -0.0875849789
0.3439953476 0.8811254535 -0.0946444583 -0.0545555787 0.0000962393 -0.0875657982
0.1650101697 0.9345235348 0.3742322133 -0.0560006522 -0.0018210560 -0.0874996645
-0.2607045862 0.9307212876 0.2308109375 -0.0545270233 0.0000979941 -0.0875004036
0.0123196872 1.6454962429 -0.4240115678 -0.0562926493 0.0001525817 -0.0857061226
-0.2496427481 0.8355197446 -0.4248560672 -0.0564849141 -0.0004775359 -0.0891848423
-0.3222800266 0.4192295217 0.3737901893 -0.0550020044 -0.0004129929 -0.0887490190
0.3063222762 0.8294648593 -0.4140821784 -0.0554785947 0.0000369920 -0.0885826646
-0.3325533907 0.8792683732 0.2938347637 -0.0578530433 0.0004630462 -0.0879884718
0.0970273186 0.9653854501 0.2573800379 -0.0563553822 0.0018398091 -0.0874948463
-0.3772600624 0.9997430448 -0.2104260718 -0.0569784954 -0.0017053779 -0.0875481786
0.3653664930 0.2479536082 0.4664617196 -0.0578545714 -0.0001559013 -0.0867802511
0.1248432003 1.5519191244 -0.4438564763 -0.0561640279 -0.0001458686 -0.0893766831
0.3419060336 0.8200830490 -0.2394832235 -0.0550399770 -0.0005531641 -0.0875811911
0.0197582752 0.8798918625 0.3959804674 -0.0562997771 0.0003683294 -0.0858701821
0.4279835380 0.0696592735 0.4668174523 -0.0544602205 0.0001713846 -0.0876779575
0.0790492614 0.9641691856 0.4219689432 -0.0563186648 0.0018414883 -0.0874792819
0.3143155232 0.9407992625 -0.3590566920 -0.0563599774 0.0004018340 -0.0857717143
-0.3075918381 1.2156306496 -0.4147273534 -0.0581078272 0.0002071103 -0.0874817482
-0.1430412133 0.9418358609 -0.3640291062 -0.0563430288 0.0006280181 -0.0858663500
0.1935580210 0.9392169155 0.1620275169 -0.0559810070 -0.0018167373 -0.0875596989
0.3552023981 0.9829197562 -0.0266093347 -0.0555921660 -0.0017100431 -0.0875441954
-0.0267432766 0.9364372598 0.5240458516 -0.0562914235 -0.0002244589 -0.0872172505
0.3272213620 0.7388503826 -0.3722708996 -0.0563337462 -0.0003034602 -0.0857294691
0.2370768361 0.9472911084 0.2431357019 -0.0558838073 -0.0017991380 -0.0875197743
-0.1424433967 0.9373385163 -0.4084339896 -0.0565517371 -0.0018204385 -0.0876337179
-0.2475289393 1.2881915111 -0.4347376135 -0.0544538152 -0.0001721385 -0.0876528434
0.2363057714 0.9863079930 -0.2047385924 -0.0566510897 0.0018046382 -0.0875676340
0.4511635002 1.0477766692 -0.2700219191 -0.0560183050 0.0014786684 -0.0879509784
-0.2147971332 1.5124968927 -0.3991617857 -0.0560620119 0.0001389140 -0.0857183414
-0.4843640629 1.0419571382 0.1522544528 -0.0570969550 -0.0016516990 -0.0875383136
0.2762303565 0.9159638816 -0.1902008971 -0.0579863152 0.0001858890 -0.0876086756
-0.0756221875 1.8556381200 -0.4399110129 -0.0561701235 0.0001532766 -0.0857094515
-0.2407272611 1.3640815464 -0.4629417132 -0.0545562442 -0.0001484712 -0.0880968212
0.3371222033 0.4364110738 0.4267478244 -0.0581075470 -0.0002296402 -0.0875165375
0.1077128074 0.9661851182 0.3685861331 -0.0563877937 0.0018377097 -0.0874824984
0.3091137157 1.0877314871 -0.4255099884 -0.0563035373 0.0000889198 -0.0857043899
-0.3413896477 1.8024181290 -0.3996931350 -0.0559299842 0.0001316222 -0.0857379590
0.1769950349 0.9363832584 0.0474978458 -0.0559836373 -0.0018188349 -0.0875339175
0.3840901467 0.9939716648 0.1412603962 -0.0555713337 -0.0017013375 -0.0875221871
-0.0736050438 0.9347492158 0.5252204902 -0.0563950985 -0.0011968829 -0.0874783751
0.0651084279 0.9238350637 0.2937375899 -0.0562204016 -0.0018419712 -0.0875275472
0.0408410160 0.9640792962 0.1245190931 -0.0563089435 0.0018420394 -0.0875107184
0.3352621701 0.5962849421 -0.4992423385 -0.0576677275 -0.0001075402 -0.0886301115
0.2956170425 1.0036305696 0.4440433422 -0.0567870250 0.0017715097 -0.0875061195
-0.1880680947 1.6083596118 -0.4090512081 -0.0561144871 0.0001439829 -0.0857127748
-0.3592265292 0.1717103139 -0.4912942030 -0.0544458875 -0.0001829970 -0.0875623937
0.1274883584 1.6886099081 -0.4543909594 -0.0561563508 -0.0001440880 -0.0893763200
-0.1054185637 0.9318002989 -0.0163435648 -0.0565334264 -0.0018239794 -0.0875087720
-0.4329187150 1.8289720983 -0.3829406379 -0.0559468425 0.0001340700 -0.0857361121
0.3770693993 0.5518924620 0.4056792526 -0.0544550392 0.0002320696 -0.0875853752
-0.2579771882 0.9699430392 -0.2310734906 -0.0546309046 0.0004456165 -0.0877434018
0.3696742712 0.6210036016 0.4206827018 -0.0544494781 0.0002089130 -0.0875286366
-0.2003030821 0.8752923102 -0.3640291062 -0.0567471004 0.0002421724 -0.0858641934
0.1999942618 0.9794676160 -0.0439223744 -0.0566324508 0.0018076814 -0.0875170684
0.2890655420 0.8310542955 0.1779575358 -0.0577476062 -0.0009528027 -0.0874976572
-0.2366727276 0.9557373467 0.0728867945 -0.0567126834 -0.0017908545 -0.0875491002
0.3293541561 1.0144873988 0.0311530294 -0.0568644965 0.0017471899 -0.0875411006
0.2078048897 1.5187271697 -0.4342501960 -0.0560498889 -0.0001405232 -0.0893663628
-0.3398823962 1.0251083115 0.2005667735 -0.0556626036 0.0017358300 -0.0875318143
-0.2337797955 1.4473463476 -0.4453188117 -0.0546683169 -0.0000873457 -0.0871132493
-0.0321852307 0.9234638625 0.3224001645 -0.0563641726 -0.0018398073 -0.0875019962
-0.1856404888 0.8203609305 -0.4248560672 -0.0563752929 -0.0007545455 -0.0891226329
0.3284005018 1.1089682510 -0.4730264952 -0.0545728131 0.0001953227 -0.0881502365
0.3044545364 1.0357528509 -0.4846073919 -0.0563352153 0.0000672119 -0.0893818977
-0.3014015004 0.9765224114 -0.1500065814 -0.0568399316 0.0010611134 -0.0876049910
0.3432080826 0.9752140087 -0.4411343942 -0.0544457971 0.0001835223 -0.0875489399
-0.2838405742 1.4649173268 -0.4581138367 -0.0580693993 0.0001811040 -0.0878103742
-0.3547390570 0.7020944030 -0.4428155758 -0.0581099875 0.0002094530 -0.0875747453
0.2156703632 0.9526438663 -0.4081222182 -0.0561537648 0.0009985852 -0.0880997999
0.1542946987 1.6877820015 -0.4207867380 -0.0564296021 0.0001413840 -0.0857116357
-0.3344396366 1.6143802976 -0.3872477692 -0.0559183718 0.0001329770 -0.0857403460
-0.1083544858 1.7481123767 -0.4580910266 -0.0564381640 -0.0001539328 -0.0893727792
-0.3459366898 0.5525362564 0.3418255531 -0.0564190145 -0.0003581860 -0.0893434163
-0.3027034351 1.0135687034 0.0365229718 -0.0557239191 0.0017551435 -0.0875811339
0.3461861080 0.8666329342 -0.3505108045 -0.0545410835 -0.0000258220 -0.0876619748
0.3107139238 0.8536195995 -0.4906173316 -0.0568897802 0.0000086227 -0.0892567711
0.4090237152 1.0486667889 -0.0193880648 -0.0571154206 0.0016425381 -0.0875392924
0.4050487194 0.0647011260 0.4897011393 -0.0565936008 0.0001105668 -0.0857319906
-0.3785412146 1.6659196121 -0.3819737638 -0.0559162687 0.0001351114 -0.0857409009
0.2744006151 1.8154902466 -0.4469104985 -0.0559678849 -0.0001312720 -0.0893545753
0.0819465805 0.9383522768 0.3302131001 -0.0562979799 0.0004564510 -0.0892629533
-0.3937388418 1.7005097482 -0.3813103371 -0.0559164401 0.0001357363 -0.0857409119
-0.0977976570 0.8969305375 -0.3640291062 -0.0562670190 0.0000294587 -0.0858174931
0.4758864360 1.0685377718 0.2930496646 -0.0550637217 0.0007416263 -0.0873991968
-0.0055101070 0.9640151699 -0.2531833573 -0.0562967136 0.0018427085 -0.0875509490
-0.4450404961 1.0682774398 -0.1255913618 -0.0556628138 0.0017367738 -0.0875591219
0.3547540757 1.8714559740 -0.4035245773 -0.0566518878 0.0001338267 -0.0857426482
-0.2784143393 0.9964842957 -0.4780760583 -0.0545402706 -0.0001491422 -0.0881192608
-0.2882023669 0.8111955756 -0.2951050851 -0.0552689739 -0.0008109303 -0.0876007903
-0.3341388897 0.8383283706 -0.3235879104 -0.0580785160 0.0000158887 -0.0876672336
0.0299553622 0.8297320519 -0.4248560672 -0.0562699959 -0.0005289328 -0.0891702678
0.3319117326 0.9610633296 0.1983688963 -0.0546601071 0.0007553639 -0.0875386896
-0.1978333711 0.9466135053 -0.3553054362 -0.0566533937 -0.0018021480 -0.0876150809
0.3366632196 0.9296305754 0.1045307159 -0.0546185347 0.0004964568 -0.0875397255
0.3440908606 0.8600921503 0.3117108509 -0.0544728301 0.0003108774 -0.0877105166
-0.2715804431 0.8518713662 -0.3458317955 -0.0546179927 -0.0005370173 -0.0876545263
0.4355930406 1.0191076525 0.2863204111 -0.0554028485 -0.0016176119 -0.0875554207
0.3475358288 0.9261013712 -0.3835542271 -0.0546841430 0.0007247274 -0.0874846347
0.0804651619 0.9368972259 -0.4376970756 -0.0562694890 0.0001684077 -0.0889600185
-0.2347986028 1.7555075048 -0.4150560291 -0.0560126351 0.0001357584 -0.0857241974
-0.4812217826 1.0405027066 0.1875176909 -0.0570844449 -0.0016576969 -0.0875285813
-0.3779218874 1.0413066492 0.1773744633 -0.0555857700 0.0017072875 -0.0875322493
0.3461677696 1.8935381921 -0.4068383399 -0.0566469018 0.0001340995 -0.0857417137
-0.0675377148 0.8815494193 0.3958467587 -0.0563144843 0.0003530194 -0.0858728732
0.5000000000 1.0523011832 0.1011654551 -0.0546292660 0.0005314378 -0.0875598224
0.4785293454 1.0701400314 0.2457765578 -0.0552969138 0.0015409515 -0.0874856411
-0.1333427728 0.9758156722 -0.3428068837 -0.0560024549 0.0018221048 -0.0875548530
0.3017336635 0.6784824310 0.4187523840 -0.0581034790 -0.0001947642 -0.0874348488
-0.2637857630 0.9083827871 0.2396719732 -0.0545542258 -0.0000802142 -0.0874680492
-0.2254819474 0.9528202700 -0.1574736899 -0.0567152068 -0.0017875735 -0.0876241478
-0.3387012601 0.3842657643 -0.5040555888 -0.0545105465 -0.0001596284 -0.0879148085
0.2290794529 0.9585978359 0.3687189976 -0.0563716451 0.0008132399 -0.0870098176
-0.0724805524 0.9674878972 0.3519229632 -0.0561214325 0.0018322408 -0.0874449037
-0.0011852880 0.8948069393 0.3945073029 -0.0562939691 0.0004386416 -0.0858596074
-0.0497206943 0.9253324170 -0.1326834868 -0.0564732501 -0.0018327348 -0.0875433198
0.3729839547 1.7493815165 -0.4215150524 -0.0558669269 -0.0001394357 -0.0893339513
0.0669463938 1.5500338075 -0.4467574099 -0.0562124720 -0.0001564414 -0.0893782720
0.0705693269 1.7492378525 -0.4631445545 -0.0562118600 -0.0001537245 -0.0893784600
0.2622379952 0.9937113346 0.2649951366 -0.0567816925 0.0017725105 -0.0874998083
-0.0203808502 1.7110821726 -0.4594739644 -0.0563358659 -0.0001521559 -0.0893789817
0.2892796068 0.7491168547 0.3157131839 -0.0581041591 -0.0002594417 -0.0875484754
0.3302335038 1.0138420855 0.3932490198 -0.0568612155 0.0017480858 -0.0874954453
-0.0931614961 1.4834239923 -0.4070658198 -0.0561436509 0.0001496251 -0.0857111049
-0.1135613658 0.9729180564 -0.0260012015 -0.0560091017 0.0018227960 -0.0875344114
-0.3168149362 0.4607617652 0.4273921276 -0.0544461437 -0.0001477892 -0.0874795437
-0.3471084880 1.0279987257 0.1155296645 -0.0556149558 0.0017179709 -0.0875403854
-0.1642055654 0.9807739948 -0.1321630495 -0.0559861588 0.0018181768 -0.0875501159
0.3095580456 0.9770771625 -0.1111522062 -0.0557139950 0.0009010482 -0.0876523660
0.3468123529 0.8624899731 -0.0076098878 -0.0545353160 -0.0000566815 -0.0875036348
-0.2342120153 0.9317069221 0.3295842949 -0.0561962349 0.0003691515 -0.0892673218
-0.0243002096 1.8290536617 -0.4388145922 -0.0562677121 0.0001535475 -0.0857061816
0.1724202041 1.4673918210 -0.4343864373 -0.0561247374 -0.0001408734 -0.0893739128
0.0597636016 0.9248489367 -0.1057369404 -0.0562244014 -0.0018419307 -0.0875566631
-0.3145424409 1.5076358840 -0.3833712135 -0.0559199496 0.0001324350 -0.0857400419
-0.3183274188 1.5379051364 -0.3848505105 -0.0559198796 0.0001324701 -0.0857400456
0.1178254758 0.9326498064 0.3295917195 -0.0563409090 0.0005023090 -0.0892917116
0.3097206398 1.0077596364 0.3996250991 -0.0568067993 0.0017654841 -0.0875100678
-0.3497425664 0.6695754377 -0.4994491169 -0.0569627652 0.0001343446 -0.0892134217
0.3079174780 0.7997560389 -0.4181299067 -0.0581155412 -0.0001557484 -0.0875720726
-0.1711226710 0.8799497458 0.3345850324 -0.0562801558 -0.0000734882 -0.0892593830
0.0486382914 1.6945768154 -0.4588990483 -0.0562411842 -0.0001550719 -0.0893788397
-0.2555127913 1.8837673491 -0.4211663775 -0.0559878288 0.0001341124 -0.0857279705
0.3006669153 0.8125850385 -0.0590838889 -0.0573228774 -0.0008757258 -0.0875715841
-0.1621084343 0.7946838630 0.3427086131 -0.0563907650 -0.0008396922 -0.0891342582
0.4114865344 0.0076093846 -0.5146232318 -0.0562706152 -0.0017159654 -0.0877834038
0.1525722432 1.4022992145 -0.3995785794 -0.0563978191 -0.0000267288 -0.0857668555
-0.1770379271 0.9829127795 -0.1840078241 -0.0559830308 0.0018153456 -0.0876145482
-0.3095557950 1.1972308626 -0.4464866451 -0.0581120040 0.0001880364 -0.0875953877
0.3764061698 0.5095954522 0.3547155013 -0.0550993681 -0.0001476934 -0.0888695356
0.2825665259 0.8740477500 -0.0385278800 -0.0580380236 -0.0003643369 -0.0875653097
-0.2691921978 1.3699385395 -0.4228378563 -0.0562567872 0.0000273371 -0.0857019329
0.3611637942 0.7005376493 0.3740712781 -0.0544599883 0.0002545590 -0.0876134976
0.1802814584 0.8526002152 0.3373416236 -0.0562053368 -0.0003108129 -0.0892285658
-0.3248765563 0.9107430907 -0.1278794453 -0.0579459980 0.0004740558 -0.0875894764
0.1242166457 0.9674142081 0.4594979266 -0.0564346379 0.0018348361 -0.0874717615
-0.3005173989 0.9763884225 -0.0700457275 -0.0568356092 0.0009823222 -0.0875788262
-0.0480568207 0.9251555064 -0.1707696378 -0.0564728851 -0.0018327882 -0.0875459778
0.3424120420 0.8915998304 0.2994812642 -0.0545765770 0.0001846375 -0.0874050178
0.3344976876 0.9439563090 -0.1173409974 -0.0546432986 0.0006111100 -0.0876583750
-0.3077194733 1.5794816785 -0.3899060346 -0.0559367157 0.0001306969 -0.0857366890
0.1350501026 0.9297877983 -0.3298352872 -0.0560517284 -0.0018279737 -0.0875781774
-0.3000631137 0.8134194130 -0.0637460635 -0.0559011338 -0.0008775856 -0.0875381569
-0.0710097178 0.8559129639 0.3984422470 -0.0563266682 0.0001040491 -0.0858393742
-0.3527554124 0.9899348503 0.2842226053 -0.0569485446 -0.0017168281 -0.0875239676
0.3053029472 0.8134279638 0.2856860375 -0.0568742822 -0.0011356136 -0.0874419379
0.4867033830 1.0455376435 -0.0891800535 -0.0553077170 -0.0015655072 -0.0875480828
-0.2970543744 1.3220797447 -0.4406800518 -0.0581114363 0.0001853195 -0.0875536936
0.3010039169 1.7118934291 -0.4025235020 -0.0566286482 0.0001332368 -0.0857380844
-0.0715845694 0.9277307448 0.0140451868 -0.0564874781 -0.0018310316 -0.0875322733
0.3081382356 0.9661757804 0.1029470307 -0.0557695319 -0.0017708387 -0.0875249482
0.3510697867 0.8894360145 -0.3855935321 -0.0545604799 0.0004389292 -0.0874825205
0.0909129888 0.9251697380 0.1255498280 -0.0562017812 -0.0018407031 -0.0875480680
-0.2290547166 1.5011936526 -0.4476119513 -0.0546284660 -0.0000997028 -0.0871893456
0.3719540510 0.6718766212 -0.3991378512 -0.0545285015 0.0001141519 -0.0871658222
0.2855048386 0.7763944971 0.3216994711 -0.0581051582 -0.0002506753 -0.0875434378
0.0688011258 0.9652523607 -0.3665981292 -0.0563307399 0.0018421537 -0.0875597671
-0.3155631210 0.6055896884 -0.4742441938 -0.0544459870 -0.0001809528 -0.0875864572
-0.2752206179 0.8254799082 0.0579632092 -0.0546505149 -0.0007441165 -0.0874431931
0.3742644875 0.6580408930 -0.4470292161 -0.0544456313 0.0001822486 -0.0875376076
0.0038058480 1.5480346373 -0.4161517752 -0.0562796471 0.0001521577 -0.0857059733
-0.3267528451 0.8960737751 -0.1553417104 -0.0579800261 0.0003696030 -0.0876010741
-0.3400875158 0.9843139986 0.4722454733 -0.0569693142 -0.0017085206 -0.0874950159
-0.3815239365 0.3181933442 0.4047768146 -0.0581062826 0.0001374284 -0.0877073112
0.3468398043 0.8623085631 -0.3164863996 -0.0545343336 -0.0000608472 -0.0876409913
0.2646403173 0.9312488122 0.3778983888 -0.0581126694 -0.0001848107 -0.0875037381
0.3546111969 0.9826190369 0.3678094152 -0.0555894878 -0.0017087786 -0.0875174997
-0.2619686221 1.6386841025 -0.4340544972 -0.0566156349 0.0002476358 -0.0860130868
0.2847393147 0.9684861321 0.3873933189 -0.0573366722 0.0002933316 -0.0869036119
0.0238882710 1.3990350665 -0.4064088038 -0.0562819198 -0.0017954607 -0.0871492201
-0.3514200910 0.9896492051 -0.0530682112 -0.0569283132 -0.0017246029 -0.0875486099
-0.3062159894 0.5381835230 0.3759692230 -0.0544489546 -0.0001966499 -0.0874947947
0.3269013771 0.8173549192 -0.2174371034 -0.0558974731 -0.0006292918 -0.0875927076
-0.3393543094 0.7931824600 0.3094962390 -0.0580955733 0.0001341493 -0.0878051062
-0.3157981656 0.7481164263 0.4272219669 -0.0561947031 0.0002887972 -0.0857315482
-0.3260291443 0.9017318639 -0.3247179980 -0.0578607849 0.0005818320 -0.0876579565
0.2189626095 1.6392514540 -0.4598404413 -0.0579521894 -0.0001403481 -0.0881578399
0.3810362388 0.9928673402 0.0464970654 -0.0555753980 -0.0017031144 -0.0875303747
0.1307496107 1.8732398131 -0.4385726557 -0.0565071731 0.0005784478 -0.0858527340
0.3635823165 0.3212913259 -0.4837902573 -0.0581125053 -0.0001822302 -0.0875966301
0.2429775085 0.9886011326 0.4416348324 -0.0566941773 0.0017945649 -0.0874900280
-0.0501598539 0.8369575262 0.4001956560 -0.0563130300 -0.0000417623 -0.0858171871
-0.3772099723 0.3664388953 -0.4349385710 -0.0571158832 -0.0001987217 -0.0859498286
0.4436861894 1.0232225448 -0.2549565794 -0.0553891404 -0.0016133596 -0.0875780207
-0.4639278684 1.0343386941 -0.1305106962 -0.0570827123 -0.0016581577 -0.0875712910
-0.3064686424 1.0148476326 -0.3662936129 -0.0557341583 0.0017583268 -0.0876115400
0.0887343071 0.9261051959 -0.2520379967 -0.0562160995 -0.0018414809 -0.0875773350
-0.3819932699 0.3558057490 -0.5057344074 -0.0580490665 0.0001693552 -0.0879648728
0.1172078499 0.9668680078 -0.4150648896 -0.0564393215 0.0018338278 -0.0875810602
0.3446226615 0.3778962654 0.3904290303 -0.0581034624 -0.0002654654 -0.0875390693
0.3456194330 0.8703817994 0.0752096342 -0.0545464916 0.0000087388 -0.0874770903
-0.3074317194 0.6906094709 -0.4046262863 -0.0544467298 -0.0001890023 -0.0875076863
0.3666454793 1.7276427680 -0.4213164008 -0.0558695001 -0.0001392974 -0.0893345282
0.3658281475 0.9870246341 -0.2063274516 -0.0555866492 -0.0017078349 -0.0875525360
-0.3550092872 0.2179689025 -0.4660843307 -0.0546590307 -0.0002924837 -0.0867547057
0.4127485040 1.6188690342 -0.4025197620 -0.0558803771 -0.0001395647 -0.0893368968
0.2687941370 1.6317585604 -0.4341450059 -0.0559891523 -0.0001343059 -0.0893581309
-0.2888694783 1.4582693289 -0.3846886186 -0.0559409552 0.0001301310 -0.0857358817
-0.4669085370 1.0713166958 -0.0531869675 -0.0575529526 0.0012980529 -0.0876288683
-0.3501110395 0.3111701490 0.4665792281 -0.0559803563 0.0001347059 -0.0857458205
0.2685541968 0.9696218452 -0.0689160897 -0.0579585597 0.0005688795 -0.0875579312
-0.4828963544 1.0411184321 0.3101463354 -0.0570865573 -0.0016566094 -0.0875119368
0.1530236733 1.7333267323 -0.4245824049 -0.0564363207 0.0001444419 -0.0857125887
-0.2640853708 0.9062104757 -0.1533791673 -0.0545595104 -0.0001005470 -0.0876377362
0.3088441048 0.8779616000 -0.4897407967 -0.0568084675 0.0000175348 -0.0892772348
-0.4384705171 1.7115605342 -0.3892896897 -0.0580370430 -0.0002755093 -0.0870660051
-0.3405360077 0.2714005658 0.4311608481 -0.0544502430 -0.0002134510 -0.0874864190
-0.1323085854 0.9756588437 -0.3176972229 -0.0560027830 0.0018221398 -0.0875527314
-0.3817176667 1.0015219348 -0.1624125848 -0.0569789064 -0.0017051659 -0.0875439484
-0.0583023113 0.8679206945 -0.3640291062 -0.0562860247 0.0000080034 -0.0858425335
-0.1994813209 0.9869535330 -0.0866112296 -0.0558866515 0.0017985224 -0.0875449972
-0.3193171601 0.9542074251 -0.3334753919 -0.0576759705 0.0010577071 -0.0876529448
-0.0272797004 1.4858717098 -0.4403539640 -0.0563306698 -0.0001550111 -0.0893787808
-0.3297988786 0.8722593544 -0.3353361274 -0.0579554243 0.0003294056 -0.0876660686
0.3931414529 1.0404653552 0.0497597369 -0.0570701708 0.0016644044 -0.0875303287
-0.3095551480 0.8729996775 -0.3677156164 -0.0569258358 0.0001000898 -0.0877247961
-0.3609209011 1.5989809515 -0.3806379374 -0.0559142577 0.0001346875 -0.0857412750
0.3792150483 0.4821253754 0.4484441600 -0.0552695914 0.0002550327 -0.0860960142
0.4003848140 1.6617958335 -0.4085832257 -0.0558731718 -0.0001396956 -0.0893353503
0.2761617861 1.3186218665 -0.4232962483 -0.0562504335 0.0000279122 -0.0857022204
-0.2660245067 0.8921518812 -0.1742586078 -0.0545739780 -0.0002133202 -0.0876294766
-0.3587688966 0.5858853216 0.4015157043 -0.0581102732 0.0001509080 -0.0876126183
-0.3118128495 1.1731656745 -0.4544625104 -0.0581125330 0.0001796054 -0.0876075549
0.0417877729 0.9640151699 0.4992354466 -0.0562801632 0.0018414275 -0.0874829647
0.2671071326 1.1918052045 -0.4225552229 -0.0581137477 -0.0001591307 -0.0875221262
-0.3507499973 0.7576248010 -0.4204398363 -0.0581113201 0.0001988691 -0.0875689446
-0.3722955243 0.9976043707 -0.2334004371 -0.0569680368 -0.0017096357 -0.0875625338
-0.0676452901 0.9273275358 -0.1493294704 -0.0564885637 -0.0018309505 -0.0875435097
0.2985155007 0.9736507853 0.3449301999 -0.0565354926 0.0006493260 -0.0871635845
-0.1532192744 0.9387967173 -0.0904474183 -0.0565733399 -0.0018161640 -0.0876233865
0.3821839883 1.8039733638 -0.3925324063 -0.0566636034 0.0001371777 -0.0857454186
-0.4448424067 1.0681982376 -0.1751165536 -0.0556618405 0.0017364365 -0.0875640121
-0.0647777892 0.9270306984 -0.2519873703 -0.0564889213 -0.0018309395 -0.0875505914
-0.3266469250 0.4968129170 -0.4443803162 -0.0544461842 -0.0001855167 -0.0875375615
0.3404985991 0.9042579394 0.1439002678 -0.0545876309 0.0002880765 -0.0874897387
0.2791152576 1.7988125353 -0.4132068526 -0.0566151833 0.0001341622 -0.0857355868
0.2681655567 0.9958776831 -0.0450909101 -0.0567886747 0.0017712756 -0.0875432277
-0.4777579434 1.0619177856 -0.0267074154 -0.0567341443 0.0015852759 -0.0875989691
-0.3238566652 0.9187168196 0.0293273598 -0.0580113943 0.0003948997 -0.0875346658
0.1998124869 0.8546170473 -0.4248560672 -0.0561653790 -0.0004689777 -0.0892006794
-0.3896057807 0.0223996279 -0.4952029343 -0.0561835755 -0.0008136306 -0.0860121080
0.4203410174 0.0686688502 0.4432448004 -0.0556226145 -0.0002998069 -0.0892335518
0.2009598437 0.9402401245 -0.0551041541 -0.0559556882 -0.0018138342 -0.0875501546
-0.4446985435 1.0681406363 -0.0947157918 -0.0556629575 0.0017368143 -0.0875558871
-0.2375362400 0.9959967104 0.0295396588 -0.0558668735 0.0017959418 -0.0875519370
-0.2812460555 0.9734686436 0.2969368521 -0.0559300782 0.0005794597 -0.0874776304
0.2114578473 0.9818001309 -0.1329485283 -0.0566391234 0.0018071672 -0.0875463741
-0.2779777879 1.8238118320 -0.4436607794 -0.0565868804 -0.0001259229 -0.0893558711
-0.1866855660 0.8286989981 -0.3640291062 -0.0563518431 -0.0006894920 -0.0859253835
-0.0465787274 0.8487399150 -0.3640291062 -0.0562956298 -0.0001631010 -0.0858452910
0.2123489235 0.8074091913 0.3493884493 -0.0561291575 -0.0008874746 -0.0887405990
-0.3078229750 0.8148744086 -0.1855368664 -0.0563868813 -0.0006628166 -0.0875891354
-0.4039693708 1.0101426653 0.3750807070 -0.0569801340 -0.0017042756 -0.0875009640
-0.2327915878 1.4242652181 -0.4209401362 -0.0564659213 -0.0001432862 -0.0893710078
0.4834133043 1.0437997048 -0.1132876435 -0.0553161406 -0.0015705208 -0.0875507979
-0.0650454683 0.9669826482 -0.0802545560 -0.0561229476 0.0018351365 -0.0875481897
0.3528985143 0.8771902275 -0.4459389260 -0.0544457326 0.0001830062 -0.0875485270
0.3885542742 0.1091989511 -0.5152602781 -0.0580819278 -0.0001962941 -0.0877688588
0.0891918125 0.9648077507 0.2951712648 -0.0563363618 0.0018408026 -0.0874916003
-0.2983863761 1.5418357488 -0.4207687664 -0.0566105070 -0.0001282066 -0.0893516003
0.3347937656 0.4434487532 0.3750299405 -0.0581034034 -0.0002660000 -0.0875418323
-0.3671760692 1.6650917073 -0.4157627702 -0.0566414624 -0.0001333954 -0.0893453351
0.3859153592 0.5443399985 -0.4839855339 -0.0544458322 0.0001834578 -0.0875722126
-0.2825040032 1.2857239935 -0.4758188361 -0.0563239051 0.0000653005 -0.0893831529
0.0831967496 1.3954707614 -0.4289433681 -0.0562846883 -0.0018303183 -0.0873315130
-0.3086076244 1.4349453062 -0.4112485784 -0.0567040368 -0.0002254671 -0.0893131761
-0.3890760332 1.0460701191 0.1392864562 -0.0555951023 0.0017111030 -0.0875342013
0.3261965493 0.8172268361 0.0196055470 -0.0558240347 -0.0008089101 -0.0875071610
0.2868361362 0.9729458451 -0.2794146691 -0.0569123120 0.0008864774 -0.0876680630
0.2381141939 0.8867107528 -0.3640291062 -0.0558990343 0.0003205913 -0.0858450366
-0.0604593496 0.9662646578 -0.1118980000 -0.0561260903 0.0018354443 -0.0875560511
0.2329598351 0.9634148557 0.5201052267 -0.0561674637 -0.0002429060 -0.0874654687
0.1535795764 0.9155043100 0.3929493125 -0.0563063354 0.0005049393 -0.0858680384
-0.0123480657 0.8609074012 -0.4248560949 -0.0562879048 -0.0000234645 -0.0892453172
-0.0499912858 0.9643850789 -0.2659432520 -0.0561275336 0.0018357614 -0.0875840094
-0.3682534216 0.0493584799 0.4644862314 -0.0544609431 -0.0002615062 -0.0876569759
-0.1403586687 0.9371069296 -0.3418651256 -0.0565514109 -0.0018211279 -0.0876164043
-0.3312403467 0.8609898641 0.2002535662 -0.0579870801 -0.0003009110 -0.0874892060
0.3592688574 0.7182468402 0.3986640460 -0.0544530706 0.0002251409 -0.0875501859
-0.3454731791 1.0273445244 0.0533951708 -0.0556283562 0.0017231135 -0.0875454359
-0.0107151862 0.9640151699 0.2618034133 -0.0562467563 0.0018418035 -0.0875167385
-0.3894992967 1.0461043186 0.2339621335 -0.0555940719 0.0017106735 -0.0875264671
-0.4435904496 1.0256167106 0.3425495635 -0.0570416522 -0.0016771965 -0.0874899764
-0.1032126703 1.6164996195 -0.4177528827 -0.0561314320 0.0001510518 -0.0857119435
0.1932688902 0.9780930594 -0.1802565682 -0.0566250576 0.0018093901 -0.0875312300
-0.2966497037 0.9758025077 0.1441645647 -0.0567367506 0.0007671810 -0.0875105986
-0.0501369000 1.8595888717 -0.4709370983 -0.0562424689 0.0008480532 -0.0891425067
0.3145131334 1.2584788088 -0.4573419002 -0.0544470837 0.0001927385 -0.0875887723
0.3495416641 0.9808075197 0.2144191240 -0.0555949382 -0.0017111380 -0.0875309756
-0.0671180623 0.9273225867 -0.4025191980 -0.0564948750 -0.0018302869 -0.0875606352
0.2789620289 1.7564086489 -0.4101410190 -0.0566162248 0.0001338396 -0.0857357508
-0.4394685825 1.0241229018 0.0731677689 -0.0570357502 -0.0016801697 -0.0875253353
-0.3873575296 1.0034761023 0.2387799403 -0.0569784880 -0.0017050866 -0.0875135920
0.2940613303 1.5359975421 -0.3911365879 -0.0565783959 0.0001362118 -0.0857300921
-0.0364853614 0.8645900571 0.3358980487 -0.0562911673 -0.0001130902 -0.0892638897
-0.1435244816 0.9769178586 0.3919304904 -0.0559956792 0.0018185787 -0.0874581086
0.0539001461 0.9640151699 0.3384118611 -0.0563065436 0.0018417169 -0.0874902105
-0.2564647737 1.0002371551 -0.2821709396 -0.0558393410 0.0017885449 -0.0875846508
0.0820574367 0.9646555340 0.1386022285 -0.0563257852 0.0018416690 -0.0875079941
-0.1954741366 1.6530620367 -0.4117646564 -0.0561011052 0.0001408421 -0.0857138882
0.1122067346 0.9273883996 -0.2723462481 -0.0561486240 -0.0018366388 -0.0875822030
-0.2834248773 0.8102997180 0.3914510044 -0.0550026551 -0.0008707822 -0.0872907350
-0.1219817618 0.9344254320 -0.3241382451 -0.0565394519 -0.0018241453 -0.0875791930
0.1996333828 0.9224181512 0.3304320569 -0.0563448923 0.0001962278 -0.0892965906
-0.3534415368 0.7321072623 -0.4097456290 -0.0581133956 0.0001793124 -0.0875718938
0.0839657609 1.8619263357 -0.4712577578 -0.0561421616 0.0000691215 -0.0893542380
0.1983711884 1.7887337733 -0.4556459818 -0.0560675766 -0.0001368625 -0.0893684586
0.0904555682 1.7268319630 -0.4281282315 -0.0563714939 0.0001503421 -0.0857081796
0.1333176494 0.9684047936 0.0237009194 -0.0565055381 0.0018277617 -0.0875367597
0.3605357484 0.2761659195 0.4472910098 -0.0581054033 -0.0002401633 -0.0874992129
-0.2667841949 0.8866441510 0.1899211945 -0.0545794284 -0.0002543267 -0.0874624642
-0.2653910344 0.8967446264 -0.0451978015 -0.0545664483 -0.0001758378 -0.0875788889
-0.2549276672 0.9999440871 0.3964604032 -0.0558652993 0.0017957962 -0.0875247658
-0.1492354181 0.9608706114 0.5147046552 -0.0560969929 0.0013657570 -0.0867888793
0.1134741178 0.8408262076 0.3989878851 -0.0562629934 -0.0000623274 -0.0858089865
-0.1053182859 0.9317860119 -0.1092829476 -0.0565317785 -0.0018246724 -0.0875233667
-0.3170047273 0.9774521331 0.4690354392 -0.0567928755 -0.0017671375 -0.0874464299
0.2450042130 0.8311960481 0.3402370736 -0.0561270414 -0.0006885667 -0.0891804203
0.1808329452 0.9372784395 -0.2299869976 -0.0559801941 -0.0018159041 -0.0876122276
0.3388252365 1.5407729377 -0.4134240675 -0.0558859473 -0.0001384090 -0.0893382368
0.2582595967 1.5146296021 -0.4686226969 -0.0563078947 0.0000686865 -0.0893836414
0.2824327877 0.7943614303 0.3026130545 -0.0581039140 -0.0002616020 -0.0875516163
-0.1822557375 0.8548513897 0.3369442097 -0.0563261852 -0.0004120990 -0.0892000048
0.1766008541 1.7879014799 -0.4271808184 -0.0564669020 0.0001424770 -0.0857149941
0.3007209444 0.9754704018 0.0411593982 -0.0561752625 0.0008981322 -0.0875604546
-0.4512603368 1.0709526372 -0.0269503509 -0.0557500857 0.0017591212 -0.0875557119
-0.4321920614 1.0631380998 0.1070759169 -0.0556537284 0.0017333140 -0.0875305996
0.4731990309 1.0384074593 -0.1840367500 -0.0553425543 -0.0015862400 -0.0875589044
0.0343041545 1.6366760460 -0.4226812803 -0.0563159847 0.0001518370 -0.0857064120
0.3487772665 0.8213323905 -0.1071899895 -0.0546928117 -0.0004549912 -0.0875066928
-0.2230009428 0.9925231960 0.3924666764 -0.0558586158 0.0017925281 -0.0874760249
-0.3044163998 0.8142356186 0.0190802361 -0.0561406022 -0.0008769828 -0.0875132897
0.3667136553 0.9872319767 0.3329645450 -0.0555816006 -0.0017055198 -0.0875150666
-0.3822579317 1.0012393272 0.4154909363 -0.0569773821 -0.0017054534 -0.0875014137
0.0791421884 0.9361784466 -0.3872103901 -0.0563430306 0.0005931108 -0.0871707768
-0.3285530835 0.8819993729 0.0219851512 -0.0580541317 0.0000703584 -0.0875437438
-0.3353624387 1.0233002835 0.3463403347 -0.0556904274 0.0017459660 -0.0875184305
-0.2923534291 0.8355458449 -0.4011822195 -0.0569988337 0.0000698810 -0.0879627752
0.2814500784 0.8814334850 0.2685596666 -0.0578756617 -0.0005889137 -0.0874583722
-0.3042331318 0.7163030207 -0.4531770007 -0.0544458137 -0.0001819021 -0.0875704081
-0.3087296893 1.8404640052 -0.4394902544 -0.0566114969 -0.0001283043 -0.0893513460
-0.2592569598 0.9412165355 -0.0576945255 -0.0545224852 0.0001804865 -0.0876392550
-0.3013369243 1.1949530237 -0.4234057129 -0.0557904564 -0.0000425365 -0.0857815628
-0.3357095653 0.8510283285 0.3582085909 -0.0581068890 0.0001457119 -0.0876653977
0.3070565239 0.9608657747 -0.4127762494 -0.0572888640 0.0000620933 -0.0869516283
-0.2513206395 0.8562029389 -0.3640291062 -0.0569405154 0.0002337396 -0.0859310275
0.3838825517 0.5593258963 -0.4396754338 -0.0544457160 0.0001782912 -0.0875229963
-0.3263816163 0.8183541108 0.0675575785 -0.0574021791 -0.0006728623 -0.0875287785
0.2214372991 1.4255259214 -0.3948911340 -0.0565026203 0.0001395076 -0.0857185608
-0.2963137988 0.6225686793 0.4113347554 -0.0544437972 -0.0001111640 -0.0874783161
0.2789090413 0.8982434414 0.0467302557 -0.0580661773 -0.0002282264 -0.0875320115
0.3043518218 0.9761305660 0.0756594901 -0.0559836096 0.0009005579 -0.0875545194
-0.3250584732 0.7331548298 -0.3737290730 -0.0560240725 -0.0003128755 -0.0857646400
0.3434941482 0.8844413524 0.0147205817 -0.0545614458 0.0001242105 -0.0875216194
0.3600619156 0.6887266295 0.3199824015 -0.0546934919 0.0000817994 -0.0884153241
-0.2958630858 1.0863619957 -0.4829016841 -0.0562863399 0.0000722919 -0.0893819806
-0.1063531055 1.5702437589 -0.4135513931 -0.0561249844 0.0001505209 -0.0857124209
-0.3400289578 0.5146836035 0.3492515352 -0.0563532440 -0.0003552184 -0.0893490308
0.1070526008 0.9266313712 0.0062074098 -0.0561348181 -0.0018356416 -0.0875567257
0.2364506742 0.9867968169 0.1634242072 -0.0566618229 0.0018022900 -0.0875245188
-0.3775325155 0.3311160579 -0.4400607818 -0.0568049174 -0.0002453667 -0.0858270761
0.3158162220 0.8018074650 0.4221553594 -0.0564035829 0.0003680031 -0.0857660500
-0.1357848001 0.9362413362 0.1263846099 -0.0565550273 -0.0018221085 -0.0875464884
-0.0694879710 0.9668344829 -0.3361516861 -0.0560998260 0.0018334942 -0.0875756540
-0.1981108858 1.5288547574 -0.4016458979 -0.0561133480 0.0001406817 -0.0857126790
-0.2923973333 1.0097877197 -0.1269539853 -0.0557839590 0.0017723004 -0.0876200853
-0.3182234950 0.5782687889 -0.4705474463 -0.0544458617 -0.0001813768 -0.0875786529
0.3326414810 1.0807494699 -0.4555514512 -0.0544463391 0.0001873581 -0.0875730790
0.2874086893 0.8420150779 -0.3093147590 -0.0580053411 -0.0003849923 -0.0876631084
-0.3333967104 0.8441307428 0.0333919980 -0.0580205718 -0.0002875051 -0.0875477399
-0.4540714382 1.0650234167 -0.1955727657 -0.0569806594 0.0014413022 -0.0877816012
0.1101081971 1.5605170172 -0.4139992362 -0.0563689263 0.0001461967 -0.0857076893
-0.0946986819 0.9701755825 0.2429621662 -0.0560155124 0.0018234614 -0.0875190056
0.2153438533 0.9428820219 0.2287688769 -0.0559227292 -0.0018076538 -0.0875216359
0.4015822923 1.0022256382 -0.3286296821 -0.0554597365 -0.0016489138 -0.0876117502
0.3191688824 0.7097657813 -0.4613820914 -0.0581132998 -0.0001766452 -0.0875885124
0.4704847402 1.0705359283 -0.1020821542 -0.0555576255 0.0014739442 -0.0876216742
-0.0623155580 0.9042374629 0.3319691505 -0.0562842312 0.0002834186 -0.0892757970
-0.0386270621 0.9241398897 -0.2633128878 -0.0564613298 -0.0018337486 -0.0875518319
-0.2650911870 0.9710209261 -0.1144006663 -0.0549873156 0.0005518720 -0.0876751743
0.0803471466 0.9648785146 -0.0199632206 -0.0563283584 0.0018417998 -0.0875241667
0.2893030639 0.8294827480 -0.1930154915 -0.0579705813 -0.0006159080 -0.0876256629
-0.4688078330 1.0655185408 -0.1006936978 -0.0575069305 0.0013610162 -0.0876627821
0.1809853591 1.6202664286 -0.4137387936 -0.0564669333 0.0001426908 -0.0857152282
-0.0173584286 1.7995273775 -0.4364334489 -0.0562718962 0.0001536563 -0.0857061576
-0.2790098850 0.7499342419 0.3340669010 -0.0544477602 -0.0001804238 -0.0875007520
-0.2728210514 0.8428770162 0.0419544379 -0.0546291314 -0.0006054365 -0.0874724325
-0.3301934815 0.8691741980 -0.0533715313 -0.0580650806 0.0000287417 -0.0875712449
0.3436065656 0.8836974847 -0.3256218719 -0.0545642254 0.0001144081 -0.0876731393
-0.3960597683 1.0073169397 -0.0807377690 -0.0569810004 -0.0017041318 -0.0875417236
0.0660878876 0.9643007008 0.2173391831 -0.0563175146 0.0018417519 -0.0875004903
-0.3228836587 0.9786278961 -0.3431852016 -0.0568739818 -0.0017442961 -0.0875527001
0.3669716796 0.6462604728 0.4029558489 -0.0544535904 0.0002267187 -0.0875624600
-0.2590591948 0.9613886856 -0.3288824476 -0.0567367027 -0.0017846796 -0.0875799266
-0.2690853212 1.9013404683 -0.4200308340 -0.0558404672 0.0007140661 -0.0859995592
0.3443239108 1.0196653270 0.2188036290 -0.0568836072 0.0017406999 -0.0875311452
0.0532897218 0.8031907973 -0.3640291062 -0.0562640643 -0.0005903091 -0.0858383604
-0.2664545054 0.8890343796 -0.3118495954 -0.0545802358 -0.0002390223 -0.0876856052
0.3921327557 0.4111186243 0.4384205791 -0.0544496090 0.0002075950 -0.0875521453
-0.3122746994 0.8157090633 0.2550546398 -0.0565747537 -0.0008748723 -0.0874300342
0.1885025245 0.8995065077 0.3936741100 -0.0562963026 0.0003580607 -0.0858685988
0.0371512139 0.9247876802 -0.3062706368 -0.0562327016 -0.0018421906 -0.0875648305
0.0768405276 1.7022994396 -0.4585542829 -0.0562049995 -0.0001532987 -0.0893781928
-0.0003697606 0.8709129810 -0.3640291062 -0.0562971984 0.0000874139 -0.0858412819
-0.3363817677 0.9260555261 -0.4109609093 -0.0581087765 0.0002249344 -0.0875567294
-0.2551298616 1.5902921575 -0.4292887233 -0.0563428979 0.0002049776 -0.0861077777
-0.3446458366 1.0270136552 -0.0252632285 -0.0556378839 0.0017266249 -0.0875519609
0.0486687289 0.9645698067 -0.1167685143 -0.0563171957 0.0018421482 -0.0875350013
-0.3727026982 0.0521922034 -0.5249548441 -0.0549224225 -0.0000856628 -0.0886233468
-0.3451656546 0.8130641301 -0.4599224269 -0.0581116095 0.0001848937 -0.0876097355
-0.3379491808 0.6220629253 -0.5028147999 -0.0562937903 0.0000805589 -0.0893827234
-0.4067645226 0.0667109262 -0.4942800768 -0.0580340920 0.0000616527 -0.0870748398
-0.2945507164 0.8151017761 -0.4624858814 -0.0544461916 -0.0001806708 -0.0875932625
-0.0602658129 0.9291145821 0.3294588255 -0.0562717119 0.0005213737 -0.0892950497
-0.1597309185 0.8888723753 -0.4248560672 -0.0562946566 0.0000547406 -0.0892002333
-0.0130635327 0.9234638625 0.4020693292 -0.0563079150 -0.0018416450 -0.0874989770
-0.2959770220 0.7993338169 -0.4121131323 -0.0544460589 -0.0001860052 -0.0875268726
0.1763250683 0.9365377238 -0.3000081141 -0.0559805480 -0.0018161640 -0.0876144524
0.3294431460 1.0136502686 0.3531611937 -0.0568605851 0.0017483180 -0.0874998451
0.3147910149 1.0092083319 0.2932376568 -0.0568264501 0.0017593240 -0.0875130851
-0.0646578034 1.5883762391 -0.4480243286 -0.0563757868 -0.0001540397 -0.0893769486
0.4876619606 1.0461321073 0.1391633775 -0.0552374416 -0.0015037844 -0.0875244340
-0.2490877315 1.2683239031 -0.4195806279 -0.0544626388 -0.0001717495 -0.0877185918
0.2780934531 0.9036388942 -0.2643316822 -0.0579740890 0.0001474390 -0.0876360883
0.1579055088 1.6609135882 -0.4184054823 -0.0564311099 0.0001401398 -0.0857116265
0.0515151136 0.9248520315 -0.1875977078 -0.0562274797 -0.0018420229 -0.0875603145
0.2812312340 1.6754264126 -0.4353932784 -0.0559453218 -0.0001335391 -0.0893501866
-0.1054463948 0.9716404782 0.3393064248 -0.0560151843 0.0018229766 -0.0874921515
-0.3274540454 0.9540590350 0.3409799846 -0.0578675736 0.0004701721 -0.0878468759
0.3438973572 0.9638502403 -0.3781121145 -0.0548547681 0.0011180696 -0.0874836891
0.3831240597 0.4792889055 0.3695906959 -0.0546091046 0.0001229129 -0.0881594582
0.2168372676 0.9829268434 0.2785368402 -0.0566507634 0.0018035599 -0.0874854494
-0.2736789678 0.8366569765 -0.0431830024 -0.0546348031 -0.0006560925 -0.0875022985
-0.1547153946 1.4923796416 -0.4331584147 -0.0564287671 -0.0001493154 -0.0893739404
0.3534653312 0.7697983053 0.3240201173 -0.0545019386 0.0002749858 -0.0878014473
0.3100445618 0.7693156139 -0.3980859816 -0.0581125367 -0.0001887258 -0.0875736909
0.1313739994 0.9292222477 0.1262928644 -0.0560425454 -0.0018267276 -0.0875251510
-0.2593780405 1.0009654971 -0.2078997714 -0.0558140996 0.0017829894 -0.0875574225
0.2885065736 0.8163625347 0.4179624464 -0.0572118866 0.0000778345 -0.0859752063
-0.3057973671 1.5181145925 -0.4176742998 -0.0566156331 -0.0001287246 -0.0893505976
0.1341479024 0.7979721427 0.3844910913 -0.0562041756 -0.0006190305 -0.0868120139
0.3665418081 1.0286689043 -0.2722468384 -0.0570393445 0.0016787356 -0.0875618020
0.0652724985 0.9649734654 -0.2208620724 -0.0563262534 0.0018420782 -0.0875450617
-0.3872749247 1.0456690464 -0.1595217779 -0.0556100510 0.0017162290 -0.0875644876
0.2940297169 1.4420172146 -0.4439400378 -0.0547224695 0.0002366445 -0.0870454217
-0.2889209766 1.0087931971 -0.1880094676 -0.0557862132 0.0017729898 -0.0876221921
0.1440221789 0.9698320005 0.1858158649 -0.0565379091 0.0018236716 -0.0875187808
-0.2143305996 0.9907482432 -0.1364215377 -0.0558617935 0.0017948138 -0.0875425825
-0.2666394875 1.0027808372 0.3350079291 -0.0558252494 0.0017835516 -0.0874828541
-0.2029545828 0.9506779960 0.3441322479 -0.0561334596 0.0005943918 -0.0883875059
0.0104935807 0.9641982111 -0.2335243582 -0.0563037438 0.0018425666 -0.0875480680
