0.3602712978 1.4999998750 -0.4680053957 0.0250092451 0.0027774803 -0.0027879067
-0.1975657196 0.0000000000 -0.5252152521 0.0249951063 -0.0027766081 -0.0027981095
0.3632067697 0.0139829933 -0.5366757039 0.0250498090 0.0027699831 -0.0026528456
-0.3443039074 1.4833332097 -0.3863816053 0.0249878896 -0.0027775914 -0.0027711900
0.3341890277 1.4999998750 0.1636255766 0.0250502618 0.0027769275 -0.0027700873
-0.4928659228 1.3554908482 -0.5147393752 0.0249254813 0.0020242165 -0.0008808541
0.1361877220 0.2847792290 -0.5691376734 0.0250106896 0.0006328166 -0.0054822482
-0.3156519320 0.5370506275 -0.4958717573 0.0249651090 -0.0006270805 -0.0000721930
0.3080327938 0.7196519039 0.4532989331 0.0250404174 -0.0006240249 -0.0054839287
0.4701202858 0.6942274588 -0.4592265492 0.0250476951 -0.0006301833 -0.0000730319
0.3550833732 1.2652444418 0.4401661619 0.0250485618 -0.0020519748 -0.0009067874
-0.2349346165 1.3124449601 -0.4659636431 0.0249684285 0.0020695387 -0.0009261930
-0.0629098420 0.7733477467 0.4407799452 0.0250021146 -0.0006271583 -0.0054836565
0.2263861145 0.6685153832 -0.4652212598 0.0250232479 -0.0006299944 -0.0000727208
0.3440944797 0.8544790621 -0.4359402817 0.0250261618 0.0006227361 -0.0054845898
0.4999999583 0.2791278406 -0.5609406102 0.0250336840 -0.0002006916 -0.0019091040
0.2256886201 0.1600430561 0.6010790652 0.0250210979 0.0006272861 -0.0000721819
0.4317642279 1.2474990655 -0.3926913659 0.0250487146 0.0020475387 -0.0009014430
0.0018636693 1.4999998750 -0.1133868225 0.0249926340 0.0027774803 -0.0027792789
0.1952559837 0.8767083186 0.4335207042 0.0250176451 0.0006232027 -0.0000712292
-0.3560393564 0.0000000000 0.5246120243 0.0249851951 -0.0027768275 -0.0027707595
-0.3712622441 1.0763562464 0.3701347261 0.0249876618 -0.0006267694 -0.0054837509
-0.3606805283 1.0596956006 -0.3879600413 0.0249720007 0.0006278083 -0.0054834204
-0.0034533803 0.1357802276 0.5886964301 0.0249861340 -0.0004934111 -0.0055066954
-0.0453669296 0.4237509064 -0.5366456539 0.0249965090 0.0006322083 -0.0054823926
0.4253074729 1.2240530897 -0.3717488093 0.0250356535 0.0015910415 -0.0005041652
0.4271211061 0.0157697098 0.5792997309 0.0250325868 -0.0019087443 -0.0007772208
0.3056714134 0.4461242295 -0.5170708333 0.0250182451 -0.0006294166 -0.0000724458
-0.4001174167 0.0000000000 0.4959320712 0.0249682757 -0.0027548581 -0.0029579178
0.0358400359 0.0138888877 0.4292759212 0.0249924729 0.0027579525 -0.0031026039
-0.3406094161 1.3389659190 -0.4958848545 0.0249379563 0.0020782498 -0.0009365430
-0.3423005993 0.2662332528 0.5590117742 0.0249374313 -0.0006242111 -0.0054834704
0.0408843744 0.9766408325 0.4101561950 0.0250033785 0.0006237194 -0.0000713486
-0.1861079595 0.8759421576 0.4336998264 0.0249828313 0.0006278916 -0.0000723153
0.1591748951 1.2698195358 -0.4178732832 0.0250252340 0.0020552665 -0.0009098013
0.3488068404 1.0606691116 -0.3877324302 0.0250261924 0.0006190916 -0.0054854343
-0.1333845667 1.4999998750 0.4717966121 0.0250177868 0.0027771331 -0.0027627123
-0.0211085260 0.0338208166 -0.5900307272 0.0249971813 -0.0014334138 -0.0051477815
-0.4258466145 1.4698725858 0.5445504255 0.0249663757 0.0016215221 -0.0005376986
0.1561168537 1.4999998750 -0.1791682837 0.0250057090 0.0027776109 -0.0027789178
-0.4464244461 1.0118629462 0.4019211957 0.0249586701 0.0006276805 -0.0000722653
0.4032454247 1.2450969074 -0.4164547250 0.0250703785 -0.0020462526 -0.0046544677
0.4472775405 1.2663550278 0.4167423528 0.0250439590 0.0020499082 -0.0046517260
0.1130989822 0.0962365059 -0.5916666382 0.0250105257 0.0001750861 -0.0000116264
0.3641424085 1.4833332097 0.3237538605 0.0250192396 -0.0027776303 -0.0027797706
0.3432924631 0.1852952596 -0.5923972798 0.0250269007 0.0006331027 -0.0054821815
-0.4064343439 1.4999998750 -0.3828904778 0.0249277535 0.0027764553 -0.0028010428
-0.1743300410 1.4999998750 -0.4322002681 0.0249508174 0.0027767303 -0.0027981706
-0.3376779913 1.4965188364 -0.5017764401 0.0249518563 0.0026648387 -0.0034005900
0.2997551972 1.4999998750 0.2910132077 0.0250552035 0.0027767859 -0.0027670400
-0.0799188961 0.8894770398 -0.4137049225 0.0250067479 -0.0006304555 -0.0000727458
-0.2607579755 0.4956144559 -0.5055324759 0.0249679535 -0.0006270638 -0.0000721764
0.3770204019 1.4999998750 0.3796716809 0.0250703479 0.0027765442 -0.0027649206
0.2649053779 0.0138888877 0.5063475925 0.0250270646 0.0027705164 -0.0029314734
-0.4668266333 0.5886852204 -0.4838333361 0.0249538340 -0.0006266194 -0.0000721764
0.1850152707 0.0858556456 0.6080299507 0.0250181146 -0.0001677194 -0.0000093014
0.2406310411 1.4806025655 -0.5051777093 0.0250361118 -0.0026453526 -0.0019602651
-0.1137908211 1.0159979931 0.4009543819 0.0249891896 0.0006250722 -0.0000716597
-0.1290250892 1.2230859370 -0.3712652316 0.0249756590 0.0014700443 -0.0004252652
-0.1997241389 1.4999998750 0.2668724264 0.0249957618 0.0027775359 -0.0027676150
-0.0948420032 1.4995644917 -0.4880705746 0.0249564701 0.0027671387 -0.0028623345
0.1370036552 0.0138888877 -0.4519470054 0.0249980840 0.0027624942 -0.0025210706
0.2989835501 1.4410487355 0.5591049381 0.0250309979 0.0007186666 -0.0001268875
0.4067815661 0.0138888877 -0.4826275112 0.0250337035 0.0027669164 -0.0025711678
-0.0028537609 1.0645328057 -0.3868290692 0.0249993257 0.0006233388 -0.0054844537
-0.3384964135 0.4911558813 -0.5065719397 0.0249604424 -0.0006265722 -0.0000721403
0.1303237697 0.0324091445 -0.5890223745 0.0250095674 -0.0014501971 -0.0051330454
0.1704613330 0.5465578683 -0.5079330230 0.0250133924 0.0006302194 -0.0054828565
-0.3067819967 0.3794817712 -0.5469959447 0.0249759424 0.0006330194 -0.0054822009
0.1132780711 0.3958412698 0.5459488087 0.0250106951 0.0006279888 -0.0000723403
-0.1978131863 1.3039908274 -0.4830978611 0.0249717090 -0.0020450026 -0.0046571232
-0.2747664104 1.4999998750 -0.2711395232 0.0249503729 0.0027768220 -0.0027928567
0.2052614468 1.4833332097 0.0022162762 0.0250236312 -0.0027773831 -0.0027758873
-0.2188679401 1.4833332097 0.0287486157 0.0249735090 -0.0027773303 -0.0027789928
0.0181011596 0.2192182790 0.5872437525 0.0250017340 0.0006260166 -0.0000718875
-0.2289346726 1.2397481106 0.4106440949 0.0249843063 -0.0020485471 -0.0009026041
0.2582784007 0.0623056531 -0.5844756805 0.0250152590 0.0008359916 -0.0001347930
0.4886461898 1.2190134512 0.3923053215 0.0250590674 -0.0016741832 -0.0005861319
0.1521185734 1.2314845446 0.3804038058 0.0250223312 0.0018377054 -0.0048481593
0.1166832514 1.4878416732 -0.5243163410 0.0250108840 0.0024213554 -0.0041070427
-0.1587640007 0.8769905214 -0.4306769738 0.0249877174 0.0006285111 -0.0054832565
-0.1351888748 1.4833332097 0.4183094304 0.0249562563 -0.0027768914 -0.0027872873
-0.2880694038 0.8355770693 -0.4403595647 0.0249776951 0.0006298277 -0.0054829482
0.3331935611 1.4999998750 -0.0930230603 0.0250321674 0.0027773137 -0.0027762289
0.4076576327 0.2601782700 0.5776672088 0.0250381007 0.0006290972 -0.0000725986
-0.0554647287 1.0238856841 0.3823680362 0.0250198174 -0.0006241777 -0.0054839759
-0.3446916935 1.4833332097 0.1126196864 0.0249535340 -0.0027770359 -0.0027824012
0.4612297088 0.2693218637 0.5755293701 0.0250429757 0.0006283138 -0.0000724180
-0.3817958932 0.5075289827 0.5027545734 0.0249489201 -0.0006251027 -0.0054835370
0.4459308684 0.3940816755 0.5292043240 0.0250340896 -0.0006264027 -0.0054836482
0.0077284077 0.6222912176 0.4759982034 0.0249999507 -0.0006279611 -0.0054835454
0.2061798995 1.4999998750 0.3513840693 0.0250486146 0.0027768303 -0.0027655956
-0.3142420599 0.8536669539 0.4220538968 0.0249792618 -0.0006271222 -0.0054836259
0.0469385211 0.0000000000 0.4553003357 0.0250007257 -0.0027597637 -0.0029850928
0.2250274257 1.2237875036 -0.3943600852 0.0250361674 -0.0019007804 -0.0047880649
0.2585698229 1.2451938018 -0.3900905494 0.0250352285 0.0020468054 -0.0009005208
0.4153507737 1.4963477697 0.5043714955 0.0250392118 0.0027020442 -0.0022537790
0.0816833543 0.8838601125 0.4150144224 0.0250258924 -0.0006244138 -0.0054839259
-0.3225080648 0.0306621641 0.5905522800 0.0249725979 -0.0015808221 -0.0005124791
0.3807385433 0.5870780455 0.4842080249 0.0250397118 -0.0006248249 -0.0054838287
-0.1715647246 1.0271444533 0.3816082335 0.0250069174 -0.0006253166 -0.0054838732
0.4999999583 0.0201111983 0.5716396926 0.0250470785 0.0002000833 -0.0027687762
0.1866200817 0.0160641487 0.5797119725 0.0250140590 -0.0019477387 -0.0008120763
0.3005854027 0.5949589560 -0.4823706529 0.0250261201 -0.0006298277 -0.0000726847
0.4898373508 0.5904986008 0.4834105417 0.0250522701 -0.0006236805 -0.0054839343
0.0212875566 0.2757473409 0.5740270980 0.0250020535 0.0006264277 -0.0000719819
-0.4701039247 1.2886109009 -0.4656943681 0.0249501840 -0.0020454276 -0.0046565204
0.4289854337 0.0025282470 -0.5565865995 0.0250238035 -0.0025012415 -0.0039306233
-0.1889070148 0.0345703582 0.5933438353 0.0249834063 -0.0014387221 -0.0004080069
-0.3170062541 1.4833332097 -0.2516194249 0.0249816368 -0.0027775942 -0.0027734484
-0.3698692858 0.5604801561 0.5074557202 0.0249656368 0.0006252194 -0.0000716986
0.1537098872 0.9033497386 0.4272918574 0.0250138062 0.0006233472 -0.0000712625
0.0426669603 0.4744513632 -0.5104664894 0.0249951340 -0.0006286722 -0.0000722875
0.3645136641 1.4849938735 -0.5300118961 0.0250320090 0.0023520609 -0.0042393483
0.2530818317 1.3855578651 -0.5368526650 0.0250359507 0.0009586166 -0.0001773486
-0.4539544483 1.2149892015 0.3683261790 0.0249583063 0.0013370777 -0.0051963398
0.2562085259 0.8872193344 0.4310631932 0.0250231896 0.0006223111 -0.0000710236
0.2419933965 1.4999998750 -0.3203007969 0.0250058562 0.0027775275 -0.0027836206
-0.2165201208 0.7607816283 -0.4578469410 0.0249832729 0.0006302083 -0.0054828620
0.1725137662 0.0133314850 -0.4222222079 0.0249988951 0.0025381581 -0.0024292345
0.2051220190 0.9580398618 -0.4117274671 0.0250153812 0.0006226388 -0.0054846148
0.1231552758 1.4833332097 0.3909358021 0.0249873368 -0.0027772887 -0.0027837262
-0.1692788303 1.0309260030 -0.3807266558 0.0250062562 -0.0006308027 -0.0000728792
0.1558152481 1.3413940160 -0.4986241876 0.0250037785 0.0020794665 -0.0009371208
0.1190738790 0.1003294639 0.5916665965 0.0250102062 0.0000171556 -0.0055518537
0.2309125280 0.4239524924 -0.5222401273 0.0250099424 -0.0006293194 -0.0000723264
0.1865975233 1.1753790826 0.3723169870 0.0250324229 -0.0004057305 -0.0000335903
0.3358038303 1.4999998750 0.2113078254 0.0250537896 0.0027768553 -0.0027689484
0.0778232713 0.8874888205 -0.4282224296 0.0250057701 0.0006254277 -0.0054839676
0.3955107032 0.0274715255 0.5882732551 0.0250311007 -0.0015519443 -0.0004983569
-0.4568406036 0.0071640744 -0.5644741210 0.0249705007 -0.0024490665 -0.0039813733
-0.4991334723 1.4999998750 -0.3623424434 0.0249186035 0.0027763470 -0.0028021484
0.0684484637 1.4999998750 0.3006102430 0.0250291312 0.0027771025 -0.0027668095
-0.4426598076 0.7607028755 -0.4578653799 0.0249655035 0.0006306472 -0.0054827565
0.0923099868 1.3464736656 -0.5043550066 0.0249920757 0.0020810998 -0.0009391346
0.2352875193 1.4182639735 -0.5583333076 0.0250246007 0.0000814500 -0.0055487037
0.1258080173 1.3370879025 -0.4937658741 0.0250023312 0.0020780137 -0.0009354763
-0.1626435892 0.5013834638 0.5212727218 0.0249849674 0.0006264861 -0.0000719930
0.3700469247 1.4999998750 -0.3189367443 0.0250206035 0.0027775998 -0.0027816345
-0.2913406563 0.7008911388 0.4746272007 0.0249730285 0.0006268083 -0.0000720653
-0.4457763712 1.0145272155 -0.3845499555 0.0249793090 -0.0006302361 -0.0000725958
-0.0289472226 1.4215551260 -0.5583333076 0.0249964479 0.0001009055 -0.0055503093
0.4615323421 1.4999998750 -0.0872108802 0.0250474146 0.0027771220 -0.0027760900
0.1994603306 1.4833332097 0.1192589970 0.0250147257 -0.0027775637 -0.0027773012
0.1020757276 1.4833330403 -0.0633033100 0.0250163979 -0.0027774331 -0.0027750928
0.2857100345 0.6263244950 0.4920611298 0.0250263340 0.0006255472 -0.0000717736
0.0750791382 0.8453078518 -0.4380844815 0.0250056285 0.0006261944 -0.0054837898
-0.4371017080 0.1347635999 0.5888812745 0.0249383257 -0.0004117889 -0.0055153148
0.3713931079 0.8795548461 0.4160181973 0.0250583396 -0.0006215277 -0.0054841870
0.4999999583 0.9283978004 0.4047250427 0.0250762868 -0.0006127999 -0.0054548732
0.2521217123 0.0088912465 -0.5668921319 0.0250127701 -0.0022466943 -0.0043564371
0.2921170951 0.4080813604 -0.5259404270 0.0250148285 -0.0006293055 -0.0000723680
0.1916673618 1.3926561673 0.5570287244 0.0250110062 -0.0005928111 -0.0000747097
-0.0628247837 0.3086382298 0.5491251806 0.0249714146 -0.0006260749 -0.0054834676
0.2412737104 1.4833333792 0.2256581659 0.0250120368 -0.0027776609 -0.0027785845
0.1332999972 0.6733152883 -0.4641021544 0.0250147340 -0.0006299611 -0.0000726264
0.4773745241 1.4322857834 -0.5402289675 0.0250400424 -0.0004834666 -0.0000523431
-0.1388031857 1.0876291844 0.3675064847 0.0250146896 -0.0006242833 -0.0054839787
0.1140074516 0.8996435473 0.4113345977 0.0250306062 -0.0006239027 -0.0054839759
0.1238768147 0.0578052480 -0.6013084957 0.0250173646 -0.0008838888 -0.0054036426
-0.0909224758 0.4611931727 -0.5278915602 0.0249929535 0.0006320361 -0.0054824315
-0.0262991895 1.1926754284 0.3586695687 0.0249943396 0.0007532666 -0.0054486204
0.0160924042 0.7406730022 0.4483979390 0.0250088424 -0.0006267388 -0.0054836870
-0.1811710627 0.2390883773 -0.5653404821 0.0249612285 -0.0006254249 -0.0000719653
0.0671848444 0.0000000000 -0.5101674617 0.0250114507 -0.0027757359 -0.0027822012
-0.3547653760 1.4833332097 0.3763089811 0.0249343174 -0.0027766470 -0.0027887678
0.4009304971 1.0581584479 -0.3743775146 0.0250615979 -0.0006311583 -0.0000735514
0.0484670960 0.7494523153 0.4463511420 0.0250130924 -0.0006263083 -0.0054837287
-0.3504112791 1.4833332097 -0.4475897308 0.0249914979 -0.0027775109 -0.0027704512
0.1664234222 1.4833332097 0.2126930059 0.0250044479 -0.0027776025 -0.0027790095
0.1408767994 0.8770534214 0.4166014222 0.0250321229 -0.0006238916 -0.0054839732
0.2942385949 1.4147700515 0.5435128728 0.0250251562 0.0000927861 -0.0055449120
-0.4999999167 1.4838225069 -0.4273663269 0.0249710368 -0.0026145414 -0.0027724623
-0.2643543863 0.2639151252 -0.5595522298 0.0249548257 -0.0006251416 -0.0000719542
-0.4008481860 0.6794437684 0.4796416642 0.0249627924 0.0006257805 -0.0000718292
0.3730047328 0.1998961806 -0.5744779952 0.0250108451 -0.0006283555 -0.0000721680
0.3667773694 1.4999998750 0.0892303384 0.0250488174 0.0027769942 -0.0027718678
0.3239253952 0.2104448575 -0.5865172220 0.0250253951 0.0006329666 -0.0054822148
0.2557742426 1.4833332097 0.0395155037 0.0250268062 -0.0027773664 -0.0027763373
-0.2803616405 1.2772992241 -0.4528942359 0.0249661729 -0.0020458554 -0.0046561816
-0.2841580902 0.5407937327 0.4949989963 0.0249620090 -0.0006258416 -0.0054835398
-0.2781970324 0.8054911468 -0.4332858875 0.0249834285 -0.0006295055 -0.0000724680
0.1302982641 0.8698241470 -0.4182868804 0.0250254840 -0.0006305027 -0.0000729458
-0.2181598902 0.2038799108 0.5735492008 0.0249471785 -0.0006246583 -0.0054834482
0.3228472120 1.4999998750 0.3284397712 0.0250604951 0.0027766970 -0.0027661456
0.3051103135 1.4999998750 0.1655804181 0.0250470368 0.0027769664 -0.0027700428
0.2219625509 1.4833332097 0.0561334412 0.0250217535 -0.0027774387 -0.0027765373
0.2442629713 1.3830388070 0.5542808719 0.0250100840 -0.0008721805 -0.0001483236
0.4072793411 1.4999997056 -0.2001206125 0.0250332312 0.0027773692 -0.0027787900
0.4278887505 0.2873549761 0.5540872552 0.0250248674 -0.0006278222 -0.0054834982
0.3536321983 1.2166379986 0.3694253623 0.0250304812 0.0015147888 -0.0050969482
0.0737361216 0.9361237498 -0.4028294317 0.0250238674 -0.0006306611 -0.0000729903
-0.1483759126 0.0000000000 0.4738182313 0.0249868924 -0.0027581581 -0.0029685845
-0.0212187538 1.4999998750 -0.4773703505 0.0249651674 0.0027768914 -0.0027968678
-0.2326562251 0.2889104593 -0.5537246441 0.0249591674 -0.0006255333 -0.0000719903
0.0999683083 1.4999998750 0.4834615722 0.0250455868 0.0027767831 -0.0027624345
-0.1069601189 1.4607910644 -0.5308754571 0.0249849507 -0.0015799749 -0.0005315347
0.1565651231 0.1183823179 -0.6083333035 0.0250048451 0.0003696389 -0.0055266259
0.0292825892 0.8817236265 0.4323481098 0.0250024840 0.0006251694 -0.0000716847
-0.2954111059 1.1799429017 -0.3532107997 0.0249702729 0.0003224028 -0.0000289792
0.0272668699 1.4833332097 0.3117765393 0.0249819257 -0.0027772692 -0.0027829289
0.0248475646 1.3869023344 -0.5553847579 0.0249957563 -0.0007966388 -0.0054175370
-0.2194750484 0.9644846641 0.3962171656 0.0249972840 -0.0006265305 -0.0054837509
0.4596904784 0.6477314738 0.4700668594 0.0250527174 -0.0006233222 -0.0054839787
-0.0657705473 1.2653534584 -0.4393766037 0.0249906368 -0.0020461915 -0.0046557204
-0.0279153588 0.0138888877 -0.4543465774 0.0249885951 0.0027628887 -0.0025274956
0.0006948055 1.4251607757 -0.5583132160 0.0250022201 0.0001596944 -0.0055495593
0.4244792591 0.0000000000 -0.5280901352 0.0250335840 -0.0027755887 -0.0028472984
0.4636041475 1.0060387523 -0.3865289775 0.0250645868 -0.0006310444 -0.0000735347
0.1195104067 1.2270877227 0.3767397894 0.0250100451 0.0017276276 -0.0049459315
0.4999999583 0.0059270773 -0.5617511490 0.0250304201 -0.0021531609 -0.0041077066
-0.4784641296 1.2938352561 0.4732713314 0.0249501340 -0.0020563165 -0.0009110208
-0.2603338672 0.2030539247 0.5910230160 0.0249757201 0.0006236638 -0.0000713430
-0.3532960817 0.6070434494 -0.4795532031 0.0249654563 -0.0006274361 -0.0000722430
0.3105065408 0.5028538609 0.5038445594 0.0250261062 -0.0006265138 -0.0054836593
0.0085821771 1.4833332097 -0.3117423532 0.0250231535 -0.0027772025 -0.0027720928
0.4045241135 1.2950787643 -0.4463709781 0.0250424285 0.0020638359 -0.0009194180
-0.2359257192 1.4999998750 0.4149680974 0.0250019507 0.0027773637 -0.0027640706
-0.4999999583 0.8561343009 -0.4254046409 0.0249598813 -0.0002727111 -0.0016018596
-0.3157555209 0.1562397398 -0.5846562860 0.0249440785 -0.0006239555 -0.0000718264
-0.2651266946 1.1281905199 0.3580497660 0.0250031451 -0.0006250944 -0.0054839148
-0.0285316754 0.9285837032 -0.4045873288 0.0250137924 -0.0006305888 -0.0000728653
-0.2400032050 0.9266466006 -0.4050389482 0.0249937285 -0.0006304805 -0.0000726292
0.4585688312 1.4809160488 0.5054486815 0.0250555201 -0.0026840526 -0.0034426483
-0.4811827793 0.4364855942 -0.5193181137 0.0249440924 -0.0006252833 -0.0000720236
0.3068844439 0.8436198908 -0.4243963299 0.0250406757 -0.0006305166 -0.0000730958
0.2648292113 0.2734202050 0.5745712007 0.0250248007 0.0006283749 -0.0000724319
0.3420847937 0.4076637771 0.5260377437 0.0250232674 -0.0006272972 -0.0054835704
-0.3488675570 0.7242900674 0.4522175526 0.0249668757 -0.0006263111 -0.0054835926
0.2768761936 1.4999998750 -0.2619523573 0.0250138229 0.0027776470 -0.0027802706
-0.4266382922 0.7067728939 -0.4704743511 0.0249667285 0.0006309888 -0.0054826759
0.3064449272 1.4833332097 -0.3473921808 0.0250598618 -0.0027767275 -0.0027716623
-0.2714510802 1.3245936674 0.5088862312 0.0249648868 -0.0020607332 -0.0009158124
-0.2438299825 0.1741498272 -0.5950030990 0.0249807618 0.0006343194 -0.0054818954
-0.2248907535 0.3394562745 0.5591317242 0.0249790868 0.0006248805 -0.0000716236
-0.3251848173 0.4731226634 0.5278801574 0.0249697729 0.0006249833 -0.0000716458
-0.3917018979 1.2965736170 -0.4480575391 0.0249568368 0.0020641443 -0.0009201596
0.1365100636 1.3453955490 0.5059164481 0.0249988451 0.0020634193 -0.0046364732
0.3194225900 1.1369144775 -0.3560158523 0.0250583285 -0.0006313361 -0.0000735903
0.3736584661 0.4619822643 0.5133735447 0.0250304924 -0.0006263472 -0.0054836676
0.2842496208 0.2338114444 -0.5810540669 0.0250222896 0.0006328833 -0.0054822343
-0.1376536885 0.5915787951 0.5001847819 0.0249873396 0.0006273027 -0.0000721819
0.2158079181 0.0157336154 0.5792492503 0.0250160590 -0.0019564276 -0.0008254152
-0.3211388843 1.3005915944 0.4553683634 0.0249661035 0.0020556943 -0.0046450593
-0.2375747274 1.4833332097 -0.0888534690 0.0249794563 -0.0027774720 -0.0027764150
0.3555859593 0.7148549654 -0.4685847623 0.0250272618 0.0006250222 -0.0054840593
0.3952848754 1.3130524295 -0.4933517242 0.0250266701 -0.0020447526 -0.0046574788
-0.0703624358 0.0608160755 0.5866948608 0.0249892063 0.0008169555 -0.0054226426
0.0988421140 1.4999998750 0.2778704727 0.0250310535 0.0027770914 -0.0027673539
-0.0515762485 1.4833332097 0.1149694974 0.0249865063 -0.0027774387 -0.0027791512
0.3546765760 0.9809233794 -0.3923845798 0.0250528979 -0.0006309222 -0.0000733736
-0.0724663051 1.4999998750 -0.3999705708 0.0249646146 0.0027769331 -0.0027943817
-0.1372798497 1.4999998750 -0.0660632181 0.0249800201 0.0027773414 -0.0027801650
-0.3935924616 0.7565461258 0.4616149740 0.0249635007 0.0006263638 -0.0000719625
-0.0686043582 1.3767488825 0.5344992930 0.0249882674 0.0014116971 -0.0051519537
-0.4299351642 0.6257154590 0.4751998729 0.0249513340 -0.0006253694 -0.0054835704
0.0901881453 1.4833332097 0.1319310293 0.0250013674 -0.0027776109 -0.0027779539
0.2564466897 1.4833332097 -0.2031227789 0.0250439646 -0.0027770109 -0.0027734067
-0.2374277135 0.1467258239 -0.5867063442 0.0249554507 -0.0005939055 -0.0000664931
0.4493471403 1.1753597548 0.3723121120 0.0250642174 -0.0004640555 -0.0000409125
-0.2563520647 1.0708735941 0.3881243274 0.0249760813 0.0006260638 -0.0000718903
0.4344493916 1.4833332097 0.0034145789 0.0250498618 -0.0027770609 -0.0027759012
0.1131132239 1.4999998750 0.4497429167 0.0250447424 0.0027768164 -0.0027632428
-0.0334197750 0.3886067398 0.5476402030 0.0249969924 0.0006267583 -0.0000720569
-0.2395021884 1.4110711519 -0.5583333076 0.0249720924 -0.0001140417 -0.0055431676
0.0317093085 0.1930060339 -0.5905944966 0.0250024229 0.0006336555 -0.0054820509
-0.4401350300 0.8998368250 -0.4112895838 0.0249735063 -0.0006293277 -0.0000724875
-0.0096527298 1.4999998750 -0.2722434759 0.0249804840 0.0027772192 -0.0027869873
0.2551045093 1.4171761930 0.5438135977 0.0250207007 0.0000481556 -0.0055474009
0.4224493731 0.4068390411 0.5433774922 0.0250391979 0.0006268944 -0.0000720875
0.0002485278 1.2080541660 0.3637958016 0.0250055507 0.0012290388 -0.0052647510
0.1996793695 0.5270278505 -0.5124992142 0.0250156535 0.0006301999 -0.0054828593
0.4999999583 1.1167298125 0.3737884841 0.0250548785 0.0003487389 -0.0012439846
0.1134955739 1.4833332097 0.1599895242 0.0250020785 -0.0027776053 -0.0027783567
0.0244264063 0.8151736960 0.4310284377 0.0250147979 -0.0006257888 -0.0054837870
-0.2803035072 0.2367790442 -0.5803602586 0.0249779340 0.0006339555 -0.0054819815
0.0784201990 1.4927984062 -0.5144027919 0.0250010368 0.0025718415 -0.0037923705
-0.1958357115 1.2390467995 0.4098321145 0.0249891813 -0.0020484165 -0.0009025235
-0.2583241146 0.1276668227 -0.6062776898 0.0249746313 0.0003949527 -0.0055219898
-0.0002205111 0.8497910542 0.4398140231 0.0249998451 0.0006259722 -0.0000718708
0.2590742117 0.2830836597 -0.5550831440 0.0250047924 -0.0006283694 -0.0000721986
0.2938206533 0.5642503058 -0.4895302467 0.0250237590 -0.0006297388 -0.0000726264
0.0589618645 0.0944433144 -0.5916666382 0.0250050757 0.0002229028 -0.0000142181
-0.1854793401 0.0735922105 0.5896582856 0.0249755451 0.0005256666 -0.0054955148
-0.3090817715 1.2443268491 -0.4155834056 0.0249690229 -0.0020468609 -0.0046549760
0.0210191649 1.2928618312 -0.4705045316 0.0249900618 -0.0020454332 -0.0046568010
-0.3883647176 1.4999998750 0.3482053474 0.0249797007 0.0027775942 -0.0027663428
-0.2737410411 0.4401868661 0.5355806345 0.0249745646 0.0006251722 -0.0000716903
-0.4607902560 0.6398690439 0.4888944218 0.0249571757 0.0006250277 -0.0000716542
0.3797091684 1.0347573165 -0.3937906769 0.0250285924 0.0006191638 -0.0054854176
-0.0827547653 0.4073329161 -0.5404842563 0.0249935618 0.0006323944 -0.0054823482
0.2123761101 0.6165368320 -0.4915718299 0.0250164812 0.0006284888 -0.0054832565
-0.1723346579 1.0059400773 -0.4005282375 0.0249864729 0.0006264333 -0.0054837370
0.1916720007 0.8442457546 -0.4242503966 0.0250298396 -0.0006304638 -0.0000729708
-0.2275095866 0.8757136131 0.4337532319 0.0249790507 0.0006284027 -0.0000724319
-0.4098787603 1.4736103105 -0.5159732167 0.0249473146 -0.0022776831 -0.0012335874
0.4432179408 1.4833332097 0.1627955406 0.0250396479 -0.0027772831 -0.0027778262
-0.1671414972 0.0479991016 -0.5791107754 0.0249818479 0.0011967721 -0.0002788430
0.3076587855 1.4833332097 0.0516750415 0.0250319062 -0.0027773109 -0.0027764845
0.3660024751 0.9160309764 -0.4215492107 0.0250277368 0.0006213972 -0.0054849009
0.3994344167 0.6493734876 -0.4838944972 0.0250307174 0.0006256222 -0.0054839204
-0.2787952601 1.4999998750 -0.4101918839 0.0249404257 0.0027766053 -0.0027994706
0.0392004301 1.4833332097 -0.0799500336 0.0250103507 -0.0027774970 -0.0027748928
0.4999999583 0.0480312460 0.5885872023 0.0250507785 0.0004506194 -0.0034115067
-0.4209103538 0.1920410840 0.5763093478 0.0249237701 -0.0006233972 -0.0054834565
0.1485036515 1.4776181158 0.5380958315 0.0250160174 0.0019592304 -0.0008384347
0.2238933813 1.4833332097 -0.3380137066 0.0250497229 -0.0027768581 -0.0027717762
-0.3098394770 0.3769689464 0.5331941153 0.0249483479 -0.0006249222 -0.0054834982
0.0667276333 0.7471456961 -0.4610350546 0.0250051479 0.0006280027 -0.0054833704
0.0594943673 0.5878133066 -0.4840366583 0.0250029674 -0.0006296888 -0.0000724069
0.2866993344 0.0851738235 -0.5902237939 0.0250229201 0.0003720194 -0.0000346069
-0.4679316249 1.4540434566 -0.5347632290 0.0249531868 -0.0010677610 -0.0002333014
0.2098089242 0.9599520422 0.4140581224 0.0250188285 0.0006218777 -0.0000709208
0.3896464981 1.4833332097 -0.0558679856 0.0250488924 -0.0027770387 -0.0027751845
-0.1080532632 1.4999998750 -0.0925760187 0.0249815396 0.0027773442 -0.0027807567
-0.4154033737 1.4833332097 -0.3158683306 0.0249749201 -0.0027775498 -0.0027730345
0.1140673960 0.5697080775 0.4882577496 0.0250084062 -0.0006277277 -0.0054835620
-0.0727661189 0.9022657693 0.4107232283 0.0250096757 -0.0006257638 -0.0054838065
-0.3108468963 0.9036404164 -0.4104027922 0.0249857951 -0.0006301194 -0.0000725458
-0.3330976417 1.0452473073 0.3941158185 0.0249691174 0.0006273583 -0.0000721903
-0.3526636039 0.8852294179 0.4315284599 0.0249673757 0.0006275722 -0.0000722403
-0.4801742572 1.4576994646 0.5523462276 0.0249586729 0.0011458888 -0.0002859347
-0.1361559637 0.4689192498 0.5288629518 0.0249874285 0.0006264777 -0.0000719903
-0.2833375069 0.4361973303 -0.5193852526 0.0249625618 -0.0006264444 -0.0000721097
-0.2633043281 1.4999998750 0.1499316611 0.0249804118 0.0027774803 -0.0027728484
0.1261630062 0.5691248526 -0.4883937635 0.0250082090 -0.0006296694 -0.0000724486
0.3238076897 1.1006748555 0.3644649405 0.0250678451 -0.0006194444 -0.0054844204
0.4096557270 1.4999998750 0.4559810051 0.0250794674 0.0027763831 -0.0027630956
-0.0261479367 0.4842294930 -0.5225055884 0.0249980590 0.0006317527 -0.0054824982
0.4326041389 1.4420583576 0.5589787131 0.0250423979 0.0008084277 -0.0001517875
0.0675684194 1.4833332097 0.4672498736 0.0249758201 -0.0027771025 -0.0027861623
0.1540031511 1.4833332097 0.1111016616 0.0250100812 -0.0027776164 -0.0027772012
0.0888961037 1.4033603775 0.5420866840 0.0250107312 0.0003462944 -0.0055317593
-0.3956081476 1.4833332097 0.3228013300 0.0249333674 -0.0027766664 -0.0027879595
0.0234453397 0.3887500870 0.5304474489 0.0249863174 -0.0006269611 -0.0054834815
-0.3517713040 1.2934531922 0.4473147336 0.0249663979 0.0020544943 -0.0046464566
-0.4213335732 0.1889657176 -0.5770263811 0.0249360201 -0.0006236027 -0.0000718125
0.4712103552 0.9514205985 -0.3992629876 0.0250622368 -0.0006308972 -0.0000734542
0.2696844525 1.3415366021 -0.4987850404 0.0250191285 0.0020796082 -0.0009370930
0.2092456020 0.0000000000 0.4440473616 0.0250140812 -0.0027639998 -0.0029737984
0.4223780815 1.4999998750 0.4103276866 0.0250777396 0.0027764331 -0.0027641873
-0.4709318830 1.0005277861 0.3878138552 0.0249714507 -0.0006268749 -0.0054836732
-0.0278847671 0.5708233663 0.4879977135 0.0249925840 -0.0006275083 -0.0054835343
0.0970953752 1.1619358365 -0.3694444345 0.0250065562 0.0000000000 -0.0055551704
-0.2591752145 1.2544189260 -0.4270033380 0.0249698368 -0.0020465943 -0.0046553843
0.1657013001 1.3585514201 0.5196625803 0.0250138451 0.0019268860 -0.0047683704
-0.2232253425 0.2530821261 -0.5765485283 0.0249824285 0.0006337333 -0.0054820315
0.0037609886 0.4987712862 0.5218834135 0.0250005090 0.0006278083 -0.0000722986
0.2507809735 0.8112339602 0.4488287445 0.0250228257 0.0006234249 -0.0000712819
-0.3387698857 0.0000000000 -0.5086428118 0.0249814063 -0.0027692470 -0.0027107539
0.0342106055 0.0844640013 0.5908662744 0.0249976451 0.0002668472 -0.0055371231
-0.2644072641 0.7176783485 -0.4537590691 0.0249798701 -0.0006288666 -0.0000723875
0.0697194997 0.3567464730 -0.5523115109 0.0250055118 0.0006324472 -0.0054823343
0.1168635375 1.3417172493 0.5271276880 0.0249999840 -0.0019740554 -0.0008349791
-0.2322218390 1.0880763538 0.3674022597 0.0250041646 -0.0006252249 -0.0054838954
-0.1211185455 1.4999998750 -0.3533036664 0.0249622590 0.0027769303 -0.0027932789
-0.2059932967 1.2950052671 -0.4462881142 0.0249829701 0.0020637776 -0.0009194152
-0.4581295063 0.5575646674 0.5081374063 0.0249573924 0.0006244888 -0.0000715292
0.1131015378 0.8946702838 -0.4124941365 0.0250252562 -0.0006305638 -0.0000729680
0.2577781257 0.2447574407 0.5812726057 0.0250241312 0.0006281222 -0.0000723736
0.0581794896 1.3657567056 0.5268678658 0.0250068979 0.0017865832 -0.0049003482
-0.1333029111 0.9461379212 -0.4004946680 0.0250048924 -0.0006305861 -0.0000727792
0.1658263695 1.4999998750 -0.1490641584 0.0250088896 0.0027776359 -0.0027775678
-0.1959956531 0.1367348664 -0.6040107011 0.0249807535 0.0005153166 -0.0055031176
0.2267135644 0.0000000000 -0.4996005375 0.0250212951 -0.0027751720 -0.0027692206
-0.4672585416 1.4833332097 0.4411648063 0.0249171535 -0.0027763998 -0.0027915762
0.4061156050 0.7536094872 0.4453818698 0.0250537868 -0.0006226361 -0.0054840620
-0.4804541711 1.4999998750 -0.1690469817 0.0249339201 0.0027766692 -0.0027926650
-0.3355232804 1.3813590710 0.5375727538 0.0249577396 0.0012800638 -0.0052340898
0.1516342679 0.0271979061 0.5880777718 0.0250109979 -0.0015996610 -0.0005262763
-0.0009339027 1.4999998750 0.4458460337 0.0250312840 0.0027769831 -0.0027633345
-0.1458818962 1.2857893817 0.4639549933 0.0249780090 -0.0020552776 -0.0009096652
0.0515068846 1.4389169134 0.5593714159 0.0250100562 0.0005412722 -0.0000783569
0.4274226783 0.0477377210 0.5817904724 0.0250403396 0.0010729694 -0.0053318676
-0.0046148552 0.0692755803 0.5891787356 0.0249903479 0.0005802305 -0.0054885870
-0.0942963838 1.4833332097 -0.1686331068 0.0250012674 -0.0027775581 -0.0027738206
-0.1740272161 1.4366224997 0.5423871534 0.0249775479 -0.0005506500 -0.0054871537
-0.0262307034 0.1942191060 0.5930886297 0.0249975840 0.0006254888 -0.0000717653
-0.3663501861 1.4999998750 -0.3775110783 0.0249326868 0.0027765220 -0.0027998928
-0.3302015253 0.6872787761 -0.4750321090 0.0249742951 0.0006309361 -0.0054826898
0.4542812399 0.0622235559 -0.5844449499 0.0250316340 0.0008131944 -0.0001281264
-0.3691059665 1.2381429690 -0.4085858535 0.0249643146 -0.0020470471 -0.0046547482
0.4708749163 0.0344743110 0.5932752547 0.0250377451 -0.0013341749 -0.0003494319
0.1221474870 1.4999998750 0.3255367437 0.0250370868 0.0027769887 -0.0027662123
-0.4523462123 1.0683747137 0.3887085690 0.0249581424 0.0006280166 -0.0000723430
-0.1409524688 0.0138888877 0.4444648171 0.0249822813 0.0027606164 -0.0030619650
-0.3181972040 1.4299934031 0.5604867908 0.0249678479 0.0001181194 -0.0000221819
-0.1673577916 1.2545034427 0.4277292741 0.0249841340 -0.0020507359 -0.0009048402
0.2933761339 0.0000000000 0.5274951297 0.0250249229 -0.0027758192 -0.0027208039
0.0385973996 0.7118582240 -0.4692853956 0.0250030562 0.0006289611 -0.0054831482
-0.1769974019 1.4860519873 0.5285755768 0.0249897340 0.0022239693 -0.0011612652
-0.2860791706 0.7571760619 -0.4586899465 0.0249778035 0.0006303666 -0.0054828232
-0.4848691735 0.7478017405 -0.4467360003 0.0249609340 -0.0006278194 -0.0000723208
-0.2914585285 0.5855981540 -0.4845530832 0.0249700507 -0.0006276222 -0.0000722514
0.3900302981 1.0206953261 0.3831118584 0.0250699479 -0.0006197027 -0.0054843815
-0.3386370496 0.3442304324 -0.5408270702 0.0249523201 -0.0006253638 -0.0000719986
0.4940398755 0.0632371170 -0.5848249804 0.0250341812 0.0007887666 -0.0001196486
-0.3095970325 1.4833332097 -0.4196846720 0.0249942201 -0.0027774942 -0.0027707873
0.4268675978 0.2968264864 -0.5518790526 0.0250212979 -0.0006290638 -0.0000723347
-0.3278988449 1.3113409018 0.4935410186 0.0249612174 -0.0020588387 -0.0009137402
0.1916676035 1.3424010104 -0.4997602903 0.0250080257 0.0020798304 -0.0009374846
0.3752330243 0.0391710328 -0.5930266214 0.0250295674 -0.0012392832 -0.0052603398
0.0809687433 0.5558031259 -0.4914996910 0.0250032035 -0.0006295638 -0.0000723819
0.1441559769 0.6138628544 -0.4779633227 0.0250124201 -0.0006298027 -0.0000725430
-0.4513401929 0.7642068002 0.4598238881 0.0249581118 0.0006259527 -0.0000718680
-0.3574643147 1.1528994123 -0.3527777692 0.0249595590 -0.0003021333 -0.0000225625
-0.1740699410 1.4999998750 -0.4613913046 0.0249488563 0.0027766859 -0.0027995317
-0.3563655120 0.4794534906 0.5264000131 0.0249668646 0.0006247749 -0.0000715986
-0.1369700330 1.0442802408 0.3943419019 0.0249870257 0.0006249666 -0.0000716347
-0.4717229246 1.1921031395 0.3773968061 0.0249412396 -0.0009743138 -0.0001840542
0.4234248342 1.0090105687 0.3858361026 0.0250729340 -0.0006194999 -0.0054843954
-0.1571889536 0.0004914083 0.5428200812 0.0249964979 -0.0027556609 -0.0025865151
-0.0930485756 0.5692356915 -0.4883679496 0.0249876868 -0.0006286527 -0.0000723208
0.4708716108 0.0065931078 -0.5636747322 0.0250278035 -0.0022997165 -0.0042748621
-0.3049123718 0.5305854780 0.5144451780 0.0249716924 0.0006255388 -0.0000717736
-0.2727545412 1.4833332097 -0.0778414977 0.0249747257 -0.0027774081 -0.0027770734
-0.1579865007 1.4623008365 0.5293657295 0.0249773535 -0.0017583776 -0.0049059399
0.0324305834 1.3602459089 0.5427595534 0.0250056062 -0.0015825332 -0.0005017263
0.3337796027 1.4999998750 -0.1311106460 0.0250295674 0.0027773692 -0.0027771400
-0.3207485566 0.6060171689 -0.4940313352 0.0249749868 0.0006314805 -0.0054825620
-0.4051039468 0.0138888877 0.5209793719 0.0249669201 0.0027741664 -0.0028572706
0.0497607931 1.4999998750 0.0485358835 0.0250093118 0.0027775053 -0.0027728400
0.2943062421 0.5928746034 0.4828566056 0.0250303340 -0.0006256333 -0.0054837565
-0.3423540881 1.1982199613 0.3798435114 0.0249452063 -0.0011473888 -0.0002507653
0.4804604461 0.2202021511 0.5870136830 0.0250448174 0.0006287555 -0.0000725208
-0.2804209155 0.3606237311 0.5370049150 0.0249505563 -0.0006250222 -0.0054834926
-0.4285600948 1.4288652726 0.5606278491 0.0249546451 0.0000547750 -0.0000176736
-0.1711606191 1.4817330710 0.4989121543 0.0249708090 -0.0026691526 -0.0033421650
-0.3623205531 0.0141505433 0.5770328672 0.0249705757 -0.0021525165 -0.0010550957
0.0008109833 1.4090390187 0.5427965145 0.0250078479 0.0002750861 -0.0055385676
-0.3176102263 0.9390825134 -0.4161596806 0.0249754396 0.0006291694 -0.0054831037
-0.2375539802 0.4195025206 0.5232775578 0.0249592174 -0.0006255527 -0.0054835065
-0.1584130896 0.9051248440 -0.4100566728 0.0250002174 -0.0006304611 -0.0000726847
0.1028205581 0.5828138931 -0.4994563014 0.0250081674 0.0006304166 -0.0054828093
0.1350306721 0.3164966097 -0.5472930669 0.0249950451 -0.0006279166 -0.0000721764
0.2459283212 1.4999998750 0.1305405405 0.0250377396 0.0027771025 -0.0027708789
0.0519673929 1.0028456803 -0.3872734802 0.0250255590 -0.0006308333 -0.0000730764
-0.2436674547 0.4241952758 -0.5365418095 0.0249809285 0.0006325888 -0.0054823009
0.1044147607 1.1917072562 -0.3744607174 0.0250035618 -0.0010318694 -0.0053528815
0.4671388444 0.3125030684 -0.5482240640 0.0250259785 -0.0006291249 -0.0000724042
0.2721229329 1.1233105897 0.3591875215 0.0250635285 -0.0006197055 -0.0054844009
0.4634864419 0.7373533691 -0.4633245489 0.0250354674 0.0006233083 -0.0054844565
-0.4999999583 0.4910741174 -0.5086659118 0.0249423785 -0.0004375194 -0.0008803985
0.1645288974 1.4010563860 0.5417986729 0.0250161174 0.0003737222 -0.0055292093
0.4734057550 1.1907284897 -0.3553679273 0.0250384479 0.0010047944 -0.0001948430
0.0592479645 0.9642927419 -0.3962619239 0.0250240812 -0.0006307305 -0.0000730208
0.2014235749 0.1167865875 0.6083332618 0.0250090979 0.0002349389 -0.0000128486
-0.3047708052 0.8762381770 -0.4308528738 0.0249764090 0.0006295805 -0.0054830093
0.1359962776 1.4833332097 -0.1650089765 0.0250274507 -0.0027772359 -0.0027738650
0.0831480486 0.7685115610 -0.4419075701 0.0250153451 -0.0006301999 -0.0000727264
-0.1248820729 0.8623249615 0.4368835733 0.0249884424 0.0006273277 -0.0000721847
0.3180079735 1.4833332097 0.1885173218 0.0250234618 -0.0027774970 -0.0027781373
0.1297980947 1.4999998750 0.0559839939 0.0250190896 0.0027773803 -0.0027726623
-0.2125814684 1.4777556130 0.5118330421 0.0249783118 -0.0023960887 -0.0041453372
0.1372013608 0.1469680655 -0.6014524374 0.0250090812 0.0006051944 -0.0054878343
0.4311064474 0.6554629732 0.4852485054 0.0250395590 0.0006233611 -0.0000712680
0.3072438716 0.7526496262 -0.4456057059 0.0250356035 -0.0006302666 -0.0000729486
-0.1477222849 1.4833332097 -0.0083983729 0.0249840979 -0.0027774831 -0.0027773095
0.4677547499 0.8824512181 -0.4153429529 0.0250580396 -0.0006307055 -0.0000733375
0.2310284113 1.1571342341 0.3722221704 0.0250121674 0.0000000000 -0.0000003097
0.3443531602 1.4999998750 0.4143789807 0.0250690035 0.0027765387 -0.0027640900
0.1186761762 0.0138888877 0.5294725823 0.0250211729 0.0027744581 -0.0028737650
0.3971943836 0.0765394353 -0.5883050413 0.0250282674 0.0005331333 -0.0000628792
0.0407143827 0.5646330057 -0.5037070177 0.0250033618 0.0006310666 -0.0054826593
0.2092535270 0.1464849989 -0.5867501719 0.0249975118 -0.0005942888 -0.0000662931
-0.1592157867 0.0165487903 -0.5520705082 0.0249794007 0.0025661970 -0.0017578707
-0.0961513114 0.5286721532 0.5148925140 0.0249911896 0.0006272083 -0.0000721597
-0.2749530132 1.0409850216 -0.3923346076 0.0249785785 0.0006270833 -0.0054835870
0.4304063641 1.0323766056 -0.3943472852 0.0250324701 0.0006185833 -0.0054855509
-0.3795311073 1.4833332097 -0.1706551927 0.0249690174 -0.0027773914 -0.0027760762
0.4215226982 1.4833332097 0.3419033618 0.0250245479 -0.0027775748 -0.0027799900
-0.2225398842 1.2613665060 -0.4083366257 0.0249958007 0.0020524943 -0.0009064958
0.3238442258 0.0415346799 0.5786156698 0.0250308340 0.0012877166 -0.0052243926
0.2807709988 1.3989760195 -0.5413253535 0.0250287146 0.0003621083 -0.0000321542
-0.1365010664 1.2320808223 -0.4017260096 0.0250013674 -0.0020469887 -0.0046543038
-0.3686290859 1.4999998750 0.1119810448 0.0249658285 0.0027772637 -0.0027769817
0.1963123059 1.4833332097 0.0707785649 0.0250177785 -0.0027774970 -0.0027767150
-0.3034421469 1.4999998750 0.3368532539 0.0249886729 0.0027775775 -0.0027659400
-0.0616589810 1.1814831904 -0.3535188803 0.0249875729 0.0004364111 -0.0000465403
-0.3220732732 1.2441408602 -0.3889026106 0.0249894313 0.0020466276 -0.0008999541
-0.4999999583 1.4943649755 -0.0012298680 0.0249208201 0.0008990944 -0.0027955900
0.4326706834 1.2829053875 -0.4592381631 0.0250509007 -0.0020453887 -0.0046561177
0.1926945089 0.9082133076 0.4261547381 0.0250173562 0.0006227999 -0.0000711347
0.3892958009 0.3927344534 0.5466751697 0.0250361951 0.0006274944 -0.0000722264
-0.0522680762 1.4102446325 0.5596355186 0.0249877924 -0.0002759916 -0.0000195569
-0.3024040831 0.3247560868 0.5625686823 0.0249718396 0.0006241555 -0.0000714569
-0.3283597671 0.0756102298 -0.5880985413 0.0249636813 0.0006628111 -0.0000889958
-0.2265263700 0.0822896265 -0.5895828384 0.0249725563 0.0005289333 -0.0000573847
0.2328692556 1.0694173970 0.3884647690 0.0250207451 0.0006200861 -0.0000705069
-0.0285028115 0.0404067939 0.5778637505 0.0249952868 0.0013951138 -0.0051657260
0.3897975175 1.4833332097 0.2156535084 0.0250297951 -0.0027774359 -0.0027784650
-0.3149538210 0.4408947883 -0.5182900943 0.0249598674 -0.0006262972 -0.0000721014
0.3268196478 1.4999998750 0.3865026997 0.0250650229 0.0027766053 -0.0027647567
0.2960557059 0.8842519235 0.4317569599 0.0250268340 0.0006218638 -0.0000709180
0.3987960918 1.2347639971 0.3831366111 0.0250404229 0.0019046276 -0.0047863704
0.2755797909 0.8607591560 -0.4344719207 0.0250209174 0.0006234666 -0.0054844204
-0.1136403294 1.4999998750 -0.1514679777 0.0249768840 0.0027772470 -0.0027836456
0.4411096855 1.3493709709 -0.5076236924 0.0250376007 0.0020823498 -0.0009400041
0.3668474750 0.7294828031 0.4510069360 0.0250477257 -0.0006233138 -0.0054839954
-0.4675186610 1.4833332097 -0.4417436229 0.0249776590 -0.0027776553 -0.0027706373
-0.4518764957 1.4339786611 0.5427648506 0.0249604951 -0.0003714472 -0.0055040454
0.4953129671 0.6223610676 0.4929878048 0.0250454785 0.0006230305 -0.0000711903
0.3073153549 1.4833332097 -0.0309221016 0.0250376812 -0.0027771914 -0.0027754873
0.3444809102 0.8866744261 -0.4284128685 0.0250261396 0.0006221722 -0.0054847204
-0.1570272091 1.4999998750 -0.0881272135 0.0249762674 0.0027772775 -0.0027816428
-0.0124269045 0.0223396648 -0.5598690186 0.0250053396 0.0021876943 -0.0011095569
-0.0995621167 1.4833332097 0.1279382824 0.0249801924 -0.0027773553 -0.0027799984
-0.4353410137 0.6170619875 -0.4772174227 0.0249583424 -0.0006270361 -0.0000722180
0.3312820168 0.8479105766 0.4402536869 0.0250301118 0.0006219333 -0.0000709347
0.0488125543 0.4212641038 0.5228668828 0.0249912924 -0.0006272666 -0.0054834898
0.0327398056 1.4999998750 0.4607950241 0.0250362257 0.0027769137 -0.0027629762
-0.4148295154 0.4579401702 -0.5286521684 0.0249675007 0.0006326861 -0.0054822787
-0.2622344754 0.7816945599 -0.4388339426 0.0249836063 -0.0006294027 -0.0000724514
0.2515794540 1.1892761926 0.3578552160 0.0250172729 0.0006846527 -0.0054650537
-0.0769432436 1.4999998750 0.2489438168 0.0250087007 0.0027773859 -0.0027680456
0.3253889868 0.9125256934 -0.4083312007 0.0250462924 -0.0006307166 -0.0000732292
-0.4701433858 0.8385829662 -0.4255706215 0.0249673201 -0.0006286499 -0.0000724153
0.2884988760 0.2885094287 0.5538181052 0.0250092924 -0.0006280722 -0.0054834398
0.0379436024 0.2820357182 -0.5553274523 0.0249840729 -0.0006270638 -0.0000721014
-0.3950132254 0.2997068778 0.5684252596 0.0249631813 0.0006232388 -0.0000712430
0.1008597388 1.4833332097 -0.3815039640 0.0250386590 -0.0027769692 -0.0027712512
-0.1134185683 1.4999998750 0.2864707497 0.0250071146 0.0027773831 -0.0027671456
0.0410857049 1.0238485536 0.3991189209 0.0250033146 0.0006230666 -0.0000711958
0.2005147138 1.0216172121 -0.3828969223 0.0250406340 -0.0006309583 -0.0000732708
-0.0681095804 0.8344021416 -0.4406342674 0.0249947090 0.0006281388 -0.0054833398
-0.4999999583 0.4871265011 0.5198290720 0.0249421035 0.0002804639 -0.0015645124
-0.0077962882 0.1300324225 -0.5897415300 0.0249969896 -0.0004142000 -0.0000367514
0.5000000000 0.3778498852 -0.5463434614 0.0250416507 0.0005362472 -0.0050801482
-0.1243917674 0.8546535204 -0.4358994651 0.0249903785 0.0006284777 -0.0054832620
0.4647003224 1.3027959803 0.4836469250 0.0250417590 -0.0020575776 -0.0009124430
0.1184415179 0.7351922998 0.4496757778 0.0250200396 -0.0006257638 -0.0054837732
-0.2284957476 0.8130314461 -0.4315279071 0.0249884896 -0.0006298583 -0.0000724958
0.2377829469 1.4833332097 0.2616831462 0.0250091562 -0.0027776331 -0.0027793678
0.3488965070 1.4833332097 -0.3959724739 0.0250681562 -0.0027765970 -0.0027710762
-0.0057202662 0.6252786340 -0.4895279162 0.0249997507 0.0006307361 -0.0054827370
-0.3944570005 1.3914161368 0.5566744244 0.0249674785 -0.0007322333 -0.0001125403
0.4084571493 0.2237889841 0.5689073929 0.0250184174 -0.0006284861 -0.0054834176
0.0894557148 1.4999998750 -0.2510640471 0.0249932118 0.0027774025 -0.0027837789
-0.4999999583 0.7267554644 -0.4601257575 0.0249476618 0.0001398722 -0.0033703039
-0.1862730928 1.2754618965 -0.4242391660 0.0249974424 0.0020573082 -0.0009118319
0.0697890331 1.4833332097 -0.4421959618 0.0250393646 -0.0027769248 -0.0027705178
-0.3564679175 1.4192429095 -0.5583333076 0.0249591035 0.0000200361 -0.0055501704
-0.0049551857 1.4833332097 -0.1879215941 0.0250128812 -0.0027774025 -0.0027735873
0.0584488285 1.4108682102 -0.5583333076 0.0249993924 -0.0000500250 -0.0055500981
0.3701608997 1.4462926711 0.5584494021 0.0250340035 0.0009665916 -0.0001834542
0.2722912023 0.0000000000 0.4404629869 0.0250196229 -0.0027661942 -0.0029646511
-0.3167565403 1.4269920005 -0.5580842493 0.0249667146 0.0001639972 -0.0055465593
-0.2617708421 0.1626435253 0.5831632139 0.0249395951 -0.0006242083 -0.0054834398
-0.1885098204 1.2749035938 0.4263869686 0.0249985507 0.0020515582 -0.0046502482
-0.4267420950 0.1654874029 0.5998061431 0.0249601618 0.0006220666 -0.0000709736
0.4476772349 1.4632889281 -0.5283777212 0.0250442701 -0.0018793221 -0.0007751958
-0.2995359806 0.0487941265 -0.5973035322 0.0249727201 -0.0011527805 -0.0052920176
-0.2312115363 0.0522741956 0.5834916167 0.0249756313 0.0010798555 -0.0053217093
-0.4715582996 0.7144170377 -0.4545194663 0.0249603340 -0.0006276222 -0.0000722958
0.0995188195 0.4124404129 0.5249241076 0.0249963674 -0.0006275249 -0.0054834843
0.3857980206 1.4808585738 0.5059083092 0.0250481451 -0.0026807887 -0.0034615428
-0.4298126281 0.9031228914 0.4105234227 0.0249696229 -0.0006266666 -0.0054836454
0.1152127265 1.2506138069 -0.4226976051 0.0250257451 -0.0020463693 -0.0046549316
-0.2224872398 1.4113777685 0.5430888478 0.0249868924 0.0002526250 -0.0055403731
0.4258251673 1.4833332097 -0.2262078631 0.0250650368 -0.0027767359 -0.0027731289
0.3284815615 0.7441315769 0.4475915974 0.0250443757 -0.0006235333 -0.0054839787
0.3444742130 0.0911640313 -0.6083333035 0.0250311451 -0.0001569417 -0.0055479870
-0.2746889299 1.3613427616 0.5224540079 0.0249673840 0.0019151304 -0.0047839649
0.0356170943 0.2390368579 0.5653524348 0.0249778146 -0.0006263361 -0.0054834426
-0.0707268024 1.4999998750 -0.2027284039 0.0249782729 0.0027772331 -0.0027850900
-0.0257726229 0.6006783305 0.4810371641 0.0249947868 -0.0006276583 -0.0054835426
-0.1854852512 0.9078432799 0.4262412464 0.0249828313 0.0006274444 -0.0000722097
-0.1003255028 0.3107168352 0.5658511015 0.0249907090 0.0006256861 -0.0000718097
-0.2353534082 1.4999998750 -0.4488353557 0.0249427340 0.0027766137 -0.0028003123
-0.2610335449 0.0138888877 -0.5174482333 0.0249782507 0.0027738692 -0.0026908151
-0.1187364484 0.7575386258 0.4444658338 0.0249947479 -0.0006278388 -0.0054835898
0.3079147077 1.4725688134 -0.5175354194 0.0250318090 -0.0023223443 -0.0012959513
0.2868748539 0.6295211698 -0.4885360107 0.0250221507 0.0006273499 -0.0054835204
0.2656074084 1.4685153998 -0.5456814420 0.0250231229 0.0015963165 -0.0050379343
-0.4355717193 1.0752458298 -0.3703936594 0.0249836146 -0.0006307944 -0.0000726569
0.2932863617 1.3188873901 0.4760098173 0.0250304146 0.0020590915 -0.0046417704
0.1745591660 1.0478435071 0.3767823450 0.0250474229 -0.0006215694 -0.0054842176
0.0447400268 0.4969998697 0.5222976051 0.0250043368 0.0006281249 -0.0000723736
0.4889065648 1.4796051489 0.5095210812 0.0250631368 -0.0026200692 -0.0036353483
0.0551234510 1.1695732831 -0.3527777692 0.0250041701 0.0000756167 -0.0000028847
-0.2613569671 1.2737884300 0.4251288799 0.0249900035 0.0020513248 -0.0046504260
0.4990580667 0.1933845367 -0.5905059966 0.0250390562 0.0006323305 -0.0054823620
0.1052412801 0.1537466566 -0.5852375165 0.0249832785 -0.0006264055 -0.0000720069
-0.4634237114 1.3338966111 0.5196581303 0.0249484563 -0.0020619915 -0.0009173319
-0.2340793416 0.1440485297 0.5871931025 0.0249496146 -0.0005689500 -0.0054931732
0.0216020788 1.2853417901 -0.4353857957 0.0250130118 0.0020606248 -0.0009156263
-0.0223622509 0.3425534076 0.5584076521 0.0249980063 0.0006265333 -0.0000720042
0.2382073940 1.2390968995 0.3867474775 0.0250299118 0.0019931776 -0.0047048427
0.1320164890 1.2018497748 0.3617276851 0.0250147451 0.0010477555 -0.0053383426
-0.3520094262 1.0306042974 -0.3947616463 0.0249727090 0.0006282083 -0.0054833287
-0.1006526222 0.2929163589 -0.5527906803 0.0249717229 -0.0006263388 -0.0000720514
-0.1755894187 1.4833332097 0.2753001312 0.0249614951 -0.0027770387 -0.0027843512
-0.3746677521 0.8888986481 -0.4138397919 0.0249790174 -0.0006296222 -0.0000725042
0.4997962528 1.4076669994 -0.5583333076 0.0250479396 -0.0000479611 -0.0055473370
0.3810125238 0.7244630007 -0.4521773276 0.0250409812 -0.0006302249 -0.0000729847
0.4459074295 0.6819024682 -0.4762890950 0.0250342146 0.0006244888 -0.0054841815
