0.4573147678 1.1737533536 -0.1935798454 -0.0060947643 0.3955803823 0.0474201861
-0.1189705480 0.3440535042 0.3607787690 -0.0079489925 0.3937702452 0.0482884886
0.1265180328 0.5743979923 -0.3265253244 -0.0074127517 0.3952189365 0.0462421500
-0.3473113198 0.6115549465 0.3408130376 -0.0061955131 0.3966131298 0.0480727271
-0.3427266523 0.8951948730 -0.2934643392 -0.0091829540 0.3953084474 0.0465916571
0.4049994885 0.5264191341 0.4228381610 -0.0062865065 0.3958201453 0.0491100382
0.2124703685 0.2101693977 0.3105044988 -0.0079510676 0.3937700050 0.0482798338
-0.0649189158 0.4310181042 -0.0298887194 -0.0079505892 0.3976804747 0.0478256619
0.3189791095 0.3954591680 0.2892433384 -0.0099152880 0.3957698467 0.0480969393
-0.1150449146 0.4422078921 0.0596295640 -0.0079486420 0.3976807051 0.0478274988
0.1004509918 0.3935620596 -0.1903530905 -0.0079473111 0.3970419239 0.0466263570
0.2873757599 0.7286620691 -0.2901773078 -0.0068667635 0.3952663331 0.0464859411
0.2142358969 0.1934956847 0.1342100541 -0.0079370380 0.3937651460 0.0482351541
-0.3031506070 0.2085488942 0.2744974803 -0.0079918392 0.3937673373 0.0482547632
0.3039518998 0.1942157906 -0.0009429697 -0.0078930139 0.3937719915 0.0482928199
0.2629813953 0.5465480957 -0.2539781769 -0.0069517994 0.3952888324 0.0464250307
-0.3386429863 0.4274300707 -0.1606196780 -0.0093481314 0.3953596359 0.0467363473
-0.3329288567 0.4634398180 0.0146784005 -0.0060660633 0.3962892996 0.0481251874
-0.4158490324 0.9406526489 -0.2108791251 -0.0097136507 0.3954037328 0.0472589798
-0.1911232469 0.2100894728 0.1222699808 -0.0079613014 0.3937763307 0.0483360446
0.0252024861 1.1322610022 -0.4278799653 -0.0078473853 0.3971103649 0.0494610239
0.3968512616 0.4224814905 0.0137546294 -0.0059851894 0.3958373682 0.0479969918
0.1583812861 0.4325536092 -0.1706196544 -0.0087451881 0.3961718476 0.0498083535
0.3217790509 0.3899403047 0.3551615530 -0.0099100353 0.3958197535 0.0481682862
-0.2154304295 0.5265140789 -0.2739073794 -0.0088132491 0.3952582532 0.0463609900
0.0867566930 1.1397157551 -0.4667748533 -0.0074173823 0.3966009863 0.0464008540
-0.2576596963 0.3182864613 0.4616002070 -0.0082271606 0.3960558702 0.0499846979
-0.3814549041 0.4512804355 -0.1026281367 -0.0097687649 0.3955161467 0.0473554248
0.3194871690 0.4312754897 0.2555327555 -0.0099147958 0.3957777337 0.0481010462
-0.2125923054 0.7925727578 -0.2401147375 -0.0069552940 0.3961807918 0.0497039113
0.1581179292 0.1933486477 0.1322495429 -0.0079417887 0.3937651460 0.0482353943
0.3876293856 0.1027298118 0.4508694480 -0.0077953187 0.3953893213 0.0461387591
-0.1318928241 0.2453375866 0.4686255200 -0.0079515125 0.3942907376 0.0494048268
-0.0764548541 0.7151657653 -0.3762697268 -0.0082819736 0.3951862979 0.0462034613
0.0036431861 0.2281024598 0.3389474417 -0.0079328740 0.3976856054 0.0478819181
0.2362953005 0.3961923388 -0.1182198531 -0.0089633889 0.3961174598 0.0497052343
-0.0728487097 0.4407844918 0.0482424012 -0.0079493351 0.3976806441 0.0478270066
0.3814771947 0.3732369516 -0.0861908928 -0.0061322205 0.3955099647 0.0473372863
0.1525115710 0.3563506291 0.3904263089 -0.0079473111 0.3976843651 0.0479189904
0.1808376544 0.2041017131 0.0961306992 -0.0079338092 0.3976870269 0.0478896653
-0.2127267264 0.2060123865 0.2513714169 -0.0079854407 0.3937671168 0.0482530405
0.2215436896 0.4303839497 -0.0293024694 -0.0079408161 0.3976805653 0.0478264770
0.3955015038 0.2333112508 -0.0035347433 -0.0060171409 0.3955435089 0.0477337629
-0.3982372470 0.4311406317 0.1498903089 -0.0099042215 0.3955357972 0.0481585564
-0.0830491718 0.3257646408 0.0858291595 -0.0079473111 0.3976807543 0.0478299007
0.1958607632 0.3426445962 0.2869554059 -0.0079518768 0.3976889838 0.0479098532
-0.4048447162 0.9267965688 0.0066035818 -0.0063749780 0.3956695153 0.0492478947
0.3382726671 0.4457057708 0.4266215337 -0.0097677313 0.3959741045 0.0487541640
0.4191329689 0.7661871040 -0.0526739422 -0.0060831288 0.3953301297 0.0485127670
-0.3957985231 0.2390523411 0.0594751067 -0.0099154751 0.3957076172 0.0480842682
0.3995918106 0.3132369886 0.2589836630 -0.0059820650 0.3958178123 0.0480006163
-0.2076445304 0.3257454963 -0.2264102777 -0.0088416626 0.3953075654 0.0463627894
-0.4412261667 1.0142458352 0.0412171788 -0.0085130325 0.3952093268 0.0498667419
-0.3956099841 0.5905131484 -0.1095127069 -0.0098725693 0.3954860026 0.0477334912
0.3229513539 0.3643801893 0.0192286083 -0.0099137386 0.3958144752 0.0480631588
0.4626983832 1.1600885177 0.0605477182 -0.0075098189 0.3955735428 0.0499752339
0.0773691770 0.4171167301 -0.1455351352 -0.0079463346 0.3976749405 0.0477936219
-0.3968430596 0.4208731186 0.3844291601 -0.0099133626 0.3956245324 0.0480476940
-0.2862151121 0.6708546076 -0.1528777144 -0.0067010939 0.3961505571 0.0495286163
0.4018364987 0.4524772538 0.2065669340 -0.0059865892 0.3955585465 0.0480772396
0.3904957185 0.6319609048 0.3767713267 -0.0082466634 0.3973100000 0.0491129599
0.3908574774 0.4320617882 0.4535567629 -0.0064771128 0.3958665752 0.0493535990
-0.2851339265 0.8278852785 -0.3182438617 -0.0090364998 0.3952981330 0.0464830213
0.1798191177 1.0404705859 -0.3417076667 -0.0088093686 0.3964144456 0.0496955873
-0.1123888641 1.1104148322 -0.4030350102 -0.0075658250 0.3968308088 0.0496382640
0.3428326401 0.4842337890 0.4216138860 -0.0097793373 0.3960426105 0.0486988273
0.0749140353 0.7507090949 -0.2838327900 -0.0083404998 0.3962455354 0.0499237482
-0.4324755812 0.8344831636 -0.0592794190 -0.0098827715 0.3953775657 0.0481398057
-0.0326531399 0.3443257227 0.3161514849 -0.0079473111 0.3976868536 0.0478851371
0.1414178068 0.2014077122 0.2198968240 -0.0079562199 0.3937666147 0.0482510186
0.2183274342 0.2365034398 0.3791155114 -0.0080320399 0.3937786204 0.0483320126
0.3520387716 0.5056240271 -0.1717396093 -0.0064481440 0.3953743900 0.0468432288
-0.1716064208 0.2218915380 0.4189404195 -0.0079777506 0.3937710839 0.0482885988
-0.3150782139 0.4059230834 0.3293596034 -0.0059813641 0.3957785271 0.0481576665
-0.0827920185 0.3132319269 0.0077917060 -0.0079482798 0.3976804373 0.0478269200
-0.0654530126 0.4829165142 0.4018907388 -0.0079482286 0.3976771199 0.0478000972
0.4566739253 1.2595127934 -0.1878683441 -0.0062622609 0.3962321929 0.0472269889
-0.0890661325 0.1887170109 0.0704943759 -0.0079521130 0.3937642010 0.0482234989
-0.3670509300 0.3281014800 -0.0927237233 -0.0096034458 0.3954341979 0.0470461400
-0.0462117224 0.9725337611 -0.3537903768 -0.0077762018 0.3963313903 0.0499302589
-0.3999768799 0.1540171081 0.4548309370 -0.0096904662 0.3962392491 0.0487198166
-0.1709864140 0.3356747381 0.2835777709 -0.0079363903 0.3937712177 0.0482963302
0.3313718151 0.6641694520 -0.2374789418 -0.0066864796 0.3952927641 0.0466204920
-0.3957985526 0.3939423566 0.1497422344 -0.0099118781 0.3956099299 0.0481208148
-0.3828099461 0.4807762349 0.0194079491 -0.0096215429 0.3967320406 0.0478789432
0.3780569000 0.4968248873 -0.1295741214 -0.0061915755 0.3954470363 0.0472283395
-0.3711621453 1.2163845721 -0.2872647714 -0.0082762523 0.3971177577 0.0467190987
0.2488789785 0.7636011777 -0.3243956942 -0.0069686109 0.3952592927 0.0464231190
0.1942930566 0.4560441622 0.1740190780 -0.0079441040 0.3976812229 0.0478319050
-0.3413872012 0.4707608862 0.4420965404 -0.0063436742 0.3961068343 0.0491277258
-0.0114313533 0.3175610830 0.0315043698 -0.0079473111 0.3976634546 0.0477144549
0.1246593768 0.2057876611 0.1121951806 -0.0079376208 0.3976868162 0.0478875252
-0.2125020011 0.3180265734 0.0224777996 -0.0078802267 0.3976715463 0.0477696558
0.3188715015 0.3147373803 0.1267926039 -0.0099160992 0.3957263936 0.0480657990
-0.1917678871 0.6755823607 -0.3272672247 -0.0087510137 0.3952373762 0.0463365514
0.0727817709 0.1907578841 0.0977059835 -0.0079427121 0.3937645849 0.0482280645
0.1310905627 0.2050445756 0.2596547559 -0.0079543377 0.3937668647 0.0482541844
0.2124350701 0.2194790994 0.3969537764 -0.0079570527 0.3937751809 0.0483211311
-0.2409815948 0.3155715676 0.1178947550 -0.0079395935 0.3937717867 0.0483014038
0.1007981719 0.5875450055 -0.3352826688 -0.0075248191 0.3952183065 0.0462113719
0.3173183659 0.2152996912 0.2283199450 -0.0079077956 0.3976845875 0.0478665399
0.1612279252 0.3067526888 0.0439924238 -0.0079508077 0.3937721332 0.0483044850
0.1284302241 0.8589898829 -0.3005266929 -0.0085617325 0.3962866358 0.0498493732
-0.3150782435 0.4416382449 0.3074411552 -0.0059812814 0.3958204623 0.0480947480
-0.2949733896 0.4362455160 0.0442116582 -0.0085024503 0.3975969588 0.0478134850
0.0691536115 0.3056619940 0.0356965180 -0.0079493725 0.3937722671 0.0483055875
0.1559284873 1.1452321239 -0.4404809470 -0.0076326909 0.3972075541 0.0469893995
-0.2720827441 0.1969562943 0.0020082179 -0.0079800718 0.3976863004 0.0478837392
0.2007168221 1.0429456300 -0.4243107259 -0.0070835841 0.3954189988 0.0463253726
-0.0508922068 0.4664426351 0.2598108650 -0.0079478841 0.3976817604 0.0478363308
-0.1897105529 0.4302843034 -0.0297065710 -0.0079526426 0.3976805929 0.0478266444
0.0653972526 0.5513542420 -0.3326895623 -0.0076955209 0.3952087972 0.0461833285
0.4152082805 1.2413337687 -0.1072504297 -0.0098367413 0.3961479465 0.0484142764
0.4294707283 0.8074180377 -0.0686694354 -0.0060133707 0.3953715747 0.0481549575
-0.3980763458 0.4615164361 0.3345732750 -0.0099071569 0.3955724973 0.0479630223
-0.3371275511 0.4149675460 0.4526961998 -0.0062919069 0.3959922784 0.0490827744
-0.0084314322 0.2546484734 -0.1578354042 -0.0070846965 0.3951125294 0.0496904625
-0.3289875557 1.0855153849 -0.3454022077 -0.0091549578 0.3955890135 0.0465177035
-0.2386213980 1.1279834775 -0.3460751946 -0.0068018289 0.3966295259 0.0493802485
-0.0876921331 0.1784964140 -0.0630698164 -0.0079677235 0.3937606572 0.0481330055
0.0439584661 1.0889629867 -0.3997302558 -0.0079598385 0.3966269822 0.0498149982
-0.3287328949 0.8064581571 -0.1488910505 -0.0063473637 0.3960698467 0.0491548360
0.3881705818 0.2180802558 0.3841541912 -0.0079473899 0.3937768918 0.0483347098
-0.1239984665 0.1946322522 -0.0232931771 -0.0079627819 0.3976866607 0.0478861195
-0.1469715452 0.3354067821 -0.1925732652 -0.0079473111 0.3955212163 0.0461078629
0.3251822822 0.5097110814 -0.1984170080 -0.0066617103 0.3953226621 0.0466316373
-0.2885926421 0.4564777267 0.1917886322 -0.0082541763 0.3976527463 0.0478308773
0.2905339144 1.0079477925 -0.2506833648 -0.0091695170 0.3961773720 0.0495414213
0.2805624775 0.9004359107 -0.2274890908 -0.0090719242 0.3961667898 0.0496205213
0.2058978079 0.2225298860 0.4252761644 -0.0079593385 0.3937767855 0.0483339302
-0.3932153590 0.2346216683 0.1593069629 -0.0098831732 0.3953833323 0.0480938640
0.1742436596 0.3219341018 -0.1351250503 -0.0087757141 0.3961663783 0.0497954442
0.1047016347 0.2015568833 0.2195204666 -0.0079595058 0.3937666442 0.0482509379
-0.3089379480 0.2471305874 -0.0137680113 -0.0097692729 0.3956782665 0.0473215360
-0.0307320418 0.5446183015 -0.3348903602 -0.0081124846 0.3952078325 0.0461750734
0.1675119855 0.3390026081 0.2488408116 -0.0079492642 0.3976909054 0.0479363866
-0.3973241408 0.3978944072 0.0416635917 -0.0099136165 0.3957889223 0.0480234050
-0.4924802063 1.1933040054 -0.0249738015 -0.0098883649 0.3954704314 0.0478656598
-0.0410202291 0.3805362844 0.4598226021 -0.0079473111 0.3947218707 0.0497426413
0.3199332826 0.4258238763 0.2207477598 -0.0099040758 0.3959100264 0.0479835213
-0.3277831693 0.2281566704 0.4589937010 -0.0079711354 0.3944674087 0.0490545597
0.3898471564 0.5374645015 -0.0795628025 -0.0060473500 0.3957455853 0.0485518396
-0.4321240384 0.9384614351 -0.1665805223 -0.0098213158 0.3954291125 0.0475417155
0.3730421921 0.4976599921 -0.0079540109 -0.0069700894 0.3973438376 0.0484763621
-0.3851471928 1.2329850463 -0.1966360679 -0.0061894473 0.3963971085 0.0486356213
-0.1757467013 0.5760143653 -0.3069832033 -0.0087165147 0.3952454226 0.0463189819
-0.3466488778 0.2032121734 0.0732375690 -0.0079891046 0.3976860504 0.0478821248
-0.0052458918 1.1302184929 -0.4894133326 -0.0079978657 0.3958189305 0.0461061166
-0.0436524023 0.4286855983 -0.0485487722 -0.0079497839 0.3976806244 0.0478268806
0.3196918698 0.2703543086 0.0065113146 -0.0098525605 0.3958388626 0.0485158737
0.3777152700 0.1290208949 0.4595186449 -0.0098798518 0.3955901318 0.0477722704
0.1981711202 0.5715342444 -0.1866178133 -0.0088530442 0.3961879247 0.0497517785
0.1659560543 0.4390890050 0.4580535890 -0.0079473111 0.3960189181 0.0500119479
-0.2891527643 0.7027731799 -0.1594552619 -0.0066691031 0.3961502480 0.0495009844
-0.4607304949 1.0324068947 -0.1016155497 -0.0098704075 0.3954495721 0.0477480287
0.3296365981 0.5085940698 0.3539589680 -0.0098869631 0.3959106544 0.0483397026
-0.2691431998 0.2391329570 -0.1661828508 -0.0090436288 0.3953058900 0.0464856418
0.4022682814 0.6809457271 -0.0619127360 -0.0062259604 0.3953052875 0.0488921367
0.2165656327 0.8073306472 -0.3544894068 -0.0070682119 0.3952454856 0.0463712513
0.0754995332 0.7262508039 -0.3803764355 -0.0076444682 0.3951977563 0.0461942336
-0.2491918740 0.2915684387 0.4644582789 -0.0081400023 0.3958788289 0.0500188052
-0.3672553020 0.6039619276 0.4070657158 -0.0071290691 0.3968276096 0.0494682887
-0.3890504903 1.2506235678 -0.2245248540 -0.0065449178 0.3971009718 0.0480025812
0.3698083633 0.2538611354 0.4774569479 -0.0069901455 0.3949112267 0.0495427562
-0.4846843924 1.2237297344 -0.0954850922 -0.0098659285 0.3956067798 0.0476479355
0.2099110740 0.3035223388 -0.0738364743 -0.0079655717 0.3976609719 0.0477131713
0.3103835365 0.6015552870 -0.2371660009 -0.0067354315 0.3952814258 0.0465802736
0.4068131124 0.5912335988 0.4042855725 -0.0067047834 0.3964118192 0.0494067090
0.2051882922 0.1779641856 -0.0680338141 -0.0079343270 0.3937602614 0.0481297432
0.4951596815 1.1936060411 -0.0021439777 -0.0060029676 0.3954283230 0.0480139017
0.3676780146 0.7568025864 -0.0558395604 -0.0096731291 0.3958811009 0.0489860046
-0.1364838212 0.4484988786 0.1111417294 -0.0079480514 0.3976809295 0.0478293770
0.2738404327 0.4993826954 -0.1175887896 -0.0091292868 0.3961593832 0.0495785625
-0.2947299352 0.3524332567 0.4126823924 -0.0083116531 0.3938134561 0.0483498321
-0.1478647942 0.3164618634 0.0255563521 -0.0079334745 0.3976654352 0.0477277915
-0.0826302983 0.6247007135 -0.3494621124 -0.0083149351 0.3952232796 0.0461986437
-0.0354423298 0.2037521076 0.2361123332 -0.0079707771 0.3937668687 0.0482520680
0.0718335829 1.1109325643 -0.4112866714 -0.0080656963 0.3968057029 0.0497045079
-0.2191161247 0.2177987073 0.2270041193 -0.0079597263 0.3976855030 0.0478739445
-0.3921253710 0.4673651285 0.0473550133 -0.0098372512 0.3962032695 0.0478024243
0.1036906995 0.4316382921 -0.1891402324 -0.0084158551 0.3961806697 0.0499224468
0.2004084784 0.1888478112 0.0722382279 -0.0079259301 0.3937640514 0.0482202248
-0.0222733705 0.2870001535 -0.1167558643 -0.0079483782 0.3937720781 0.0483040420
-0.2668322128 1.0137199305 -0.2713888349 -0.0067301965 0.3962326300 0.0495280395
-0.1915426086 1.1435475265 -0.4285074378 -0.0085538514 0.3967465250 0.0465229503
0.3512309307 0.5468040185 0.4122736504 -0.0096183692 0.3961618403 0.0490051530
0.1477569459 0.7255278885 -0.3619802101 -0.0072837311 0.3952088484 0.0462862075
0.0487785750 0.3450507367 -0.2788812310 -0.0078515119 0.3952102443 0.0461694958
0.1113233363 0.7417122593 -0.3774305518 -0.0074654818 0.3952038142 0.0462298884
0.4002134849 0.7736534550 -0.0251510751 -0.0079769827 0.3952781025 0.0499440857
0.0207580298 0.3155431324 0.1159899093 -0.0079473052 0.3937719856 0.0483032998
-0.0610351015 1.0745886940 -0.4767333710 -0.0083056699 0.3953811705 0.0461613785
0.0079609726 0.4553621347 0.1676421913 -0.0079474194 0.3976811835 0.0478314994
0.3812380657 1.1350996658 -0.1621306814 -0.0097576984 0.3960033154 0.0487833572
0.3792939722 0.6391375211 0.3545533373 -0.0089791707 0.3973438868 0.0484701664
0.1357774752 0.8332836756 -0.3960166983 -0.0073710863 0.3952126206 0.0462550790
0.1542150353 0.7508397752 -0.3667480083 -0.0072597336 0.3952145796 0.0462938287
-0.3377784876 0.3539683483 -0.1410443631 -0.0092945863 0.3953136864 0.0466908860
-0.1575075773 0.4280188387 -0.0554550778 -0.0079546488 0.3976807484 0.0478280009
0.2136844886 0.2148710900 0.2188814117 -0.0079185629 0.3976848140 0.0478685599
0.3285434857 0.4309757870 0.0325114895 -0.0099014671 0.3959548458 0.0480061900
-0.3294621478 0.5316398657 0.3749097864 -0.0060274908 0.3960241038 0.0483786000
0.2090446675 0.4693187234 0.2856011140 -0.0079371502 0.3976816915 0.0478362816
-0.3829765568 0.4845378446 -0.1079082451 -0.0097750985 0.3955142823 0.0473694189
-0.0595656158 0.9293476791 -0.4402103351 -0.0082600197 0.3952050939 0.0461934461
0.3201149722 0.3554543915 -0.0199765095 -0.0098522218 0.3959401784 0.0485137553
-0.1106757271 0.2342682610 -0.1627881365 -0.0080891978 0.3956337680 0.0461046597
0.3851521482 0.5050497887 -0.0552652532 -0.0060825558 0.3960853607 0.0485533004
-0.1009773513 0.6005651107 -0.2340279143 -0.0074931236 0.3962246564 0.0499151800
-0.0745451041 0.6018785758 -0.2403725522 -0.0075806106 0.3962522903 0.0499267919
0.2734342442 0.2286152799 0.3476055001 -0.0079183601 0.3976887929 0.0479394618
-0.4388013523 1.2327398475 -0.2281952124 -0.0095176204 0.3961629388 0.0469703988
-0.2797565285 0.8563841585 -0.2127389526 -0.0067653611 0.3961692468 0.0495758574
-0.3517310580 1.1478166977 -0.2220012635 -0.0062810865 0.3960528560 0.0490618265
-0.1179980140 0.8354084664 -0.4011287391 -0.0084647756 0.3952088346 0.0462382675
-0.0483894027 0.6587174921 -0.2607408988 -0.0076487622 0.3962732973 0.0499322179
0.3297880668 0.2500681944 -0.0646956218 -0.0062558623 0.3956735769 0.0470719193
0.2711780505 1.0856564584 -0.2947073887 -0.0092053411 0.3963019943 0.0494648256
-0.2071526937 1.1139829002 -0.4278622403 -0.0088429227 0.3957833644 0.0463187358
-0.2336385805 0.4531425900 0.4554442597 -0.0079478407 0.3962097625 0.0499741983
0.0545369138 0.2837464222 -0.1411489373 -0.0079235735 0.3973037294 0.0469467654
-0.3810776745 0.3646254097 -0.0779428838 -0.0097957117 0.3955527681 0.0474161442
0.0148444855 0.8610096508 -0.4255939110 -0.0078136501 0.3951647515 0.0461844192
-0.3938297646 0.3166855217 0.1911213549 -0.0099160992 0.3957263936 0.0480657990
0.0896028812 0.3426318286 0.3453535117 -0.0079476399 0.3937703475 0.0482894021
-0.4598616097 1.1588582653 -0.1772493827 -0.0098351308 0.3955381892 0.0475403491
0.3523408979 0.3434701208 0.4155757312 -0.0059785231 0.3957263936 0.0480657990
-0.3899325940 0.9260237270 -0.0289211171 -0.0060824298 0.3958836485 0.0486761213
-0.4682370998 1.1580249797 -0.1411963280 -0.0098553758 0.3955380770 0.0476205556
0.1563676904 0.3260089280 0.0880277701 -0.0079496855 0.3976813686 0.0478346160
0.3188715015 0.4018237852 0.2596682736 -0.0099150163 0.3957668187 0.0481057004
-0.0796858065 0.2886540181 -0.1697118502 -0.0079473111 0.3940883304 0.0469736099
-0.1923868741 0.3244344036 0.4665774528 -0.0080249070 0.3960455538 0.0500064786
-0.2321426875 0.4993219228 -0.2579433908 -0.0088901736 0.3952723832 0.0463985367
0.2739805140 0.4335083690 -0.0063499763 -0.0079636659 0.3976799944 0.0478226103
0.2759387276 0.4116839186 -0.1521280333 -0.0072929785 0.3975058590 0.0475360591
-0.3922890659 1.1912784395 -0.1535623269 -0.0061075910 0.3960510999 0.0486863747
-0.3855320515 0.5513972462 -0.0710039317 -0.0097752796 0.3957449750 0.0487558237
0.0926174757 1.0748430241 -0.4691129092 -0.0074750698 0.3954583175 0.0461765303
0.3995918106 0.3500714592 0.0736721455 -0.0059786393 0.3957167032 0.0480602627
0.1051768214 0.2076584842 0.1324136355 -0.0079374692 0.3976864638 0.0478841330
0.1555509426 0.3332066123 -0.1922065804 -0.0079473111 0.3955111755 0.0461088394
-0.3246303915 0.9221318130 -0.3141160042 -0.0090579458 0.3953285153 0.0464896542
-0.4795681462 1.1312893463 -0.0644486748 -0.0098706694 0.3954530077 0.0477492395
-0.4136566157 0.6155060265 0.3735677207 -0.0097369670 0.3962243217 0.0486310852
-0.3349093905 0.6796886185 -0.2366771391 -0.0092082805 0.3952936638 0.0466176943
0.0692015279 0.3438292790 0.4582823228 -0.0079473111 0.3968184803 0.0497039290
0.3444657458 0.3857307032 0.1506175122 -0.0059788086 0.3957240822 0.0480380686
0.2757313828 0.4618513525 0.2313143278 -0.0079250461 0.3976810378 0.0478314108
0.3381896040 0.5117185719 0.1444235318 -0.0097842219 0.3963835199 0.0478138138
0.2429889258 0.6631790492 -0.1859577161 -0.0090029635 0.3961824161 0.0496638465
-0.1420732045 0.3407113172 0.3283657455 -0.0079474824 0.3937705720 0.0482913472
-0.0084327454 0.4289796880 0.4595424967 -0.0079473111 0.3959109025 0.0500258613
0.3913713941 1.1725282083 -0.1488720360 -0.0098077292 0.3960293743 0.0486317212
0.0315147276 0.3396592776 0.2557358341 -0.0079473111 0.3976905687 0.0479316851
0.2296021831 0.6529819735 -0.3041279567 -0.0070419935 0.3952478836 0.0463847119
-0.2353308227 0.3867912775 -0.2261437805 -0.0089397693 0.3953123693 0.0464166948
-0.1427015629 0.3302915735 0.1265716429 -0.0079456515 0.3976825124 0.0478428357
0.1728974772 0.5989873555 -0.3164712752 -0.0072792777 0.3952739582 0.0462724673
-0.4279086092 1.0683177498 -0.2323596007 -0.0097295664 0.3954492748 0.0472829478
-0.4886908248 1.2780775491 -0.0759732393 -0.0098479259 0.3959880632 0.0476540565
-0.1319012269 0.2242076774 0.4401404904 -0.0079749825 0.3938069670 0.0483987939
0.3976230226 0.3872790802 0.2043381990 -0.0059789622 0.3957179494 0.0480406930
0.3864918416 1.0074764430 -0.0840105546 -0.0098410332 0.3959615062 0.0485488943
-0.4118112372 0.7017211934 -0.1019085132 -0.0098825392 0.3954540885 0.0478440977
0.2118791710 0.3160848523 -0.1140099228 -0.0089535981 0.3961456174 0.0497043110
-0.3212486397 0.3511696236 0.4203682535 -0.0060185683 0.3958708888 0.0484164539
-0.2520036656 0.4776206280 -0.2398413909 -0.0089984668 0.3953067523 0.0464549563
0.3352435115 0.2312998326 0.3573465179 -0.0079105755 0.3937765413 0.0483303155
0.2538019093 0.4789314805 0.3684180367 -0.0079474864 0.3976822900 0.0478408767
0.3954450862 0.9397539326 -0.0254958886 -0.0098033585 0.3958809257 0.0487035012
-0.1828823254 0.4687648974 0.2811342096 -0.0079596456 0.3976815576 0.0478351712
0.2618923071 0.6411799693 -0.2815886748 -0.0068636942 0.3952397899 0.0464959169
0.2307314366 0.2230992733 0.4305903230 -0.0079584663 0.3937774529 0.0483392518
0.0768061804 0.2853525220 -0.1539912116 -0.0081623422 0.3961963098 0.0499648446
-0.3464192423 0.0148608117 -0.1148771700 -0.0088181022 0.3961393764 0.0463494844
-0.3982545802 0.4572891411 0.3659322686 -0.0099113150 0.3956029821 0.0480131024
-0.3611814571 0.4447941373 0.4640765742 -0.0076340337 0.3961220235 0.0499558158
0.0929808785 1.0860588925 -0.3941186862 -0.0082512467 0.3966428290 0.0497781090
0.0124688002 0.3128217732 0.0042427097 -0.0079473111 0.3976818450 0.0478370888
-0.3562402913 0.8098046400 -0.2550951137 -0.0093237854 0.3953098394 0.0467227134
-0.1203901899 0.4511646412 0.1333564073 -0.0079476301 0.3976810792 0.0478306174
0.4150147841 0.7489458503 -0.1329016626 -0.0060629940 0.3954367671 0.0475786263
-0.4343279587 1.2981454527 -0.1211950560 -0.0064924654 0.3970426445 0.0480796907
0.2288720581 0.2101170969 0.1214009440 -0.0079132039 0.3937761633 0.0483326819
-0.4108576055 1.2648614117 -0.2207732339 -0.0076526210 0.3974309486 0.0471331998
-0.4324640461 1.2013857819 -0.2467227776 -0.0096009631 0.3958754367 0.0470164290
0.0693243960 0.2179879078 0.3829520887 -0.0079632288 0.3937723262 0.0482984054
-0.3916062863 0.2391734530 0.2934636186 -0.0098678166 0.3953194392 0.0480876663
0.3104286887 0.9916336727 -0.2292808159 -0.0093159299 0.3961256264 0.0494224101
-0.3766000461 1.0789210731 -0.1455226983 -0.0061104103 0.3959987380 0.0487157983
-0.3780209401 0.6185284685 0.2569584416 -0.0074553346 0.3973963215 0.0471833763
-0.1636572777 1.1340884155 -0.4431502692 -0.0085864703 0.3964318280 0.0463632600
-0.3276825012 0.0286173617 -0.0943864061 -0.0064504948 0.3953131509 0.0477250175
-0.2526494340 0.8047115251 -0.3324314463 -0.0089263166 0.3952648565 0.0464213136
0.2711069418 0.3005143004 0.0002324755 -0.0079306729 0.3937726451 0.0483074578
0.0614427489 0.4744122359 0.3306971626 -0.0079469745 0.3976822880 0.0478408590
0.1964114647 0.3912658287 -0.1411460688 -0.0088768705 0.3961651301 0.0497444290
0.1656288437 0.6024451713 -0.2117957456 -0.0087575895 0.3962033246 0.0497954166
-0.2346683807 0.7578047645 -0.2160853764 -0.0068875559 0.3961791479 0.0496620194
0.3417345997 0.3596892309 0.2303463063 -0.0060398154 0.3952414811 0.0481113291
0.3995918106 0.2904103464 0.3411901747 -0.0059785231 0.3957263936 0.0480657990
0.0650650708 0.2005508444 0.2061724617 -0.0079639632 0.3937665990 0.0482498157
0.3503721099 0.3094576775 0.1051776700 -0.0059785231 0.3957263936 0.0480657990
-0.3376994781 0.5331936313 0.1738719426 -0.0061423184 0.3964310740 0.0477543268
0.1518846242 0.5396640965 -0.3089955508 -0.0073284915 0.3952478442 0.0462615662
-0.2064420223 0.4360230941 -0.2556699230 -0.0088060158 0.3952707668 0.0463547036
0.4143408384 0.5460920240 0.2602626566 -0.0060016406 0.3954360072 0.0480895465
-0.3957985526 0.2921351602 0.1450092778 -0.0099115769 0.3958418354 0.0481020030
-0.1591241314 0.4028770986 0.4615112848 -0.0079473111 0.3957263936 0.0500345870
-0.1182972855 1.0259762503 -0.4518139760 -0.0084721152 0.3953142357 0.0462135789
0.1699115345 0.3426177577 0.3472517325 -0.0079459527 0.3937703613 0.0482895025
0.0607240920 0.3985975854 0.4615112848 -0.0079473111 0.3957263936 0.0500345870
-0.0218417078 0.2006772426 0.2030347964 -0.0079712496 0.3937666246 0.0482492053
-0.2954830104 0.2154811701 0.1991363342 -0.0079694620 0.3976858712 0.0478775257
0.4683931046 1.0300857212 -0.0430455627 -0.0060086869 0.3954089915 0.0479502823
0.0199463772 0.7845430420 -0.4034405982 -0.0078801755 0.3951878277 0.0461746993
-0.3736156509 1.1203327948 -0.1689352066 -0.0061284581 0.3960137224 0.0487623109
0.3031515993 0.2422485424 -0.1444636656 -0.0066842883 0.3953670838 0.0465999063
0.3188715015 0.3604971723 0.1357455257 -0.0099160992 0.3957263936 0.0480657990
0.3147661138 0.6704583024 -0.1279905838 -0.0094177910 0.3960916864 0.0493212793
0.3881575130 0.4749305469 -0.0222945724 -0.0060262111 0.3961414200 0.0481243428
0.3148960439 0.1904227728 -0.0679885419 -0.0089765010 0.3960363832 0.0474157327
-0.0087853297 0.2054873383 0.1044963177 -0.0079516740 0.3976867512 0.0478871511
-0.0370835843 0.3262762441 0.0904336271 -0.0079473111 0.3976819120 0.0478388705
0.3627472716 0.8485933020 -0.0950094783 -0.0097730588 0.3959679265 0.0487597318
0.3040255620 0.2911661326 0.4618911880 -0.0076479175 0.3959816036 0.0499937642
-0.4130183582 1.2709542121 -0.1516295126 -0.0062152482 0.3965819245 0.0483477885
-0.0151295109 0.4662008778 0.2573577965 -0.0079476025 0.3976817151 0.0478359311
0.3893378369 1.0585776317 -0.2924295954 -0.0065693151 0.3954738906 0.0466845426
0.1461276852 0.3098977686 0.0696772088 -0.0079490575 0.3937720840 0.0483040991
-0.3859141460 0.9626393511 -0.2698464529 -0.0094706924 0.3953657589 0.0468735206
-0.1951883925 0.2405788310 0.4686622615 -0.0080026617 0.3972405176 0.0486439749
0.3223118345 0.2281105417 0.1304781396 -0.0098747054 0.3953419798 0.0481047357
-0.3349468821 0.5721210850 0.3568492748 -0.0060470192 0.3962103414 0.0482124835
0.3831136061 0.8707148307 -0.0438339068 -0.0097872873 0.3958855524 0.0487468244
0.3011944369 0.8239879287 -0.1885612315 -0.0092120625 0.3961472515 0.0495140473
-0.2884694433 1.0079485722 -0.3615581295 -0.0090579537 0.3953739155 0.0464791369
0.1878662867 0.4369211666 0.0173357958 -0.0079413693 0.3976804944 0.0478258509
0.0723036389 0.9314913073 -0.3379152199 -0.0082584269 0.3963172662 0.0499177118
0.1410191745 0.9070136985 -0.4152300750 -0.0073187677 0.3952309028 0.0462673682
0.3035791176 0.9023187809 -0.3270603602 -0.0068500839 0.3953190494 0.0464830489
0.0611102127 0.5783293805 -0.2377463701 -0.0082125463 0.3962432831 0.0499459069
0.1887556592 0.2362650176 0.3750621254 -0.0079648097 0.3937786420 0.0483484775
0.4173929462 1.1807606128 -0.0399065980 -0.0098660821 0.3960052409 0.0484062871
-0.0758564764 0.3373068161 0.2177877736 -0.0079473111 0.3976909014 0.0479361169
0.1076745913 0.1750350228 -0.1768272115 -0.0078432134 0.3937747025 0.0479710117
-0.0415471930 0.2644711152 -0.1580561624 -0.0080133581 0.3966791885 0.0463990899
0.0119536137 0.3580993224 -0.2851063930 -0.0078626336 0.3951259053 0.0461933752
-0.3900905813 0.4988956507 -0.0892554236 -0.0098897273 0.3956083037 0.0478648802
-0.0029367023 0.3593791507 -0.1815629402 -0.0079349708 0.3962521958 0.0499623699
-0.0095103969 1.1504748155 -0.4498960772 -0.0079811664 0.3974473939 0.0490080668
-0.2413760986 0.3383753601 0.2356033424 -0.0079354492 0.3976908955 0.0479365460
0.0589056997 0.8990920731 -0.4330893706 -0.0076890928 0.3951902631 0.0461916683
-0.1454813164 0.3269127218 0.0961619025 -0.0079458011 0.3976830676 0.0478477399
0.3273130818 0.2230674006 0.4303986595 -0.0079536290 0.3937788035 0.0483499837
0.2776747262 0.3274003296 -0.1842499874 -0.0069506969 0.3953736123 0.0464051459
-0.3249221836 0.3898424461 0.4240621940 -0.0098912157 0.3954399605 0.0481579323
0.3293364564 0.5044838626 0.2024637396 -0.0098417223 0.3962000269 0.0478330705
0.3998914424 0.7272732900 -0.1643923129 -0.0061464233 0.3954192429 0.0473346049
0.1307799509 1.0637463618 -0.4558140985 -0.0073449526 0.3954198001 0.0462173925
0.1471913742 0.2958604359 -0.1087404793 -0.0079067226 0.3975899656 0.0474591031
0.3237381958 0.2957240856 0.4028995261 -0.0098987817 0.3957386001 0.0483115293
-0.0696060528 0.1941393346 0.1350614703 -0.0079628882 0.3937653685 0.0482373414
0.0019629456 0.6316587628 -0.2555644491 -0.0079451297 0.3962474117 0.0499641241
0.4038943881 0.6626608662 -0.1215370759 -0.0060404907 0.3954411930 0.0477241473
-0.2258562095 0.2569655617 -0.0872198681 -0.0068808285 0.3961358700 0.0496677092
0.2281800882 0.9404517322 -0.2765964072 -0.0089375840 0.3962112312 0.0496944099
-0.3821027437 1.0680850489 -0.1223268335 -0.0060762754 0.3959969582 0.0486146557
0.3165727386 0.3188795823 -0.1100971456 -0.0060916064 0.3952890194 0.0476147339
0.4195127816 1.0665795580 -0.2536709436 -0.0062076664 0.3954561203 0.0471845556
0.2463850970 0.8281180385 -0.2308925622 -0.0089681494 0.3961740349 0.0496880409
-0.0460417825 0.2893847279 -0.1309773967 -0.0079891006 0.3974711906 0.0471898399
-0.0706931093 0.8375773896 -0.4134347766 -0.0082717458 0.3951965789 0.0461976160
0.2600678391 0.3344728678 0.2773622972 -0.0079753959 0.3937717217 0.0482993917
0.3549652175 0.5968147664 -0.1943164419 -0.0064745986 0.3953235087 0.0468250786
-0.4408803609 1.2898911179 -0.1745831259 -0.0083371824 0.3973669039 0.0471640173
0.3339499312 0.5027169895 0.3802928900 -0.0098656687 0.3959950209 0.0484038654
0.0342794080 0.3438227603 0.3560988122 -0.0079474194 0.3937702747 0.0482887622
0.3976230226 0.3843368662 0.2488818017 -0.0059792890 0.3956788966 0.0480804133
-0.1989428063 0.3120752088 0.0874596586 -0.0079391702 0.3937723065 0.0483057824
-0.3979466263 0.4394581528 0.4075056415 -0.0099078696 0.3955969891 0.0481637147
-0.1844408102 0.1954182397 0.1421452129 -0.0079743938 0.3937656047 0.0482384105
-0.1598714854 0.3420716395 0.4597912393 -0.0079716828 0.3967916221 0.0497192620
-0.0892518345 0.4795609592 0.3778559084 -0.0079465453 0.3976804747 0.0478268137
0.4080787537 0.8385531623 -0.1900676536 -0.0061398633 0.3954246985 0.0473463723
-0.3734895362 0.2000105204 0.1787532060 -0.0079979641 0.3937664710 0.0482444999
-0.3156983566 0.3230452622 0.1140896981 -0.0059805707 0.3957230486 0.0479763923
-0.4602008358 1.0011618783 -0.0618631915 -0.0098869828 0.3954217492 0.0479311969
0.2279689573 0.2194485477 0.2643784670 -0.0079152140 0.3976850443 0.0478738480
-0.1117683828 0.3378983602 0.4618778790 -0.0079473111 0.3965790658 0.0498392182
-0.3072862156 0.4456254403 0.1528786397 -0.0090925335 0.3973125732 0.0478586352
0.4122032465 0.6395385868 0.3458730473 -0.0067097723 0.3971952256 0.0482909594
0.0292319258 0.3543818450 0.4347912126 -0.0079473111 0.3938465613 0.0486468611
-0.4570424431 1.2524664814 -0.1883637995 -0.0097054959 0.3960361371 0.0472459523
-0.1296559088 0.3121560866 -0.1881887644 -0.0079473111 0.3951038077 0.0461980432
-0.3228656743 0.2164239558 0.3607332566 -0.0079875197 0.3937678747 0.0482616304
-0.4044339601 0.5162527301 0.3697591712 -0.0098935487 0.3954322133 0.0480562976
-0.4138710817 0.9533550212 0.0180512416 -0.0065693643 0.3955831032 0.0494386742
-0.1742233496 0.1870348626 -0.0678437414 -0.0079855017 0.3937601630 0.0481104944
-0.2468857066 0.4102443782 -0.2254611820 -0.0089466246 0.3952792326 0.0464296849
0.3607583566 1.0297930589 -0.3140960880 -0.0067417671 0.3954553584 0.0465337334
0.1196031078 0.9641543354 -0.3376804478 -0.0084834062 0.3963444611 0.0498559372
0.1726609017 0.8611257600 -0.2824541048 -0.0087665357 0.3962306907 0.0497832141
0.1847605847 0.6803552049 -0.2241399343 -0.0088331850 0.3962116585 0.0497554109
0.0605888540 0.2009481695 0.0521391741 -0.0079473781 0.3937736433 0.0483150436
0.0938099883 0.3461018077 -0.1940951285 -0.0079473111 0.3955586056 0.0461042049
-0.1679557543 0.3347104198 0.1645616109 -0.0079460866 0.3976905175 0.0479303778
0.2585512029 0.2253206785 0.4512482979 -0.0079585057 0.3937790811 0.0483522379
-0.3376463051 0.3427008858 0.4718215855 -0.0063876688 0.3960155396 0.0492204754
0.2487682164 0.2160972728 0.1661406144 -0.0079412867 0.3937635808 0.0482126134
0.3654053284 1.2053935944 -0.3031607462 -0.0074220739 0.3969116394 0.0466309541
0.1124709527 0.4367721057 0.0161432970 -0.0079436669 0.3976804846 0.0478257427
-0.0124109277 0.3029324170 -0.0807277738 -0.0079534242 0.3976620390 0.0477116770
0.0240055437 0.4523581933 0.1427164568 -0.0079472915 0.3976810319 0.0478302295
0.1070899282 0.1939388687 -0.1408721060 -0.0078558511 0.3940769193 0.0470276452
0.3477600775 0.2246238260 -0.0431416809 -0.0061018106 0.3956846179 0.0473986928
-0.2914598767 0.3138465490 0.0934504915 -0.0083417775 0.3938121055 0.0482843403
0.0542397489 0.1826889048 -0.1290514928 -0.0079838282 0.3955734798 0.0472254671
-0.0575090238 0.4701059944 -0.2076827879 -0.0076999290 0.3961868852 0.0499636555
0.1445188822 0.3345064199 0.1626301728 -0.0079476616 0.3976901317 0.0479261469
-0.0425285039 0.3088779246 -0.0402243899 -0.0079497406 0.3976833059 0.0478511006
0.1538526917 0.3527765720 0.4470027385 -0.0079406192 0.3974873012 0.0489462528
-0.3178616313 0.8847272444 -0.3097145916 -0.0090767773 0.3953076894 0.0465085487
-0.4508685010 1.0841594393 -0.1765898407 -0.0098449846 0.3954870382 0.0476021632
0.3148893737 0.3778601443 0.4575001371 -0.0075979064 0.3948138446 0.0497740907
0.3996711193 0.3945757157 0.1147829477 -0.0059841145 0.3955991764 0.0481376952
0.3995917811 0.2509687279 0.0854586257 -0.0059810766 0.3956652154 0.0480733197
0.0905804573 0.6286455740 -0.3500949321 -0.0075645768 0.3952001680 0.0462079777
-0.3180629084 0.6983465608 -0.1275570567 -0.0064324725 0.3960986737 0.0492654937
0.4023710541 0.4699966066 0.0960845232 -0.0060033653 0.3958766101 0.0478124612
-0.1099683356 0.3130385722 0.0953273096 -0.0079473111 0.3937720190 0.0483035990
-0.3781356082 0.2297073135 0.3391570093 -0.0079661347 0.3976851644 0.0478689241
-0.0023225133 0.3092026643 0.0643291910 -0.0079463327 0.3937721844 0.0483049417
0.3584394964 0.4639124492 -0.1496865905 -0.0063777441 0.3953994035 0.0469248686
0.4052780327 0.4931396429 0.3000293141 -0.0059918912 0.3955033634 0.0480609321
0.3883353871 0.6005523569 -0.0696020463 -0.0062706342 0.3954720281 0.0490381578
-0.3938297646 0.2569737912 0.2701010093 -0.0099125888 0.3956370697 0.0480723865
0.2641110386 0.4400196708 -0.2251949547 -0.0068866561 0.3952906831 0.0464657570
0.2426873410 1.0224953011 -0.3963749704 -0.0069543391 0.3953913590 0.0463996058
0.0982061305 0.6660496170 -0.2543074291 -0.0084445522 0.3962368412 0.0499008000
0.3444657458 0.4119222444 0.2038612326 -0.0059786826 0.3957232789 0.0480502219
0.0722845929 1.1083174685 -0.4773758358 -0.0074470953 0.3957237337 0.0461647707
-0.1163321319 0.3387275684 -0.1931267466 -0.0079473111 0.3955363740 0.0461063902
0.2767320901 1.0601582870 -0.2799067805 -0.0091737755 0.3962377646 0.0495177959
0.3483395134 0.7409380059 -0.0958552007 -0.0096968668 0.3959668751 0.0489342176
-0.1846977685 0.2414183360 0.4453136050 -0.0079524536 0.3937648999 0.0482348588
-0.1971194034 0.7646010129 -0.3511226473 -0.0087970597 0.3952238919 0.0463624331
-0.4829317221 1.1287965771 0.0111893557 -0.0098846675 0.3953911877 0.0481638249
0.3595020887 0.6213192629 0.3270727675 -0.0095775267 0.3968116132 0.0479717578
-0.3938297941 0.3105651661 0.2230512221 -0.0099160992 0.3957263936 0.0480657990
0.1437726269 0.6308506678 -0.3357572018 -0.0073025193 0.3952343560 0.0462719515
0.3304050850 0.4344411296 0.0931415474 -0.0068591463 0.3973525278 0.0478476809
-0.1333264325 0.3448786194 -0.2616547846 -0.0084654272 0.3952390398 0.0462304593
-0.3588372428 0.5016940230 0.0480481704 -0.0073254557 0.3975191050 0.0475879938
-0.3733024088 0.2262514191 0.4005223248 -0.0087985797 0.3939791277 0.0483700889
-0.0409854111 0.8293834691 -0.3102934270 -0.0077222649 0.3962670247 0.0499441350
0.1207824985 0.4319827650 -0.0221714483 -0.0079433342 0.3976804039 0.0478250949
0.3148614957 0.4487771668 0.1455903301 -0.0074311638 0.3976122818 0.0478354271
-0.0166617556 0.3939819627 -0.1899332031 -0.0079473111 0.3971185374 0.0466736552
-0.4021138399 1.0456016432 -0.0226105550 -0.0060473559 0.3959126232 0.0485442814
0.3995918106 0.3091025593 0.2922043759 -0.0059785231 0.3957263936 0.0480657990
-0.2721460111 0.2982372218 -0.1805450512 -0.0090707705 0.3953210989 0.0465009078
-0.3858644892 0.6815987052 -0.1728231101 -0.0096913010 0.3954045440 0.0472181550
0.3503721099 0.2395694885 -0.0234665604 -0.0060338224 0.3957037249 0.0477240863
0.3444657458 0.4160572623 0.2714946415 -0.0059785487 0.3957258896 0.0480632828
0.2749540029 0.3199937254 0.1572921073 -0.0079593523 0.3937716174 0.0482996575
-0.2106174338 0.7940023637 -0.3528864629 -0.0088132806 0.3952268116 0.0463699578
-0.0237792078 0.2126072810 0.3328871755 -0.0079644140 0.3937680145 0.0482640539
-0.1344888070 0.2835054760 -0.1480716587 -0.0079466733 0.3937603047 0.0481104412
0.2344745102 0.4976771067 -0.2579444717 -0.0069846427 0.3952978809 0.0464035571
0.3061350928 1.0017220280 -0.3493781771 -0.0068328885 0.3954137303 0.0464742642
0.4038268567 0.4477090540 0.1466555803 -0.0059879851 0.3955416327 0.0481043399
0.2397707193 0.1996179854 0.2054978388 -0.0079484845 0.3937664395 0.0482499988
0.3933854839 0.7781712781 -0.1980837906 -0.0062608769 0.3953965566 0.0471064184
0.4345385797 0.8401126078 -0.0784468266 -0.0060067575 0.3954126062 0.0479911130
-0.2201910791 0.5767368298 -0.1734648661 -0.0069622930 0.3961762912 0.0497097527
0.1435837867 0.4662629734 0.2589838579 -0.0079462795 0.3976818017 0.0478366793
0.3228090480 0.3772047741 0.0542889981 -0.0099142524 0.3957692088 0.0480373775
0.4105627204 1.1538759125 -0.0507752470 -0.0098680076 0.3959729587 0.0484188932
0.3841958134 0.6031323965 0.4051877421 -0.0080814112 0.3968872697 0.0496416208
-0.1644947096 0.1971836322 0.1608522450 -0.0079760929 0.3937659453 0.0482416846
-0.4411534968 0.8910884340 -0.0281916024 -0.0098453764 0.3953285507 0.0483802223
-0.4440642318 1.1854770394 0.0584171214 -0.0066013866 0.3958890056 0.0494559444
-0.0449367510 0.1864726693 -0.1135775375 -0.0079578579 0.3937811129 0.0478099628
-0.2157916175 0.4128494313 -0.2442870265 -0.0088695033 0.3952703750 0.0463876946
0.3351097678 0.5873816414 -0.2129236761 -0.0066274179 0.3953122925 0.0466656520
-0.3873577834 0.5200890061 -0.0693337773 -0.0098543737 0.3959171101 0.0484742201
0.2121747314 0.3563506330 0.4344733144 -0.0079464665 0.3976910117 0.0481037670
0.3928148189 0.2276120958 0.2734645261 -0.0061581376 0.3949306055 0.0481194071
0.2938518282 0.3581774537 -0.1697226352 -0.0061940424 0.3957877961 0.0471752433
0.4122346408 1.2622285889 -0.1450379670 -0.0097454249 0.3963889242 0.0485013992
0.1160728012 0.4586485872 0.1957226330 -0.0079465689 0.3976814158 0.0478334485
0.3503721099 0.3370280968 0.2994139635 -0.0060876156 0.3962037420 0.0480218320
0.0069855385 1.0897932679 -0.4860995336 -0.0078799274 0.3953877699 0.0461300275
-0.3852888963 0.6123707335 -0.0593244432 -0.0095183528 0.3954320283 0.0492130117
0.2932028152 1.1151423155 -0.2855980781 -0.0092976556 0.3963072156 0.0493667150
-0.3898717604 0.4592073706 0.0036123274 -0.0098681533 0.3961342418 0.0479696315
0.0537795191 0.3142070597 0.1049672754 -0.0079473741 0.3937720249 0.0483036364
0.3774650548 0.1140923727 0.4802011017 -0.0092322682 0.3956332404 0.0488805248
-0.1290871358 0.1951685048 0.1424096369 -0.0079695289 0.3937655614 0.0482385325
0.0696655909 0.8114617196 -0.3016607227 -0.0082785873 0.3962645992 0.0499289221
-0.2712005498 0.3039726813 -0.1498206807 -0.0094960366 0.3947909417 0.0473055751
0.2630682445 0.2364169824 0.4177044596 -0.0079237329 0.3976914370 0.0479854133
0.4741741376 1.2107471976 -0.1475970213 -0.0060513801 0.3956135761 0.0475577552
-0.2110585762 0.3115082529 -0.1100317306 -0.0069417093 0.3961269632 0.0497099437
0.3691463741 0.9520550128 -0.1190267038 -0.0097865411 0.3960046522 0.0487103861
-0.4310673642 1.2262097674 0.0301651904 -0.0060913701 0.3959993365 0.0486587526
-0.3788906955 0.8904761015 -0.2547876697 -0.0094823240 0.3953341539 0.0468982250
0.0945738052 0.2923928785 -0.2579067103 -0.0076938769 0.3951689982 0.0461957614
-0.2787293272 0.6099750138 -0.2589139049 -0.0090453062 0.3952775394 0.0464945191
0.2516971253 0.3841596458 -0.1939721402 -0.0077737172 0.3963751899 0.0462187371
-0.1513165422 0.8673112392 -0.4006838875 -0.0086478059 0.3952401758 0.0462924131
0.2392981551 0.3328263999 0.2611163112 -0.0079689718 0.3937716391 0.0482991082
0.0222455535 0.2195724081 0.3976148363 -0.0079665954 0.3937725388 0.0483001339
-0.2267228877 0.3121420491 -0.0179057540 -0.0079197776 0.3976790178 0.0478171587
-0.3414899129 0.2254879349 0.2984467078 -0.0079658453 0.3976853239 0.0478710346
-0.3700599291 1.1435467449 -0.1883901615 -0.0062288250 0.3960530844 0.0489614774
0.3041416713 0.2172041904 0.1810536816 -0.0079330611 0.3937619447 0.0481954574
-0.2788978574 0.2104370525 -0.0845072581 -0.0091981786 0.3949970304 0.0467937276
0.3995917811 0.3650704582 0.0496658743 -0.0059797005 0.3956876833 0.0480274489
0.1197985553 0.3335682412 0.1546556520 -0.0079473111 0.3976882101 0.0479051577
-0.4425908538 1.0708929521 -0.1987027914 -0.0097734526 0.3954770308 0.0473780245
0.0000317812 0.3563506330 0.3887907993 -0.0079473111 0.3976828944 0.0478990170
-0.2994865566 0.3275967398 -0.1066437299 -0.0098447365 0.3956340417 0.0475496320
0.0113975492 0.7549608738 -0.2909827154 -0.0080221901 0.3962868032 0.0499509470
0.4182471403 0.6029827607 0.2659080657 -0.0061210909 0.3962898627 0.0475972057
-0.2795253613 0.2155612309 0.3535635645 -0.0079841767 0.3937677940 0.0482611185
0.3957813690 0.0830554217 0.4826647604 -0.0077982325 0.3958503071 0.0500190139
-0.3946413305 0.3274241893 0.1320170369 -0.0099146068 0.3957281281 0.0481416229
-0.1843419140 0.2051573655 0.0887101520 -0.0079570094 0.3937746867 0.0483233558
0.3298623886 0.4085635845 0.4094355853 -0.0098759359 0.3958619722 0.0484338087
0.2057973800 0.2375200392 -0.2065996789 -0.0071261769 0.3951702641 0.0463664002
0.2415998159 0.1953969393 0.0150622158 -0.0079414579 0.3937749407 0.0483260727
-0.3363325092 0.9733230659 -0.1907073995 -0.0063569360 0.3960954567 0.0491654832
-0.1571775750 0.4413153007 0.0524888289 -0.0079515303 0.3976805850 0.0478265636
0.1787620990 0.9150191095 -0.2967487265 -0.0088347640 0.3962863307 0.0497314586
0.3188715015 0.2742200948 0.1387762445 -0.0099154436 0.3956893784 0.0480530786
0.3351098564 0.4620743198 0.3719292973 -0.0064630793 0.3970017233 0.0479242884
-0.1168411069 1.0825908625 -0.3858289939 -0.0074844963 0.3966000629 0.0497658514
0.4074387244 0.1225696727 0.4496086125 -0.0076162535 0.3954071940 0.0461520287
0.0509461161 0.6882499445 -0.2696666553 -0.0081629367 0.3962573757 0.0499479564
-0.0399787797 0.6642577738 -0.3671027367 -0.0081495470 0.3951858353 0.0461837636
-0.1503339812 0.4445673191 0.0785049688 -0.0079493311 0.3976806893 0.0478274004
0.1889832983 0.3228902182 0.0596290915 -0.0079537294 0.3976752594 0.0477865323
-0.1713017863 0.9491931549 -0.3114050166 -0.0070953004 0.3963031047 0.0497437478
0.0886329302 1.0240661026 -0.3664450414 -0.0082623999 0.3964292036 0.0498761389
-0.2696405354 0.3483803392 -0.1706116631 -0.0096099979 0.3956251959 0.0470194688
0.4103920265 0.6872903946 -0.0943145631 -0.0060080805 0.3954137343 0.0480632356
-0.0745197658 0.3460280529 -0.2745659449 -0.0081689101 0.3952321569 0.0461731696
0.3533540717 0.9418716044 -0.1548384363 -0.0097257430 0.3960097573 0.0488592520
0.0017816045 0.4076657857 -0.1780915003 -0.0079473111 0.3973645748 0.0469737890
0.3903374319 0.5050288113 -0.0891217252 -0.0059920526 0.3956327639 0.0479183289
-0.3213159939 0.4112624799 -0.1716512875 -0.0091974502 0.3953237016 0.0465991602
-0.0394238137 0.9298345289 -0.3410292125 -0.0077636153 0.3963112634 0.0499359960
0.3224527269 0.2076480752 0.0157216377 -0.0097314446 0.3950602955 0.0485472090
0.4613865680 1.0665627958 -0.1324142871 -0.0060477870 0.3954631942 0.0476246349
0.0996600785 0.1856202924 0.0305251006 -0.0079309879 0.3937633465 0.0482107648
-0.2169187073 1.1014286319 -0.3466318005 -0.0068983901 0.3965405032 0.0495167564
0.3039280479 0.5406217701 -0.2246534612 -0.0068474300 0.3953233689 0.0464846830
-0.3446730907 0.1453746701 -0.0835597100 -0.0091968970 0.3961802976 0.0477329812
-0.1986952056 0.4330056823 -0.0060518920 -0.0079518827 0.3976805043 0.0478258943
-0.3944199265 0.2582001985 0.2110881376 -0.0099132405 0.3956357407 0.0481103782
0.0995944529 0.3244149145 0.0736816212 -0.0079473111 0.3976777007 0.0478062398
-0.0146608606 0.3009552636 -0.1636551297 -0.0078500727 0.3963520882 0.0499296230
-0.1297554212 0.2023382717 0.2152182178 -0.0079806211 0.3937668254 0.0482502665
0.4192076509 0.8062470262 -0.1444787327 -0.0060797228 0.3954569689 0.0475138532
0.0439815088 0.2973136693 -0.1609374699 -0.0081368168 0.3963403916 0.0499247601
-0.3170470315 0.3053897519 0.2748615210 -0.0099160992 0.3957263936 0.0480657990
0.4426666797 1.0018203828 0.0333043362 -0.0073955977 0.3951786118 0.0498308292
0.4171439024 1.1519154761 -0.0157347341 -0.0098656549 0.3959816666 0.0484272980
-0.2152981585 0.9251929634 -0.2776322318 -0.0068984452 0.3962196714 0.0496565501
-0.1427177857 0.3236222352 0.0665475288 -0.0079466398 0.3976758835 0.0477921217
0.3306054013 0.7175771527 -0.1202845939 -0.0095884810 0.3960412618 0.0490984795
-0.0074086389 0.3405386309 0.3258848127 -0.0079470828 0.3937705858 0.0482914595
0.0366825639 0.3821164572 -0.1940951285 -0.0079473111 0.3959859507 0.0461289644
0.2565285508 0.3160475123 0.4649617413 -0.0077773063 0.3959590472 0.0500122964
-0.2193839272 0.5947286228 -0.2909299637 -0.0088919317 0.3952649451 0.0464024369
-0.3324421270 0.5376456497 0.2214282852 -0.0060732238 0.3962802058 0.0478318636
-0.1051229652 0.2855699826 -0.1300472428 -0.0079503923 0.3937726353 0.0483085741
-0.3408312253 0.5825866720 0.3831394562 -0.0061248316 0.3962894827 0.0485228570
-0.1024068528 0.7539336705 -0.3820050347 -0.0084187552 0.3951859002 0.0462326250
0.1654234676 1.1379052852 -0.4059073814 -0.0085773784 0.3970857472 0.0493346966
-0.3184848689 0.3733742312 0.0684252466 -0.0059848626 0.3957804466 0.0479517667
-0.4001653599 0.7372534368 -0.0337747663 -0.0091253296 0.3952027727 0.0495380094
0.4690804498 1.0746746730 -0.0977922362 -0.0060246676 0.3954383461 0.0477602253
-0.4085003835 1.0266663577 0.0058628864 -0.0060836308 0.3958514352 0.0486817107
0.1918387399 0.2768535614 -0.1149408878 -0.0088114102 0.3961161526 0.0497897505
0.3910995793 0.9177979318 -0.2521955535 -0.0063303436 0.3953588661 0.0470053251
-0.2661723853 0.2378026233 -0.0986472867 -0.0092434253 0.3957610639 0.0465923737
-0.0139100692 0.4261193067 -0.0690791087 -0.0079486558 0.3976807681 0.0478280461
0.3423495743 0.5763899569 0.2887232791 -0.0097956271 0.3963823485 0.0479049214
-0.1742797534 0.4970428676 -0.2867382978 -0.0086992405 0.3952377955 0.0463133039
-0.3209881218 0.1856578293 -0.0691813990 -0.0087087813 0.3962201262 0.0488063605
-0.3272690419 0.4796743043 0.1389347733 -0.0060276267 0.3961175839 0.0478839144
0.3173490377 0.2388471284 -0.1107288706 -0.0061452145 0.3957013565 0.0473133223
0.3487574182 0.5151086142 -0.0314729854 -0.0090679256 0.3966830631 0.0493115023
-0.3045411895 0.3671737243 -0.0867615441 -0.0098533696 0.3957131751 0.0475874071
0.3684870270 0.1913936629 0.1061831458 -0.0079173029 0.3937645495 0.0482263516
