0.3588950061 0.5362324303 0.3780466530 -0.0037394983 -0.0026665720 0.1053021167
-0.1189549521 1.3089375688 -0.5178821375 -0.0041092640 -0.0001741934 0.1021440434
-0.4135849962 1.1433664161 -0.3823562439 -0.0064420621 -0.0000600136 0.1062045363
0.3785564323 0.4686487628 0.0616662756 -0.0035689452 -0.0025813077 0.1055276998
0.4861240665 0.7520435353 -0.1741856751 -0.0040153566 -0.0027216401 0.1048024220
-0.3005361907 1.3718420241 -0.4470863504 -0.0041838825 0.0000213569 0.1075847814
-0.4304431692 0.7359813949 0.0347368255 -0.0039860405 -0.0027100543 0.1046072994
-0.1923376655 0.4005865858 0.4488366799 -0.0041049888 -0.0022923813 0.1062617406
-0.3000993624 0.9395626453 -0.4647839675 -0.0044008498 -0.0013118500 0.1025046783
-0.4976874416 0.7751900756 0.0109569937 -0.0043371522 0.0026467845 0.1050718470
0.1449328410 1.1910125838 -0.5065475199 -0.0040769479 -0.0004127820 0.1021701442
-0.2498342521 0.4593973221 -0.0948659214 -0.0039248280 0.0024504412 0.1036990733
0.1621594418 1.2230123006 -0.3618328832 -0.0041247136 0.0000451880 0.1075868986
0.3604277444 1.2946536789 -0.5161867071 -0.0039190106 -0.0001735095 0.1021494412
-0.1248909653 0.5165690913 0.1650015342 -0.0039619970 0.0026492450 0.1042468225
-0.3997386213 0.6087425633 -0.1290077715 -0.0047703729 0.0003210490 0.1074456288
-0.1679798882 0.4728418960 0.1765251354 -0.0042920269 -0.0026467736 0.1054697925
-0.0441737321 0.5309907659 0.2528061619 -0.0040452885 0.0026516483 0.1042437054
-0.0083564435 0.4705996019 0.4291137415 -0.0040873130 0.0007404659 0.1022483213
0.0653424334 0.4237589899 -0.1061553047 -0.0040456836 -0.0008359318 0.1022738118
0.2360082123 0.7661279374 -0.2770290319 -0.0040459997 -0.0017032560 0.1027376810
0.4001922697 0.4552344996 0.1546840473 -0.0056977843 -0.0014034141 0.1052426235
-0.2084742064 0.4831734673 0.2114146421 -0.0043285146 -0.0026504630 0.1054468170
0.4209808920 0.5443197539 0.4279019977 -0.0067880648 -0.0000022125 0.1045203893
-0.0413006288 1.4490070886 -0.5191151047 -0.0040975147 0.0000413133 0.1021387546
-0.2943394392 0.4902470171 0.0079013073 -0.0039035310 0.0026447328 0.1042343348
-0.1915374939 1.2207557449 -0.3610769296 -0.0040488444 0.0000315368 0.1075871601
-0.2842907996 0.5477994212 0.5147035683 -0.0043827626 -0.0026963268 0.1051146699
0.1716701767 0.8740098959 -0.2732340431 -0.0040579098 0.0017012206 0.1069910185
0.3815227072 0.5550115895 -0.1212004288 -0.0036721414 0.0006696811 0.1074345743
0.3456973178 1.3182803527 -0.3640221664 -0.0040329043 0.0001844332 0.1075808849
-0.1463323259 1.2508588814 -0.5136876746 -0.0041074166 -0.0003080708 0.1021559562
0.0418905279 0.9111696585 -0.3007210653 -0.0040799424 0.0016650108 0.1070192801
-0.2203286441 0.9696572150 -0.4272318833 -0.0041253948 -0.0013663023 0.1025061061
-0.3149091786 1.2428457295 -0.3586358971 -0.0040804547 0.0000813597 0.1075859721
-0.2806883531 0.4529536251 0.4556230799 -0.0042272204 -0.0002647929 0.1075673264
-0.1860850120 0.5572950852 0.5705745528 -0.0041149343 0.0000000000 0.1075876779
0.4928669951 0.8187617750 -0.3037777272 -0.0040871931 0.0024371306 0.1060816535
0.2245537064 1.2033480052 -0.5077647705 -0.0040499016 -0.0003228174 0.1021582205
0.1455893641 1.1419873889 -0.3654195314 -0.0041025855 -0.0010507901 0.1072793536
-0.0237243032 0.5202080419 -0.1004508038 -0.0040835147 0.0012257029 0.1072940294
0.0201842490 0.8873153089 -0.3745659885 -0.0040937599 -0.0016361334 0.1026847082
-0.4539856904 0.7329699673 0.0910533604 -0.0040871931 -0.0027177573 0.1046684329
0.2310985833 1.2707520160 -0.5157368434 -0.0040559125 -0.0002610054 0.1021516565
0.3937329378 0.9771775959 -0.4413404816 -0.0063595117 0.0006141226 0.1059877461
-0.0896032979 0.5344990381 0.5180041211 -0.0039821577 0.0027022614 0.1050441740
-0.3964577333 0.5002715395 0.2931099406 -0.0018074058 -0.0006208664 0.1049606399
0.4182560966 1.2860846442 -0.5243590144 -0.0018351579 0.0000000000 0.1054601331
-0.2236830199 0.6800269635 -0.2164762575 -0.0041215146 -0.0012372342 0.1024415012
0.4209808920 0.0455969418 0.2349639181 -0.0068119885 0.0000000000 0.1048630868
-0.3975252672 0.9707511087 -0.4522011619 -0.0046851195 0.0009891035 0.1032581006
0.0544983143 0.4223831617 0.0074229422 -0.0040215773 -0.0026504439 0.1054832666
0.2661730900 0.5153441459 0.3219348729 -0.0038014602 -0.0026536401 0.1054085527
-0.4980943571 0.1552370963 0.3846860966 -0.0062286589 0.0003030981 0.1034008308
0.4052496644 0.4431911191 0.4254764748 -0.0038485664 0.0002810327 0.1021643895
-0.4231007829 0.0877063907 0.4045905827 -0.0036959588 -0.0007094141 0.1073592855
-0.1172869441 0.5761626396 0.4712459560 -0.0039702504 0.0026951006 0.1044950841
-0.3705187081 0.5196143608 0.1077410784 -0.0040698907 0.0026290843 0.1041870787
0.0114745004 0.0136239771 -0.4080340811 -0.0040871931 -0.0027247954 0.1048630868
-0.2905000662 0.7469100970 -0.2592916682 -0.0041769942 -0.0017161089 0.1027496129
0.3418064108 0.5931762703 0.4667825341 -0.0042352994 0.0026953595 0.1044956863
-0.2756592527 0.5521875925 -0.1844824263 -0.0041597490 -0.0006875640 0.1022292042
-0.4209808920 0.5682091933 -0.2044306291 -0.0064188115 0.0001168093 0.1049365991
-0.2321578203 0.6425311736 -0.1273938751 -0.0041181441 0.0006270953 0.1075131792
0.4399264436 0.2380945091 0.4312760410 -0.0041630732 -0.0006257547 0.1075128087
-0.0749126124 0.8980916705 -0.2895050254 -0.0040950651 0.0016719181 0.1070140866
0.1433539529 1.3158342903 -0.5191150638 -0.0040784411 -0.0000760463 0.1021407791
-0.0114143724 1.3686326919 -0.4481739661 -0.0040702367 0.0000951662 0.1075858441
-0.3320502453 0.7949030168 -0.2089051955 -0.0041895773 0.0017159890 0.1069762528
-0.4724262911 0.0490463175 0.2426104434 -0.0040871931 0.0027247954 0.1048630868
-0.3214567585 1.1312834525 -0.4891368674 -0.0042172776 -0.0006854877 0.1022299181
0.2627150821 1.1492140668 -0.4968528667 -0.0040211305 -0.0006206920 0.1022113976
0.4209808920 0.4058214736 -0.1047117489 -0.0019505121 -0.0008176157 0.1047110514
0.1790876747 0.4908181615 0.2512881102 -0.0038695147 -0.0026420952 0.1054874655
0.1277948206 1.1235453768 -0.3914502323 -0.0040843730 -0.0026538390 0.1053359260
-0.0953948015 1.4891382815 -0.4475954620 -0.0040990569 0.0010552724 0.1072994926
0.1108868274 0.4272169542 0.0126520807 -0.0039515855 -0.0026437818 0.1054968088
0.1153567699 1.2422298058 -0.4407426043 -0.0040622994 0.0003282452 0.1075666751
0.1668911635 0.5919098344 -0.1935806763 -0.0040756700 -0.0003559291 0.1021618881
-0.5000000000 0.0411497678 -0.1736023264 -0.0068119885 0.0000000000 0.1048630868
-0.3554308020 0.4103167866 -0.0548295132 -0.0043768580 -0.0007875067 0.1023151578
0.3964577333 0.4786980263 0.2393599995 -0.0063377515 -0.0014095966 0.1052427680
-0.3019631797 0.7056674628 -0.1506745027 -0.0041864275 0.0011093569 0.1073478386
-0.1225521807 0.7581108781 -0.2712193838 -0.0041032830 -0.0017098010 0.1027423622
-0.2646049675 0.5173047561 0.3328728257 -0.0043779206 -0.0026547736 0.1054000186
-0.3964577333 0.5017705203 0.3375121604 -0.0018111661 -0.0012973078 0.1050308688
0.0388061276 0.5308264934 0.5589347609 -0.0040463621 -0.0025814603 0.1056838360
0.4527079875 0.0136239771 0.1634478831 -0.0040871931 -0.0027247954 0.1048630868
-0.4041892394 0.6471357100 -0.2406396915 -0.0032332504 -0.0005502915 0.1034785801
-0.2952050113 1.4527606660 -0.3761188930 -0.0040599533 0.0003783051 0.1075605798
0.2492387044 0.9841931457 -0.4365167927 -0.0040332040 -0.0012318282 0.1024353159
-0.4972751228 0.5499980177 0.4311416841 -0.0068119885 0.0000000000 0.1048630868
0.0999832807 1.4735734872 -0.4428207921 -0.0041013048 0.0002326294 0.1021535639
-0.4848637833 0.7629381447 0.1566657719 -0.0040871931 0.0026974330 0.1052482421
0.0732646698 0.3787877647 -0.0444910618 -0.0040030651 -0.0021036511 0.1039171904
0.2144262767 1.4169709496 -0.5216897666 -0.0040785909 0.0000453515 0.1021397382
0.3143995901 0.9808219907 -0.4336345449 -0.0039768089 -0.0012469781 0.1024445911
0.3987643462 0.4566995104 0.4538426223 -0.0038271959 -0.0001531090 0.1075675852
-0.3285653165 0.5049245555 0.2457360617 -0.0044121277 -0.0026345311 0.1054765581
-0.4412277242 0.7029647872 0.3719254873 -0.0040555474 -0.0025106783 0.1038232422
0.2871075215 0.5205321346 0.1307404471 -0.0042517626 0.0026356973 0.1041928471
-0.2497180041 0.8324026322 -0.3287221448 -0.0041451359 -0.0016825448 0.1027211387
0.3553360472 0.5467766665 0.2095705714 -0.0042404329 0.0026535229 0.1042633321
0.0840357152 1.4438871190 -0.4436261408 -0.0040933839 0.0000805749 0.1021398472
0.2000763242 1.4418801110 -0.3774835768 -0.0041171958 0.0003519700 0.1075646288
0.2878780909 0.5323832644 -0.1088868985 -0.0039864057 0.0010763814 0.1073572010
-0.4683752696 0.7227975540 0.2033176292 -0.0040888280 -0.0026982205 0.1044904383
-0.1443232498 0.5796735739 0.4845420585 -0.0039404166 0.0027022750 0.1045684356
0.3911868836 0.9435272689 -0.3362155829 -0.0034983921 0.0015356484 0.1069882229
-0.2662512126 0.9250818481 -0.4417155906 -0.0040825010 -0.0022271524 0.1063466180
-0.4757417704 0.0517711129 -0.1741768386 -0.0041388362 0.0027207137 0.1049739287
-0.4342010299 0.7275203765 0.1503134291 -0.0040871931 -0.0027204112 0.1047101577
0.0303435561 0.7547986822 -0.1776275931 -0.0040827272 0.0015214685 0.1071233209
-0.4630060875 0.6925183385 0.3905463032 -0.0040871931 -0.0023532995 0.1035251469
-0.1890216848 0.4003257738 -0.0033194112 -0.0041139642 0.0002054632 0.1075698304
0.2258813657 1.4979423108 -0.4867424016 -0.0040136182 0.0027226701 0.1048612421
-0.2515156933 1.4659923216 -0.4462411733 -0.0041398225 0.0000629183 0.1075838877
0.3204255842 0.4482976146 0.0145979607 -0.0037643512 -0.0026172096 0.1055472175
0.2155817671 1.1772769310 -0.4247237037 -0.0040871931 -0.0004630681 0.1021781415
-0.4649397549 0.6165799659 0.4208284697 -0.0040894520 -0.0004156185 0.1021701878
-0.4128065058 0.5190314508 0.1380936345 -0.0061964436 0.0007421416 0.1046732040
-0.4083604189 0.4725176344 0.2224143360 -0.0040345256 -0.0014376048 0.1052381140
-0.3198817777 1.3641032836 -0.3658796649 -0.0040773076 0.0002372561 0.1075768277
0.0793516584 0.6994146050 -0.1462889526 -0.0040696318 0.0010977274 0.1073539422
-0.1593785783 0.9412197405 -0.3227983687 -0.0041030460 0.0015144767 0.1071273754
-0.3937329378 0.5361902695 0.4614555127 -0.0018856565 -0.0000502098 0.1048118743
-0.2105762825 1.4024407600 -0.5626529186 -0.0042593702 -0.0005015585 0.1024423922
0.1367858226 0.7573447801 -0.2705808852 -0.0040711305 -0.0016558200 0.1026993104
-0.0324834333 0.4776066285 0.2443925413 -0.0041206563 -0.0026536428 0.1054738143
-0.1623597497 0.5293159567 0.4610811094 -0.0042753157 -0.0026958308 0.1051967380
0.3953794745 0.7785745331 -0.2777008329 -0.0034788662 -0.0016472069 0.1028238962
-0.0308234907 1.4200864044 -0.5191150638 -0.0041047217 0.0000000000 0.1021383486
-0.4237056874 1.1867200828 -0.5281000359 -0.0061980022 -0.0000807575 0.1042393539
-0.3709906073 0.5982896268 0.5055487107 -0.0041160405 0.0026958417 0.1046050023
0.0568459163 0.8213171835 -0.2281616625 -0.0040754247 0.0017002478 0.1069917160
0.2220287502 0.8745354299 -0.2740247542 -0.0040418226 0.0017070189 0.1069861493
0.1110733097 0.8351243514 -0.2399963074 -0.0040636509 0.0017436456 0.1069563482
0.2285221121 0.9388443592 -0.4105713643 -0.0040578389 -0.0014860843 0.1025804140
-0.2797886038 0.3958504990 -0.0209883716 -0.0043651849 -0.0025802232 0.1056504519
0.3254959925 1.4017700380 -0.4503004673 -0.0039772722 0.0000000000 0.1075851928
-0.0867278894 0.4559178619 -0.1067939286 -0.0041015119 -0.0019629481 0.1067447351
-0.4681252233 0.0490463175 -0.3844526443 -0.0040978471 0.0027228499 0.1047991522
-0.1001328746 0.4749646533 0.0101369801 -0.0039834002 0.0026443567 0.1042240405
0.1245738045 0.4455482061 -0.1198883608 -0.0040548880 -0.0023737518 0.1061659750
0.4227904940 0.0136239771 -0.1282064146 -0.0047468933 -0.0024439317 0.1048630868
0.2568001806 1.3511194263 -0.5194033581 -0.0040249125 -0.0001338447 0.1021432314
-0.3678899563 0.8594663167 -0.2628048477 -0.0042601332 0.0017401034 0.1069480485
0.2684442587 0.5834421212 0.4463236992 -0.0042605909 0.0026850434 0.1044343212
0.2579688699 0.5120261298 0.4959151338 -0.0038895583 -0.0026964221 0.1045357299
-0.0856040747 0.4061700567 -0.0761271137 -0.0041931277 -0.0026859889 0.1052480840
0.0385746426 0.7741431656 -0.2842193310 -0.0040856945 -0.0016939672 0.1027289289
0.0818448434 0.4515101511 0.4539567122 -0.0040860869 -0.0003098774 0.1075700130
-0.2234132869 0.5003551117 -0.1679839127 -0.0041274220 -0.0010050517 0.1023343322
-0.3441121081 1.2861591510 -0.4371042776 -0.0041118661 -0.0002371607 0.1021498036
-0.0038154111 0.6060857461 -0.1212949329 -0.0040698226 0.0003344795 0.1075672010
-0.0244343604 0.4582192786 -0.0441565849 -0.0040638743 0.0026436265 0.1042083457
0.0826217998 0.5757726042 0.4864577640 -0.0041721168 0.0027040434 0.1045669424
0.4713293211 0.2142917972 0.3912595566 -0.0040841141 0.0004133978 0.1021698500
-0.1146561214 0.4931917962 0.0769830373 -0.0039778171 0.0026352532 0.1041858689
0.1436609474 0.5156303202 0.3806042250 -0.0039131495 -0.0026715393 0.1053579750
-0.2742044926 0.5341455503 0.4917840361 -0.0041480787 0.0000665586 0.1021552832
0.4209808920 0.4583367745 0.0608206163 -0.0017764522 0.0007029672 0.1046316372
0.3629118504 1.3723984927 -0.3695903349 -0.0039861168 0.0002638092 0.1075691928
0.4381557190 0.8473082632 -0.3473498408 -0.0041388225 0.0021420189 0.1065435145
-0.4999999591 0.8756500265 -0.3785048764 -0.0068119885 0.0000000000 0.1048630868
0.4147805029 1.4117493696 -0.4281473683 -0.0015881770 -0.0000269591 0.1040072095
0.0309820274 1.2486839824 -0.5134158027 -0.0040839806 -0.0003365531 0.1021591715
-0.0193242900 0.7922321069 -0.2974316514 -0.0040970433 -0.0016940925 0.1027291714
0.1576084149 1.0533561155 -0.3901719872 -0.0040673403 0.0011346866 0.1073394435
0.3258170088 0.4825526799 -0.0376039642 -0.0042421277 0.0026492477 0.1042459915
0.4418789448 0.0490463175 0.0940523765 -0.0040871931 0.0027247954 0.1048630868
0.3805878463 1.2104088738 -0.4421190538 -0.0036788989 0.0003665286 0.1075009231
-0.4209808920 1.2749087268 -0.4938458043 -0.0064854981 -0.0000542234 0.1043953103
-0.4994638638 0.7242594858 0.1961925126 -0.0066193564 -0.0007200735 0.1048136181
-0.3523676933 0.5031162014 0.2250358726 -0.0044272857 -0.0026371360 0.1054577761
0.4591735973 0.0490463175 0.2685131497 -0.0040871114 0.0027224793 0.1047888661
0.0129886883 0.4757646396 0.0345754032 -0.0041027190 0.0026394848 0.1041897789
0.3411625252 1.3109083234 -0.5167798869 -0.0039528062 -0.0000758202 0.1021441034
0.4209808920 0.0203866060 -0.3230704477 -0.0068119885 0.0000000000 0.1048630868
-0.1728167379 0.5178276280 0.1570827283 -0.0039157272 0.0026454385 0.1042383212
-0.3996754660 0.8695583213 -0.3482910206 -0.0047443784 -0.0015970925 0.1027989180
0.1037223485 0.5619453982 0.3845367942 -0.0041897517 0.0026840434 0.1044168852
-0.1879527585 0.7061066834 -0.1487736827 -0.0041048961 0.0011654904 0.1073255716
-0.1912912732 0.8645978421 -0.2638219076 -0.0041019370 0.0017784058 0.1069271820
-0.0270712212 0.4221063415 0.0150352985 -0.0041162204 -0.0026517954 0.1054828551
-0.0503569196 0.4441416531 -0.1274124582 -0.0041015555 -0.0025847300 0.1043829996
-0.0889327584 0.4353592015 0.0490593039 -0.0041860024 -0.0026346074 0.1055417788
-0.3042552803 0.5144824184 0.2962984662 -0.0043972231 -0.0026386374 0.1054654301
0.0896420117 1.4957726516 -0.3895822570 -0.0040871931 0.0014722887 0.1070117842
-0.0864209194 1.1259363058 -0.3844084481 -0.0040759179 -0.0024922341 0.1058169478
-0.1361030761 1.1224990472 -0.4900116902 -0.0041149179 -0.0006787084 0.1022244685
0.4482031514 0.2908386901 0.4051824519 -0.0041359942 0.0004964931 0.1021860598
-0.1067128005 0.7232367719 -0.2443140236 -0.0041109670 -0.0016091388 0.1026655257
0.3098344461 1.1631377305 -0.3601007826 -0.0040583484 -0.0001833297 0.1075680103
-0.1163674128 1.4851844672 -0.5177242274 -0.0041009206 0.0007008010 0.1022767328
-0.3392741984 0.7286017960 -0.2441925359 -0.0042035228 -0.0015968364 0.1026596919
0.3946007334 0.4741144027 0.4369331850 -0.0039163675 0.0026865774 0.1052516944
0.2377432639 0.5013818555 -0.0894522134 -0.0040276482 0.0013506784 0.1072280539
-0.2689119780 1.4068605689 -0.5264200305 -0.0039036318 -0.0001719945 0.1075735334
0.1784107157 0.4441416531 -0.1315140383 -0.0040800950 -0.0024543077 0.1037464765
0.2387775145 0.6195196742 -0.1256883412 -0.0040332613 0.0003593596 0.1075617487
-0.1128976910 1.4968978940 -0.3899014041 -0.0040729969 0.0016191416 0.1069187651
0.4209808920 0.3448594977 0.4204137368 -0.0067871466 0.0000238229 0.1045772258
0.3516802601 0.5260437990 0.3226576684 -0.0037451441 -0.0026495584 0.1053959478
0.2564573769 1.2784984078 -0.5161842548 -0.0040333375 -0.0002481253 0.1021512478
0.3052142148 0.4255086355 0.4237082024 -0.0039123921 0.0002170627 0.1021563132
-0.2015078418 0.4875540283 0.0316608775 -0.0038919888 0.0026346755 0.1041965337
-0.0621845290 0.4758870837 0.2249197500 -0.0041566618 -0.0026598090 0.1054405309
0.1987404524 0.9346447410 -0.4730263319 -0.0039381741 -0.0012082533 0.1024337219
0.3563740199 1.1432736995 -0.4240159790 -0.0039387354 0.0006788010 0.1074975934
0.2147386664 0.4522434862 0.4263816899 -0.0040165174 0.0003506594 0.1021641769
0.3437010346 1.0690037328 -0.3991694333 -0.0039568662 0.0009860026 0.1073994272
0.2862674371 1.2139199743 -0.4310964716 -0.0040871931 -0.0003948065 0.1021676129
0.3904902160 0.4747209285 -0.1077550675 -0.0031617681 -0.0018096429 0.1065082883
-0.2468148436 0.5361160543 0.4497358897 -0.0043543539 -0.0026862695 0.1052272421
-0.3368620842 0.5521509194 0.5041243621 -0.0044247408 -0.0026915475 0.1051170432
0.2123530153 1.4338113297 -0.5626953682 -0.0039285664 0.0002051063 0.1021575175
-0.2712974220 1.1230046248 -0.3926054529 -0.0040865746 -0.0026698472 0.1049479015
0.3029152096 0.6753814734 -0.2143020887 -0.0040072040 -0.0011066103 0.1023753159
0.1122655331 1.4313361637 -0.5683567519 -0.0039822313 0.0002763760 0.1021699453
0.0022328690 0.4911916901 0.0978405479 -0.0040907626 0.0026388908 0.1041848552
0.0818456636 0.4597662785 0.1477102032 -0.0039927354 -0.0026461251 0.1054959641
-0.2762173834 1.4349733268 -0.5568089681 -0.0043241086 0.0001815449 0.1021645094
-0.1612339459 0.5361232477 0.5313541064 -0.0042817844 -0.0027074848 0.1050764682
0.3953996380 0.4635058449 -0.2059089014 -0.0060043238 -0.0008976947 0.1034890815
-0.1049912067 0.4546690936 0.1201273144 -0.0042129806 -0.0026384657 0.1055198960
0.3020132178 1.4812903585 -0.5163343883 -0.0039877544 0.0006068092 0.1022468935
0.0695060434 0.5247914557 0.4791816066 -0.0040040678 -0.0027023976 0.1051812802
0.0309248749 0.4137797427 -0.0288170222 -0.0041236945 0.0026189725 0.1041457381
-0.4869410147 0.3677228174 0.4178583909 -0.0041437381 0.0002250109 0.1021489072
0.2258994529 0.5042404056 0.2907190716 -0.0038356291 -0.0026511605 0.1054363620
0.2981718476 0.8091736014 -0.3119658764 -0.0040036972 -0.0017161879 0.1027495529
0.2503639877 1.1791220371 -0.3596586927 -0.0041010242 -0.0000057030 0.1075875416
-0.0184724154 0.4818496936 0.0576104449 -0.0040710160 0.0026375148 0.1041812531
0.3544439710 0.4031611632 0.4481873094 -0.0039785256 -0.0004513051 0.1075425525
-0.3217826821 1.4717588960 -0.4474526855 -0.0041949860 0.0002324278 0.1075698740
0.3310401909 1.4277841503 -0.4442971108 -0.0041027926 0.0000367030 0.1021389290
0.2160200723 0.9034976073 -0.3865419330 -0.0040689288 -0.0015152533 0.1025988417
0.3351967137 0.5359085012 0.3926448235 -0.0037562749 -0.0026692723 0.1052967707
0.2896083006 1.0163787916 -0.4509262847 -0.0039986999 -0.0011646103 0.1024020053
-0.4999999591 0.7710075882 -0.2735139395 -0.0068119885 0.0000000000 0.1048630868
0.0148099279 1.4986374797 -0.4593559951 -0.0040806046 0.0026845965 0.1053140622
0.1180680939 0.7107664760 -0.2354932587 -0.0040865691 -0.0015529590 0.1026249807
0.0397492365 0.5195614344 0.4455693668 -0.0040419424 -0.0026998145 0.1052113020
0.3495036581 1.5020236838 -0.3927034502 -0.0040303212 0.0021306538 0.1065194954
-0.1051539206 1.1307836133 -0.4927732404 -0.0041076563 -0.0006879155 0.1022269453
0.3872276223 0.4392844110 -0.0591998262 -0.0034536836 -0.0026160052 0.1051010377
0.2935298507 1.4478050097 -0.3782242307 -0.0040794329 0.0003739155 0.1075616969
-0.4999999591 0.0431165251 -0.2967215153 -0.0068119885 0.0000000000 0.1048630868
-0.0403500757 0.4721684709 0.0147989034 -0.0040473811 0.0026475502 0.1042271441
-0.4043801631 0.7724026671 -0.2002207629 -0.0048248743 0.0015447083 0.1069425798
0.4515144345 0.0136239771 -0.2714627762 -0.0040871931 -0.0027247954 0.1048630868
-0.3142936719 0.5646361855 0.3179221239 -0.0039353103 0.0026652069 0.1043181304
-0.1942828288 0.4258513140 -0.0153612767 -0.0039205964 0.0026815638 0.1044616454
0.4474189253 0.7138963994 0.2830838161 -0.0041061577 -0.0027154575 0.1046439642
-0.0409076969 1.3142887046 -0.4425824734 -0.0040955310 -0.0002184932 0.1021471797
-0.1930400060 0.9289900930 -0.4689598036 -0.0042676427 -0.0013176348 0.1024888581
-0.2500899523 1.2422096832 -0.5119355331 -0.0041502803 -0.0003249291 0.1021595693
0.2880109301 1.3598387226 -0.5198340147 -0.0039996155 -0.0001343133 0.1021442287
-0.3257778644 0.5815983857 0.4025420379 -0.0039379697 0.0026871524 0.1044398089
-0.4998484932 0.0464729880 0.2380482094 -0.0067237133 0.0005022670 0.1048676944
0.2398771248 0.5855158595 0.4735419259 -0.0042782503 0.0026967872 0.1045268498
0.2925175101 0.0136239771 -0.4017628037 -0.0039096809 -0.0027102532 0.1048630868
-0.4495641785 0.5339284768 0.4263889461 -0.0040871931 0.0000000000 0.1021382914
-0.4546494288 0.0136239771 0.1851451293 -0.0040871931 -0.0027247954 0.1048630868
-0.3282990576 0.9518712900 -0.4683067110 -0.0044601250 -0.0012263242 0.1024672369
0.4425594788 0.7656675123 0.1158386854 -0.0040871931 0.0027195420 0.1050301059
0.2292439731 1.3852075598 -0.4486690233 -0.0040468525 0.0000000000 0.1075872746
-0.3906148237 1.1247394694 -0.4007241662 -0.0041162122 -0.0024788390 0.1039469452
0.0082183100 0.7910366819 -0.2965314254 -0.0040955201 -0.0016893459 0.1027253349
-0.0510053092 0.4503238324 0.1175114155 -0.0041479915 -0.0026415257 0.1055197189
0.2679482642 1.2369377109 -0.3611637852 -0.0040939452 0.0000767003 0.1075866751
-0.4041504901 0.5655088039 0.5194220665 -0.0048595936 -0.0025834821 0.1051736508
0.0127853695 0.5065238605 0.5381055582 -0.0040890514 -0.0000664196 0.1075825116
0.0482938762 0.0136239771 -0.4070837133 -0.0040871931 -0.0027247954 0.1048630868
-0.1109131571 0.4233842978 0.4512544509 -0.0040761713 -0.0002078501 0.1075797024
0.2964832564 0.5692419262 0.3458779063 -0.0042491550 0.0026650025 0.1043217680
0.1596839515 1.4467121978 -0.5658555178 -0.0039550814 0.0004626703 0.1021830979
-0.2062885635 0.0136239771 -0.4118267838 -0.0041231632 -0.0027239507 0.1048630868
-0.1427460755 0.5254077963 0.4415709203 -0.0042501195 -0.0026864194 0.1052702666
0.2185886007 0.9783879854 -0.3509892084 -0.0040390106 0.0014316211 0.1071764490
-0.4999999591 0.7466342741 0.0632246243 -0.0068119885 0.0000000000 0.1048630868
0.1032345338 0.4715139233 0.1911165021 -0.0039582858 -0.0026504358 0.1054687707
0.4269398861 0.4684710625 0.4236641507 -0.0041557708 0.0001246403 0.1021448527
0.4128065058 0.5110368438 0.2067719667 -0.0028966810 -0.0020542205 0.1053238769
0.4182560966 1.1151960342 -0.4650639892 -0.0014763623 -0.0000469673 0.1047033947
-0.3955940930 1.4504898923 -0.5267636654 -0.0044839642 0.0026583540 0.1049172503
0.1673574087 0.0136239771 -0.4066455744 -0.0040660814 -0.0027242886 0.1048630868
0.2488767535 1.4312508476 -0.4490018489 -0.0040322476 -0.0000018093 0.1075868141
-0.2664774741 1.1231621180 -0.4163906581 -0.0041506073 0.0008725394 0.1074426833
-0.2650292399 1.2218225296 -0.3589932104 -0.0040451087 0.0000525368 0.1075866424
-0.4100010510 1.0979585097 -0.4170672002 -0.0049906099 0.0008130027 0.1072682773
-0.1365571714 0.9627944199 -0.4236649027 -0.0041088716 -0.0013651661 0.1025050543
-0.0599461804 1.4963196406 -0.4381437871 -0.0040915065 0.0012094658 0.1024786428
0.1077478413 0.7919389870 -0.2985973898 -0.0040871059 -0.0017197192 0.1027498853
-0.4081304571 0.5297273218 0.2997771172 -0.0048507734 -0.0025553458 0.1054044437
0.3278426244 0.5962109404 -0.1921395919 -0.0039767544 -0.0003062071 0.1021583867
0.1784222116 1.1596422622 -0.4215618511 -0.0040871931 -0.0005838228 0.1022051688
-0.3599059924 0.5958335862 0.4760091518 -0.0039709806 0.0026952995 0.1045000187
0.0753690511 0.9079996560 -0.2979472917 -0.0040743321 0.0016900925 0.1070001466
-0.3908659898 0.4614533083 -0.1212068321 -0.0047981358 -0.0020442914 0.1056872993
0.4495942385 0.0756151737 0.3957370984 -0.0040871931 -0.0019267219 0.1067898087
-0.4999999591 0.1259955646 0.3892205567 -0.0068012964 0.0000248256 0.1047283920
0.3024033350 0.5871110910 0.4507724482 -0.0042496155 0.0026879943 0.1044505446
-0.0464039526 1.0838025953 -0.4796963750 -0.0040926836 -0.0009323460 0.1023033241
-0.4972751637 0.7145005138 0.3759465960 -0.0068119885 0.0000000000 0.1048630868
-0.4237783632 0.4477478817 0.4236641507 -0.0040176563 0.0001778910 0.1021462587
-0.4987263707 0.2076560539 0.3946531203 -0.0064500730 0.0001688365 0.1037746673
0.0571184858 1.3918556519 -0.3741044844 -0.0041018089 0.0002836267 0.1075726479
-0.4209808920 0.0232833823 -0.0755137867 -0.0013771525 -0.0002146785 0.1048630868
-0.2679148364 1.2694294494 -0.4425183616 -0.0041540950 0.0002446158 0.1075749503
-0.1452363015 0.4673949236 0.4563616957 -0.0040977762 0.0003509073 0.1075072174
0.1324717140 0.9057640567 -0.2959910902 -0.0040650133 0.0016687792 0.1070164872
-0.2194530284 0.4074490920 0.4509121048 -0.0041262149 -0.0002983705 0.1075677187
0.3112265522 0.5037692531 0.2462030453 -0.0037725746 -0.0026350407 0.1054795609
-0.3344187874 1.3689446020 -0.4418582827 -0.0041038171 -0.0000815586 0.1021406402
-0.0861709684 1.1155099388 -0.4889052407 -0.0041096482 -0.0006996920 0.1022299589
-0.0193816115 0.5830979469 -0.1198449739 -0.0040747027 0.0003771498 0.1075600648
0.1977030819 0.5605338561 0.5680783078 -0.0040463185 0.0000000000 0.1075875634
0.2127360644 1.2835694809 -0.4437677103 -0.0040423130 0.0002126349 0.1075790566
0.4106154760 0.4353734222 0.4523443717 -0.0038348090 -0.0002625204 0.1075625498
0.2261609706 0.4529555788 0.0769690455 -0.0038305882 -0.0026265556 0.1055400268
0.4996453897 0.6955406189 0.4301172455 -0.0028956510 0.0012390844 0.1069000458
0.2765867948 1.2669937793 -0.4452052388 -0.0039897980 0.0001988338 0.1075780212
0.3314174634 0.6904038536 -0.1464652796 -0.0039618471 0.0009598174 0.1074090948
0.0203395733 0.9252213794 -0.4445163479 -0.0040957899 -0.0014120680 0.1069499504
0.0101784242 0.6625102074 -0.2088307513 -0.0041026291 -0.0009227765 0.1022995148
-0.3426094298 0.4886565677 0.1671558501 -0.0044187462 -0.0026371387 0.1054618088
0.0049539696 1.3260446246 -0.3675233732 -0.0040763103 0.0002074932 0.1075797324
-0.1485421486 0.4590774693 -0.0740714381 -0.0039360732 0.0026056183 0.1040878035
0.2386540513 1.2734927760 -0.4439563861 -0.0040202068 0.0002080109 0.1075785770
-0.2233906902 0.7618031721 -0.2738238959 -0.0041251005 -0.0017049345 0.1027391960
-0.4238957773 0.0136239771 0.0508583392 -0.0040871931 -0.0027247954 0.1048630868
0.0490584728 0.4167075163 0.4509121048 -0.0040826100 -0.0002638719 0.1075743890
-0.2698880433 1.4593240224 -0.5181027042 -0.0041646182 0.0000477003 0.1021425911
-0.0471296092 0.4996777357 0.5024362505 -0.0041419860 -0.0027083976 0.1046841086
0.4129008028 0.5990599265 -0.1328184360 -0.0031314848 0.0003023624 0.1073808332
0.2902734504 0.4820936254 -0.1611556462 -0.0040054956 -0.0011767765 0.1024093404
-0.2130771215 0.4385244246 0.0276391476 -0.0043330351 -0.0026334930 0.1055171276
0.4557399546 0.9233311207 -0.4101232471 -0.0040712531 0.0018019345 0.1067083836
0.4209808511 0.4738773291 0.2081652882 -0.0018061443 -0.0010762233 0.1051722857
-0.2637641338 1.4550878184 -0.3770870155 -0.0040455773 0.0003814414 0.1075604326
-0.4341293923 0.7397221684 0.0085510729 -0.0040559016 -0.0027081224 0.1045843865
-0.3088866342 1.4944491721 -0.4387672775 -0.0040871931 0.0009497520 0.1023777464
-0.2342125394 0.4466374839 0.0488619115 -0.0043351495 -0.0026288663 0.1055337543
-0.1977069293 1.2895022788 -0.5163902684 -0.0041200269 -0.0001662452 0.1021437328
0.4972751637 0.0283342647 -0.4214582408 -0.0013636838 0.0000000000 0.1048312367
0.3312015942 0.5096279229 0.0738677269 -0.0042380868 0.0026381415 0.1041991059
0.1300086134 1.0885281617 -0.4041523621 -0.0040704629 0.0009249127 0.1074248686
0.2588827554 0.5703142831 0.5661512099 -0.0039322722 0.0000000000 0.1075795879
-0.3564814559 0.5102035142 0.2576914040 -0.0044270133 -0.0026314657 0.1054827761
-0.1556003551 1.3780434950 -0.4438346068 -0.0041127926 -0.0000414387 0.1021400979
0.1078544544 1.5058614137 -0.4027726701 -0.0040889833 0.0025119834 0.1058375418
0.0630122619 0.3881142544 -0.0028849834 -0.0040641441 -0.0013357492 0.1067408687
-0.4724072475 0.7266276327 0.1601589270 -0.0041197790 -0.0027133595 0.1046200132
0.1787181162 0.5475749062 0.2895230254 -0.0042613457 0.0026610979 0.1043075882
-0.4479293667 0.5674930272 0.4255053303 -0.0040871931 -0.0002116240 0.1021466429
-0.2660847167 0.8262131341 -0.2328082344 -0.0041561087 0.0016825176 0.1070039041
-0.4209808920 0.5334381580 -0.2099166831 -0.0058737189 -0.0000880327 0.1033092940
-0.4953364254 0.7874658757 -0.1325251935 -0.0042010977 0.0027193486 0.1049787162
0.1221417421 0.5694633240 0.4272435209 -0.0042108525 0.0026885556 0.1044499451
0.4972751637 0.8416890375 -0.3804852359 -0.0013623977 0.0000000000 0.1048630868
0.3731099995 0.5469839716 0.4308254280 -0.0036033049 -0.0026403322 0.1052598034
-0.1513928378 1.1432875033 -0.4963538586 -0.0041096781 -0.0007070381 0.1022324821
0.4867179956 0.8159412685 -0.3677539590 -0.0040302885 -0.0021846728 0.1032516401
-0.3394351657 0.0164827834 -0.4373712013 -0.0040938825 -0.0012560571 0.1024848881
-0.2483964756 0.5608964937 0.3281259269 -0.0039048171 0.0026623131 0.1043133511
0.0163824837 1.4193899058 -0.4446468574 -0.0040871931 0.0000347439 0.1021395884
-0.3994317412 0.9772190891 -0.4777518983 -0.0023936674 -0.0007500299 0.1033725610
0.3616232102 1.1622294391 -0.3611748860 -0.0039565773 -0.0001487003 0.1075729258
-0.2961654635 1.2007964196 -0.3583521342 -0.0040566591 -0.0000036240 0.1075864135
-0.1887149083 0.0490463175 -0.3865082136 -0.0041259397 0.0027235584 0.1048630868
0.2883108456 0.9415447922 -0.4701487409 -0.0038114248 -0.0012303732 0.1024614467
0.0921709053 1.2938099160 -0.3657595478 -0.0041196209 0.0001435340 0.1075837024
-0.0778171408 1.4209713307 -0.4445809991 -0.0041019016 0.0000645613 0.1021399944
-0.3666082589 1.2308299539 -0.3585894966 -0.0042098280 0.0000455204 0.1075788059
-0.2911204585 1.2567629082 -0.4412128413 -0.0041705610 0.0003219782 0.1075665007
0.0111272770 1.0216066958 -0.3742021901 -0.0040826672 0.0012741825 0.1072700757
-0.1450019119 1.2865251946 -0.4428207921 -0.0040949724 0.0002420300 0.1075767732
-0.2304883136 1.4808310152 -0.5179256280 -0.0041335501 0.0006038555 0.1022840707
-0.4891490908 0.8027825393 -0.2609199514 -0.0041348552 0.0025945883 0.1055789832
0.1531601755 1.4618780195 -0.3809892332 -0.0041085283 0.0003465531 0.1075653318
0.0621123519 0.4659145723 0.1824553230 -0.0040090106 -0.0026502314 0.1054803429
0.2775663097 0.5081126451 0.0865913063 -0.0042584765 0.0026332178 0.1041846836
0.2732339368 0.6818045900 -0.2180889903 -0.0040255365 -0.0012130244 0.1024282723
0.2450337838 1.1230168483 -0.3953789350 -0.0040871931 -0.0026581578 0.1049214301
-0.3214987939 0.9659181881 -0.3415746615 -0.0042157381 0.0015155612 0.1071227624
0.4209808920 0.7171755000 0.3775207866 -0.0068094545 -0.0000336158 0.1048518824
-0.2075412174 0.6525317505 -0.2046509669 -0.0041156509 -0.0008565340 0.1022833595
0.0940126354 1.0506777207 -0.3890240445 -0.0040702667 0.0011570571 0.1073295444
-0.4209808920 0.7168637561 -0.2126462605 -0.0063942774 -0.0003302915 0.1043401223
0.2249559026 0.4307525860 -0.0117864595 -0.0038419861 -0.0026353131 0.1055092884
-0.1549368157 1.3845794127 -0.5191150638 -0.0041084683 0.0000000000 0.1021383758
-0.2103306858 0.5728755962 0.4103333752 -0.0038841414 0.0026862341 0.1044541985
-0.3321762426 0.8005335504 -0.3024139181 -0.0042140868 -0.0017245966 0.1027582150
0.4345652451 0.0136239771 -0.0459261243 -0.0040871931 -0.0027247954 0.1048630868
-0.1757251055 1.1607312484 -0.4247650307 -0.0040984138 0.0005570163 0.1075301819
0.1917250688 0.5439527948 0.2670765776 -0.0042817108 0.0026584848 0.1043002040
0.1453750126 0.4407713727 0.0549768020 -0.0039258662 -0.0026323840 0.1055404110
0.0166638106 0.9007365558 -0.2915921097 -0.0040841822 0.0016993732 0.1069929558
-0.0999646022 0.0360685175 -0.3747009067 -0.0040871931 0.0000000000 0.1075878822
0.0901068727 1.4438458738 -0.5688385066 -0.0040023348 0.0003715013 0.1021749862
-0.4100817103 0.5903459953 0.5116365495 -0.0062957216 0.0006336484 0.1048015691
0.4234420471 0.3321725859 0.4438048983 -0.0060805472 -0.0002272915 0.1066387461
-0.4269597171 0.2106471708 0.4272871558 -0.0040871931 -0.0004100654 0.1075567923
0.3438638929 1.3418639530 -0.5168738106 -0.0039619479 -0.0001552616 0.1021459372
0.2841231185 0.4600946109 0.4276853601 -0.0040549697 0.0003867302 0.1021667791
-0.2249745702 0.5315586241 0.4375464057 -0.0043459479 -0.0026808935 0.1052695064
-0.2907924149 1.4772340972 -0.4470426120 -0.0041704547 0.0003167139 0.1075590103
-0.4999999591 0.8816521786 -0.4158247943 -0.0068119885 0.0000000000 0.1048630868
-0.3947087525 0.8248591369 -0.3160974728 -0.0046888770 -0.0016364958 0.1028174848
-0.2710017272 1.4878888075 -0.3828308461 -0.0040517354 0.0008182097 0.1074578795
0.0524059003 1.4513543636 -0.4433149774 -0.0040912422 0.0001029046 0.1021406102
-0.3964577333 0.4734549477 0.1551000582 -0.0017834821 -0.0000906212 0.1048995364
0.1411193699 1.1221148756 -0.4914530007 -0.0040732340 -0.0006891226 0.1022271579
0.4531035079 0.6714955963 0.4407773591 -0.0040954820 0.0008947465 0.1074358223
-0.3280213410 0.6902282324 -0.1439643370 -0.0042007463 0.0010406402 0.1073775035
-0.2076293182 0.9587495538 -0.4813984593 -0.0041288825 0.0015433132 0.1030083186
-0.3671150844 1.4559404804 -0.3767959746 -0.0042571250 0.0003979073 0.1075473018
0.1495651104 0.5583652377 -0.1892072243 -0.0040897136 -0.0006624441 0.1022210925
-0.4879741645 0.7398569613 0.3731804300 -0.0040814411 0.0024502914 0.1059645962
0.4706272504 0.0136239771 -0.1685383840 -0.0040871931 -0.0027247954 0.1048630868
-0.4209808920 0.3227984913 0.4217478020 -0.0013623977 0.0000000000 0.1048630868
-0.1521433663 0.5765986177 -0.1172415626 -0.0040932367 0.0004632888 0.1075462528
0.1579508318 1.3053446426 -0.4417476451 -0.0040871931 -0.0001991716 0.1021461742
0.0338724822 1.2628840521 -0.4375015882 -0.0040988362 -0.0003099428 0.1021567600
0.1511453310 1.4271701395 -0.3767067512 -0.0041248035 0.0003331526 0.1075668822
-0.0417924925 0.4713896072 0.4532684861 -0.0040861059 0.0025047028 0.1057818905
0.4448357402 0.0544959084 0.3211459274 -0.0041141904 0.0026183431 0.1043826754
-0.1667587384 0.4684913513 -0.1538391427 -0.0041161414 -0.0013853596 0.1025352532
0.4209808920 0.4063110431 -0.1314078285 -0.0019407219 -0.0014557519 0.1042516400
-0.1791782687 0.4995772044 0.0850865271 -0.0039136373 0.0026317518 0.1041817517
-0.3809754675 0.4900243278 0.1450098465 -0.0046265664 -0.0025837028 0.1054883974
-0.3720393483 0.5941138751 -0.1231352788 -0.0043449751 0.0003198365 0.1075438550
0.3778109964 1.1205142408 -0.4205410501 -0.0037306073 0.0007588147 0.1074260484
0.0347112342 1.0953777361 -0.4065424627 -0.0040758580 0.0008179618 0.1074621084
0.3608650086 1.1561134505 -0.4968854635 -0.0039455937 -0.0006231253 0.1022143295
0.2521669140 1.1226833169 -0.4907785811 -0.0040291141 -0.0006758010 0.1022250461
0.2670094114 0.3950940059 -0.0193805216 -0.0038456209 -0.0025760243 0.1056661549
-0.2840786743 0.6820959633 -0.2162625518 -0.0041770814 -0.0012503214 0.1024484548
-0.4209808920 0.7061713782 -0.2477951896 -0.0063697188 0.0002132425 0.1050151249
0.4182560966 1.1622469840 -0.5339589128 -0.0018548745 -0.0001273052 0.1036852558
0.0894880499 1.3366372995 -0.5191150638 -0.0040798144 -0.0000349264 0.1021391606
0.0166700232 0.7183325898 -0.2414651410 -0.0040921441 -0.0015957546 0.1026561088
-0.4897070553 0.0517711129 -0.2699075856 -0.0042369370 0.0027195502 0.1048630868
0.4700322831 0.7515106824 0.2791897265 -0.0040754574 0.0027112995 0.1051274955
-0.1338304523 0.7064173482 -0.1489600505 -0.0040975392 0.0011942342 0.1073114326
-0.2880978457 0.4951076271 0.2238115130 -0.0043810187 -0.0026439071 0.1054500840
0.4209808920 0.7407738196 0.1916255892 -0.0068119885 0.0000000000 0.1048630868
0.4182560966 1.4342671825 -0.4928984720 -0.0013623977 0.0000000000 0.1048630868
0.2495260831 0.4735577678 -0.0478422059 -0.0042708062 0.0026427791 0.1042320868
0.1692876864 0.0281826898 -0.3747009067 -0.0040816999 0.0000000000 0.1075878495
0.2904167665 1.5002223978 -0.3904796983 -0.0041081795 0.0019422669 0.1067157324
0.2682043568 0.5899950008 0.4933699515 -0.0042666781 0.0027040897 0.1045855500
-0.0362673976 1.1534357204 -0.4204333635 -0.0040871931 -0.0006421062 0.1022185284
-0.0346913132 0.4846604290 0.2740052528 -0.0041248798 -0.0026474657 0.1054993211
-0.4239716547 0.0515872601 -0.1686865857 -0.0039093648 0.0027111714 0.1050652285
0.1702336891 0.5313361882 0.4771361817 -0.0038850215 -0.0026961115 0.1051901140
0.0626938641 0.5764774597 0.5226392189 -0.0041519452 0.0027184494 0.1047235963
-0.4570631861 0.7162723638 0.2758932063 -0.0040838907 -0.0027098390 0.1045893566
0.2593985810 0.7645900002 -0.1856192873 -0.0040116591 0.0015557574 0.1070976915
-0.1791170889 0.9960157524 -0.3589274366 -0.0041055528 0.0014267873 0.1071837487
-0.4237056874 1.4114975767 -0.5152637780 -0.0062469314 0.0000000000 0.1061189123
0.1174310912 0.5035983730 0.5375549533 -0.0040434765 -0.0009860762 0.1071763100
-0.3730169913 0.4172641512 0.4525306388 -0.0042288443 -0.0002509400 0.1075712664
-0.1782548955 0.5836799823 0.5051068279 -0.0039037436 0.0027093812 0.1046572040
0.2571358318 0.4632930112 0.4282184200 -0.0040701904 0.0003817139 0.1021654658
0.1170992547 1.0208197231 -0.4545930500 -0.0040727681 -0.0011509018 0.1023935993
0.4182560966 0.5644246405 -0.1521769303 -0.0013623977 0.0000000000 0.1048630868
0.1969468994 1.0413790893 -0.3844913528 -0.0040659533 0.0012075067 0.1073046588
-0.3074275280 1.0834320586 -0.4022413976 -0.0041837435 0.0009742942 0.1074036969
0.3964577333 0.4708860269 0.1328773515 -0.0063944491 0.0001103951 0.1048389914
-0.1426794379 0.5129675167 0.1457876066 -0.0039511986 0.0026414330 0.1042151223
-0.2872118185 0.6105671735 -0.1226795731 -0.0041698716 0.0003034932 0.1075682528
-0.2926670415 0.5260985564 -0.1046384492 -0.0041681250 0.0011133296 0.1073423836
-0.3322520600 0.5418920265 0.2006128010 -0.0039312122 0.0026510407 0.1042541577
0.1704275637 1.3571538400 -0.4441900509 -0.0040871931 -0.0000873869 0.1021413023
-0.4198197286 0.7154902140 -0.2778036530 -0.0060797842 -0.0008834768 0.1035416755
-0.3204917122 0.9647984361 -0.4403883264 -0.0040408525 0.0013645721 0.1072014517
-0.1590997227 0.5043612694 0.1081581219 -0.0039352149 0.0026326973 0.1041820160
-0.4995434851 0.0490463175 0.0379650950 -0.0056911603 0.0020604113 0.1048630868
-0.0391885118 0.5610344446 0.4093611164 -0.0040512040 0.0026934385 0.1044607708
-0.1435647894 0.4930131395 -0.0835878488 -0.0041003103 0.0008461062 0.1073922583
0.3480482931 0.5881115596 -0.1236524994 -0.0039557463 0.0003386457 0.1075627405
0.2138950670 0.4655149728 0.1310344689 -0.0038443621 -0.0026358799 0.1055085064
-0.2824930696 0.6887823470 -0.1425597159 -0.0041632313 0.0010069618 0.1073922201
-0.1711961059 1.3080211274 -0.4443835086 -0.0040933076 0.0001740599 0.1075820729
0.3704066182 1.4680996157 -0.3819083339 -0.0038152776 0.0004577929 0.1075111629
0.4454497102 0.2669030981 0.4353237137 -0.0040871931 -0.0003613651 0.1075638086
-0.3964577333 0.7876653634 -0.3347665394 -0.0018500135 -0.0008721907 0.1038626291
0.3284015018 1.3436989992 -0.3665640218 -0.0040483103 0.0002216512 0.1075777705
-0.2050826808 1.3981001119 -0.5369450624 -0.0040910078 -0.0027076183 0.1050712666
-0.1413194925 1.5059921330 -0.4026245311 -0.0040817572 0.0025332477 0.1057912448
-0.4991662971 0.0904221016 0.4045905827 -0.0064852420 -0.0001863242 0.1057783347
-0.3937329378 0.5331739346 0.3823676963 -0.0018810516 0.0006307602 0.1048054873
0.3822781622 1.4006685776 -0.4454269254 -0.0040027299 -0.0000169755 0.1021405584
0.2231393796 1.2503702656 -0.4362502014 -0.0040871931 -0.0003223406 0.1021583322
-0.3431902199 1.3793087701 -0.3674001798 -0.0041173975 0.0002670599 0.1075737759
0.1140300343 1.3376043811 -0.5191150638 -0.0040777490 -0.0000562507 0.1021396865
-0.1339693923 0.0347154250 -0.3747009067 -0.0040881850 0.0000223161 0.1075867868
-0.2627368668 1.0400694954 -0.4603710577 -0.0041655473 -0.0010180353 0.1023377873
0.0119704813 0.5603753656 0.5680783078 -0.0040676400 0.0001235014 0.1075613209
0.4726656480 0.0502395218 -0.2056032284 -0.0040846945 0.0027190189 0.1050388960
0.1626997142 0.3970171528 -0.0514660012 -0.0041088253 -0.0004672724 0.1022019644
-0.0110301653 1.2302482918 -0.5111113942 -0.0040877272 -0.0003142752 0.1021564848
-0.2446222143 1.0420239502 -0.3835485518 -0.0041252422 0.0011429454 0.1073356098
0.0173821185 1.4117729854 -0.5193938785 -0.0041040187 0.0000000000 0.1021383459
0.4468738082 0.7361968472 0.3822901350 -0.0041240460 0.0024636238 0.1060142502
0.3674451226 0.4250760688 -0.0602872648 -0.0036494002 -0.0003069782 0.1022027955
-0.4372364493 0.7574931261 0.2300955970 -0.0039999779 0.0027101905 0.1051191876
0.4209808920 0.5424929393 0.4629839267 -0.0018034249 0.0004819591 0.1048048334
-0.3886975377 0.7245476165 -0.1649977222 -0.0045674220 0.0013121171 0.1071622392
0.4868707504 0.0241470825 0.3411681601 -0.0040728416 -0.0022572151 0.1063833592
0.0263493521 0.7770294460 -0.1935997580 -0.0040855528 0.0016950407 0.1069956725
-0.3229829709 0.5291760085 -0.1062012257 -0.0041933076 0.0010481525 0.1073680920
0.3058246072 0.4332527820 -0.0204715978 -0.0041646672 0.0026588227 0.1043118743
0.3816802004 0.7759956750 -0.1997658474 -0.0036625746 0.0015879890 0.1069940267
-0.2799673668 0.5093493971 0.2856368568 -0.0043844438 -0.0026364930 0.1054813865
-0.4548250091 0.4261876300 0.4563616957 -0.0040871931 -0.0001635994 0.1075829204
0.0146878598 0.0277189460 -0.4373711604 -0.0040898689 0.0000000000 0.1021382996
0.0608662702 1.1672071280 -0.3615224282 -0.0040844820 -0.0000958011 0.1075811165
0.1214003497 1.3883852135 -0.3729207434 -0.0041289751 0.0002839428 0.1075724680
-0.4358987491 0.7035420433 0.4273268833 -0.0039056264 0.0006952070 0.1074872255
0.3659428175 0.8357866728 -0.2456070290 -0.0039377108 0.0017670326 0.1069317896
-0.1717942748 1.0757832063 -0.4766891054 -0.0041090024 -0.0009384032 0.1023073486
-0.3748562364 0.4237446874 -0.0089362472 -0.0041328089 0.0006349400 0.1075000675
0.2131905657 0.7852434971 -0.2940143493 -0.0040734302 -0.0017363759 0.1027634030
-0.2420735579 1.4019767601 -0.5597981532 -0.0042502967 -0.0009750871 0.1028499398
0.4182560966 1.3537295542 -0.4979033953 -0.0014575912 -0.0000040381 0.1047258034
0.0211311400 0.4883245323 0.2896897910 -0.0040558117 -0.0026523131 0.1054814192
-0.2437274324 1.1661354387 -0.5003799346 -0.0041548334 -0.0005089809 0.1021877355
0.3130411842 0.8987246404 -0.3822447344 -0.0039817217 -0.0015643595 0.1026358690
-0.1186617832 0.0157538271 -0.3752958331 -0.0040814002 -0.0013637765 0.1070948005
0.4896825240 0.3847929931 0.4154897644 -0.0039941005 0.0001409482 0.1021443595
0.1106128874 0.9920121287 -0.3571940035 -0.0040625719 0.0013461634 0.1072316288
-0.4984739565 0.0136239771 -0.4197991482 -0.0040871931 -0.0026065202 0.1045299506
0.3039960678 1.3164083038 -0.4428318521 -0.0040871931 -0.0001805150 0.1021443023
-0.3414068740 0.7085441001 -0.2304919321 -0.0042235255 -0.0014667846 0.1025716837
0.1155957317 0.0343079264 -0.3747009067 -0.0040871931 0.0000000000 0.1075878822
0.3965311174 0.5517603854 0.2428351137 -0.0037385092 0.0026264930 0.1043256999
-0.2360523676 1.4008149291 -0.4428207921 -0.0041122803 -0.0000005695 0.1021385339
0.2610707280 0.5313974307 0.1823721268 -0.0042736563 0.0026486156 0.1042520841
-0.2643356514 0.5558994259 0.2961497878 -0.0039160160 0.0026652859 0.1043241768
0.0874174615 0.5152084374 0.4053370568 -0.0039844711 -0.0026784385 0.1053381331
0.0181661320 1.3637573626 -0.4480997917 -0.0040688035 0.0001093678 0.1075855988
-0.2297799022 1.4945156953 -0.3865497913 -0.0040573130 0.0013025884 0.1071360376
-0.2473179662 1.1511180476 -0.3610769296 -0.0040494820 -0.0004081008 0.1075480621
0.4999999591 0.0333907275 0.2498709850 -0.0013685312 0.0000833624 0.1048630868
0.3494639088 0.4726529259 0.0951887116 -0.0037440651 -0.0026196973 0.1055289750
0.3697291605 0.5511343609 0.2319729674 -0.0041122367 0.0026524657 0.1043036345
-0.4590985074 0.2666765041 0.4380161413 -0.0040871931 -0.0003786866 0.1075614163
-0.0825313938 0.4625368505 -0.0417824489 -0.0040084929 0.0026489426 0.1042392531
-0.2630968014 1.2833395599 -0.5145997100 -0.0041656999 -0.0001703787 0.1021456211
-0.1260103739 1.2149204838 -0.4346041634 -0.0040939888 0.0003826049 0.1075602582
-0.1947771176 0.5315303952 0.4617839296 -0.0043131631 -0.0026931932 0.1052052067
0.1202529275 0.5633124526 0.5680783078 -0.0040542667 0.0000000000 0.1075876506
0.0038024139 0.5024626946 0.3690104358 -0.0040785991 -0.0026790516 0.1053586045
0.1638167877 0.6654290846 -0.1335273052 -0.0040569642 0.0008238255 0.1074569176
0.3292414009 1.4541027749 -0.4432004733 -0.0041070487 0.0000689400 0.1021394276
0.2798001215 1.4579370116 -0.5178379004 -0.0040082095 0.0001543951 0.1021448227
-0.4209809329 0.2579337582 0.4211422735 -0.0013623977 0.0000000000 0.1048630868
-0.3979482726 0.5695406156 0.3350299072 -0.0043829179 0.0026403540 0.1043181631
-0.4411688086 0.5040919751 0.4618112865 -0.0039889261 -0.0001407248 0.1075794599
-0.1021470434 1.0683810734 -0.4739132964 -0.0041021059 -0.0009758773 0.1023196020
-0.3088275115 0.8713649288 -0.3588202922 -0.0042047544 -0.0016751252 0.1027182614
0.0918480906 0.5040290269 0.3405322801 -0.0039723348 -0.0026723213 0.1053679178
-0.4917510252 0.7956025099 -0.2329360409 -0.0041933294 0.0026791823 0.1053402938
0.4467790534 0.0136239771 -0.3245082269 -0.0040871931 -0.0027247954 0.1048630868
-0.4996226049 0.7493187398 -0.1240002487 -0.0055191985 -0.0022199153 0.1046925146
0.0695552722 0.7688152287 -0.2801396637 -0.0040804847 -0.0016901007 0.1027259589
-0.0639379893 1.3905826438 -0.5191150638 -0.0041067027 0.0000000000 0.1021383622
0.0774892334 1.0566962515 -0.4698939970 -0.0040826100 -0.0009565176 0.1023119508
-0.2002798419 1.1626082047 -0.5006925939 -0.0041294765 -0.0005168310 0.1021882995
-0.4177436580 1.2922131069 -0.4549943525 -0.0050850323 0.0002032806 0.1073795852
0.4972751637 0.0169249060 -0.0468516310 -0.0013623977 0.0000000000 0.1048630868
-0.4209808920 0.0227191671 0.3372003757 -0.0021928200 -0.0013808173 0.1053647216
-0.3276885999 0.5728664082 -0.1188827750 -0.0042082476 0.0005155149 0.1075322037
-0.4209808920 0.4519677887 0.0233241616 -0.0063981575 0.0011122642 0.1045989124
-0.3809609171 1.2282787852 -0.5056664600 -0.0044616318 -0.0003802234 0.1022183758
-0.3408237569 0.4162780668 0.4521342846 -0.0042054165 -0.0002371471 0.1075732991
0.1184592601 0.6803542577 -0.2171671648 -0.0040871713 -0.0012075231 0.1024237764
0.4130876093 0.5329638474 -0.2193875679 -0.0040851986 -0.0001453951 0.1024584303
-0.2926558589 0.5956960494 0.5471839553 -0.0039090814 0.0026842859 0.1051329097
0.3629679785 0.4011062179 -0.0276208179 -0.0033819752 -0.0024522205 0.1056422448
-0.2407377078 0.6120674404 -0.1220658347 -0.0041260078 0.0003020735 0.1075689285
-0.0117295222 0.4293031257 0.4517925189 -0.0040858089 -0.0002407493 0.1075763400
-0.1285029622 1.2887808347 -0.3637485888 -0.0040471931 0.0001450054 0.1075834272
0.3316192971 0.5631087251 -0.1198873417 -0.0039501850 0.0005901580 0.1075178577
-0.3997571226 0.5108775631 0.4017792860 -0.0028854684 -0.0016130026 0.1052119505
0.3987682535 1.0887386249 -0.5208230501 -0.0054286808 -0.0004394768 0.1034154575
0.2280797116 1.1446716857 -0.4963144444 -0.0040507626 -0.0006254168 0.1022116565
0.1388261358 0.4290012756 0.0123583696 -0.0039186155 -0.0026410407 0.1055018497
0.1766745605 0.7214918675 -0.2439925495 -0.0040775174 -0.0016338337 0.1026826973
0.0806843122 0.5717346808 0.4588560306 -0.0041662258 0.0026910842 0.1044553920
-0.1220148810 0.9328543488 -0.4767163398 -0.0042180378 -0.0012091062 0.1024318036
