-0.0085482843 0.7013933995 -0.8205454813 0.0029951811 0.0009894729 -0.2319428209
-0.4759373863 0.2032115958 -0.2975180047 0.0016386269 0.0000906609 -0.2328723141
0.4759421162 0.2362285203 0.6728806407 0.0043522723 0.0000813003 -0.2328711993
0.4806246073 0.1360937883 -0.9124844120 0.0043207958 0.0002503616 -0.2327478124
-0.4046477725 0.5169380337 -0.6320430515 0.0029954585 0.0008504810 -0.2318144879
0.2621296598 0.4667863274 0.4201576194 0.0029932288 0.0012752906 -0.2324112723
-0.4757349953 0.1980931630 -0.0064969534 0.0016386731 0.0000907398 -0.2328659813
0.4695933249 0.3384734162 0.3981249283 0.0043524844 0.0000776989 -0.2328757892
0.4757347044 0.1490501454 -0.0052309554 0.0037766685 0.0010755671 -0.2331215052
-0.1710809080 0.4784764376 0.3893160007 0.0029988642 0.0013166443 -0.2325417276
-0.4787073324 0.1399529108 0.6390487183 0.0022192692 -0.0010388970 -0.2330984131
0.4774322879 0.1978256750 -0.2899895191 0.0043527156 0.0000735440 -0.2328778503
0.1970359031 0.9076204399 -0.8756686193 0.0029991578 0.0003041105 -0.2315498400
-0.3938765930 0.3788899401 -0.1917113956 0.0029945489 0.0012874627 -0.2333102992
-0.4751203545 0.1865178988 0.5894138189 0.0016379716 0.0000791563 -0.2328728240
0.1404690631 0.6134579698 -0.7018484253 0.0029988030 0.0009979988 -0.2319505065
-0.0239855165 0.4896077116 0.1668562644 0.0029951852 0.0013382790 -0.2331037956
0.4553356594 0.5604161186 -0.8480943744 0.0043525470 0.0000766955 -0.2328711028
-0.2535477271 0.3550693403 -0.2702444524 0.0029946210 0.0013209867 -0.2331911120
0.1285158520 0.5768782158 -0.6698552373 0.0029967147 0.0007668776 -0.2317511977
0.4688911393 0.3315364765 -0.7247438294 0.0043522696 0.0000814716 -0.2328724610
0.4758718310 0.3480969053 -0.4428971024 0.0042747842 -0.0002671345 -0.2330149497
-0.4421792336 0.2482646183 0.7836121873 0.0030043935 0.0010740022 -0.2320405991
-0.3994487232 0.3080568870 0.7065968864 0.0030041134 0.0011065488 -0.2320836618
0.4767041714 0.2134327978 0.4732134932 0.0043502276 0.0001091536 -0.2328638577
0.3234467868 0.3437712538 -0.3790681839 0.0029955400 0.0013534517 -0.2328019419
0.1387153637 1.1936939267 -0.9898700149 0.0029952314 0.0008885501 -0.2328434561
-0.3484060930 0.4155855355 -0.0869702276 0.0029941370 0.0012827260 -0.2333240103
-0.4803161258 0.1843377611 0.1652402925 0.0020189312 -0.0006668276 -0.2327117433
0.3658863241 0.9789965204 -0.9000019160 0.0029970940 0.0005004364 -0.2316094935
0.2695949600 0.3466331633 -0.3110245051 0.0029951566 0.0013436574 -0.2330793276
0.1495683207 0.9728119491 -0.8972530063 0.0029999776 0.0004870162 -0.2316043258
0.4741756165 0.2567326185 -0.4442957676 0.0043520562 0.0000847998 -0.2328762324
-0.4823488682 0.1141370028 -0.7655287262 0.0016380355 0.0000811848 -0.2328693802
0.4763888024 0.1865363630 0.2491908513 0.0036901774 -0.0011464750 -0.2328423358
0.1150380098 1.1043332157 -0.9424951015 0.0029986684 0.0002730133 -0.2315419791
0.1288585523 0.3639777619 -0.2387333958 0.0029944483 0.0013033981 -0.2332576203
0.4995818170 0.0422359418 -0.6046850148 0.0043232348 -0.0000856781 -0.2328451542
0.2555357018 0.9131507066 -0.8768975665 0.0029992965 0.0003252693 -0.2315546393
0.2469247044 0.3452520691 -0.3275975778 0.0029951634 0.0013501167 -0.2330151903
-0.4204691729 0.4840647072 0.1348902105 0.0029991891 0.0013265405 -0.2331607965
0.0981788816 0.4728345198 0.0885755868 0.0029928970 0.0013137484 -0.2332218788
-0.0276819322 0.1352098947 0.9162075594 0.0030010993 0.0010210338 -0.2319757970
0.1517122682 1.0957330675 -0.8609908619 0.0031549104 0.0005115712 -0.2316283057
0.2582519182 0.4015787210 0.5599224650 0.0029938080 0.0011820261 -0.2322057313
-0.4764749781 0.1601504268 0.6998170099 0.0016389546 0.0000929314 -0.2328643254
-0.3653055825 0.9839562096 -0.9006698720 0.0029931758 0.0005086794 -0.2316127646
0.2098821249 0.2206891090 0.8155526406 0.0029935524 0.0010503717 -0.2320103380
0.4719781567 0.3018534790 0.6441982687 0.0043517231 0.0000829794 -0.2328729300
0.3505670011 0.6817761180 -0.7968754922 0.0029941125 0.0010861594 -0.2320559458
0.2083452957 0.3713971742 0.6107673104 0.0029937726 0.0011498684 -0.2321490390
0.3668864111 0.3441638159 0.6512960457 0.0029933552 0.0011329256 -0.2321232019
-0.4713500317 0.2765197214 -0.3611943112 0.0016380573 0.0000815736 -0.2328718451
-0.2197384998 0.9563571541 -0.8897365065 0.0029950356 0.0004496596 -0.2315906037
0.3956837109 0.4954423947 0.2115127630 0.0029949677 0.0013552477 -0.2329384037
0.4562451726 0.5390813386 -0.9640073367 0.0043525456 0.0000759627 -0.2328642696
-0.2662059748 1.1053835887 -0.8662144308 0.0028036857 0.0007110826 -0.2317627132
-0.4762824617 0.1472273966 0.8295425680 0.0016389301 0.0000931979 -0.2328660805
-0.4739552196 0.2209940230 0.2419652009 0.0016383278 0.0000854497 -0.2328684176
0.4821188877 0.1207916923 -0.6160853130 0.0043520466 0.0000849399 -0.2328707928
0.4589184458 0.4986294444 -0.6647022853 0.0043520222 0.0000819217 -0.2328735948
0.4323346215 0.3657553801 -0.7375660482 0.0023922080 0.0002446080 -0.2340485974
0.1238669366 0.4455488430 0.0000492079 0.0029919821 0.0012933850 -0.2332923407
0.0792710036 0.3607123363 0.6265032407 0.0029947365 0.0011383394 -0.2321315578
-0.3576416670 0.4902536359 0.1701854194 0.0029969988 0.0013417567 -0.2330853219
-0.4697184602 0.3211033218 -0.8390877450 0.0016382979 0.0000856006 -0.2328719702
-0.1218492949 0.0085730997 1.0019592622 0.0029978948 -0.0009464334 -0.2338421537
-0.4749902405 0.3356198462 -0.3871897804 0.0017318316 -0.0002951918 -0.2329220808
-0.4766022289 0.1985841614 -0.7117557728 0.0016381103 0.0000824125 -0.2328714862
0.2659411216 0.3595337159 -0.2536193984 0.0029949377 0.0013116710 -0.2332300443
-0.4649914081 0.3667860871 -0.0320234763 0.0016381266 0.0000828040 -0.2328727410
0.1896332542 0.4899206334 0.1669611096 0.0029927217 0.0013419457 -0.2330780305
-0.4719283261 0.2946504204 -0.9366024563 0.0016386133 0.0000898914 -0.2328832803
0.1187595829 0.9242083359 -0.8792432728 0.0029990083 0.0003679935 -0.2315650508
-0.4836073165 0.0931337625 -0.7169185164 0.0016382965 0.0000855408 -0.2328700994
-0.4673075304 0.3227531698 0.2866898692 0.0016380749 0.0000818564 -0.2328691287
-0.3064868255 0.0705756244 0.9885654707 0.0030008178 0.0010077794 -0.2319609656
0.3619564705 0.2457091985 0.7848478562 0.0029909515 0.0010692832 -0.2320343016
-0.3386335907 0.3739303339 0.6083319860 0.0030007866 0.0011567899 -0.2321600147
0.4027058515 1.1759184073 -0.9681390415 0.0016624614 0.0000830392 -0.2328845991
-0.2268070884 0.4531580308 0.0231345548 0.0029990368 0.0012982930 -0.2332761987
0.4474056249 0.0251645781 -0.7915784853 0.0041249783 -0.0004044433 -0.2322794956
-0.2588464552 1.0366628993 -0.8564206024 0.0029619575 -0.0002760573 -0.2315456988
-0.0058442143 0.3438377417 -0.3445107390 0.0029949092 0.0013561423 -0.2329192054
-0.4636316821 0.1628948459 0.6574078425 0.0038751075 0.0009838267 -0.2326396879
-0.4737410453 0.2378128552 0.8021902985 0.0023094856 0.0008699513 -0.2322112824
-0.2296913410 0.2710504038 0.7521182543 0.0029995127 0.0010798592 -0.2320481528
-0.4395081600 0.5978837687 -0.6805593673 0.0033892211 0.0008600904 -0.2318999023
0.4715396020 0.3698998239 -0.2273109530 0.0040788104 0.0007386912 -0.2330836945
0.2475901493 0.3508110061 0.6411698783 0.0029935755 0.0011347488 -0.2321263384
-0.4585354890 0.5135599195 -0.9623817392 0.0016377989 0.0000768274 -0.2328718560
0.0982288971 0.9152860563 -0.8769300954 0.0029991782 0.0003414209 -0.2315583196
-0.2418035539 0.7454744657 -0.8523709240 0.0029990681 0.0005415427 -0.2316276721
0.4342900267 0.5688495574 -0.9431304866 0.0016686338 -0.0000660977 -0.2331294097
-0.1501334830 0.1573807716 0.8914525937 0.0029983475 0.0010278411 -0.2319837233
0.4607016654 0.1389169871 0.0695660151 0.0041527487 -0.0006047868 -0.2327067265
0.3602451540 0.6657350670 -0.7738032569 0.0029941234 0.0011330806 -0.2321221673
-0.4656133090 0.4811390058 0.1404194819 0.0017365751 0.0002093233 -0.2329067708
-0.4586810789 0.5016602833 -0.7550474008 0.0016379254 0.0000782848 -0.2328749068
0.2827377141 0.5549171368 -0.6572598054 0.0029975685 0.0006482546 -0.2316784843
-0.3541971274 0.3656511154 -0.2322391941 0.0029944687 0.0013003010 -0.2332677259
0.4770574626 0.2085131667 -0.1062229839 0.0043512867 0.0000965029 -0.2328721605
0.4797930133 0.1775373458 0.0283953811 0.0042751458 0.0004473157 -0.2329512257
0.4751723019 0.2370470857 0.0224691711 0.0043521880 0.0000825036 -0.2328789094
-0.4636676533 0.3720827623 0.4886128534 0.0016378288 0.0000777546 -0.2328695692
-0.2337002965 0.4924255795 0.3157284773 0.0029969118 0.0013456913 -0.2327085850
0.4790138222 0.1755374844 0.6056590023 0.0043513410 0.0000895338 -0.2328760040
-0.4293428251 0.6679954677 -0.9421307312 0.0043170325 -0.0000800332 -0.2331464966
0.4874730274 0.0396783671 1.0137594887 0.0031389016 0.0002543764 -0.2315880668
0.3974806225 0.9685141985 -0.8957826243 0.0029964251 0.0004891018 -0.2316050518
-0.1081722581 1.0894586279 -0.8579865779 0.0030330598 0.0004570937 -0.2315967340
0.4199743990 0.3847456583 -0.1760722239 0.0029950846 0.0012881928 -0.2333079906
-0.4263296196 1.0586024864 -0.9810576014 0.0016382775 0.0000831874 -0.2328546181
0.4645693667 0.4081611445 -0.8911536971 0.0043515015 0.0000914100 -0.2328902970
-0.3971578262 0.3451228470 -0.4006854832 0.0029967106 0.0013330814 -0.2326196507
0.4434649411 0.5874522318 -0.9823238088 0.0021729327 -0.0000078080 -0.2336708233
0.4473854191 0.4222914342 -0.9928530980 0.0017026676 -0.0000296411 -0.2332866224
-0.2986823205 0.1895158351 0.8538281931 0.0030018457 0.0010424183 -0.2320011406
-0.1517712160 0.3548398561 -0.4358833027 0.0029984576 0.0012553145 -0.2323741794
-0.4801278838 0.1405145886 -0.3125985917 0.0016381334 0.0000827659 -0.2328791350
-0.0702495305 0.7880896744 -0.8628028756 0.0029955876 0.0001116852 -0.2315191194
0.3717386814 0.9205749317 -0.8794529659 0.0029996350 0.0003779985 -0.2315689935
-0.4608460520 0.6857607808 -0.9784072734 0.0017199191 0.0001114513 -0.2331029676
-0.3580017628 0.5138617215 -0.6292744322 0.0029959030 0.0008630651 -0.2318254038
-0.2754140828 1.1813010516 -0.9531555000 0.0029971062 0.0006800806 -0.2316998213
0.2889228034 0.4974567992 0.2789933011 0.0029944932 0.0013557425 -0.2327835471
-0.2304466963 0.4686261821 0.0740153104 0.0029985161 0.0013136546 -0.2332205111
-0.4689582295 0.2792932976 0.5730876451 0.0016379730 0.0000801080 -0.2328686256
-0.4596939852 0.0664310786 0.9945503063 0.0030386639 0.0010039618 -0.2319577924
-0.0613992424 0.9362780843 -0.8830434692 0.0029962416 0.0004148616 -0.2315790339
-0.2702584131 0.3267642000 0.6772051107 0.0030014935 0.0011158590 -0.2320980079
0.0206229734 0.4975440123 0.2819151849 0.0029954163 0.0013568982 -0.2327959150
0.3680939507 0.5155198465 -0.6321262810 0.0029951471 0.0008608830 -0.2318238213
-0.3020196492 0.9626147501 -0.8919826767 0.0029946169 0.0004737143 -0.2315992832
0.0875683845 0.4666150962 -0.5832840147 0.0029967867 0.0010205919 -0.2319754218
0.4641779452 0.4119571507 -0.7091225794 0.0043523648 0.0000798443 -0.2328737145
-0.1244813164 0.5639080823 -0.6923262357 0.0030113667 0.0002702031 -0.2342006167
-0.2060560587 0.7179115908 -0.8361978081 0.0029977126 0.0008363511 -0.2318037189
-0.3473677942 0.4545285028 0.0256922764 0.0029989988 0.0012959695 -0.2332831352
0.4484718885 0.3603205423 -0.9755996117 0.0016778135 -0.0000511793 -0.2331725336
0.2254317206 1.0907411813 -0.9399445150 0.0030013671 0.0003136560 -0.2315509440
-0.1476716241 0.3593024071 -0.2531994642 0.0029943830 0.0013102856 -0.2332350108
0.4787342177 0.1726845466 -0.5793664420 0.0043522601 0.0000813425 -0.2328768088
0.3664331269 0.4560092161 -0.5701756983 0.0029943980 0.0010310809 -0.2319876306
-0.0949058520 1.0007717217 -0.8751289528 0.0029298135 -0.0009170696 -0.2318777442
0.4098931243 1.0121700704 -0.9699809709 0.0016749421 -0.0000829481 -0.2331636285
-0.4100378005 0.9371719544 -0.8833414536 0.0030305446 0.0004179641 -0.2315850893
0.4681635625 0.3463222537 -0.5654566118 0.0043524871 0.0000775588 -0.2328768959
-0.2348440238 0.4605039629 0.0472770998 0.0029990123 0.0013051696 -0.2332517035
0.4784848187 0.1817116007 -0.8852518423 0.0043520861 0.0000839651 -0.2328777510
-0.2929718183 0.4449691374 -0.0034848070 0.0029982727 0.0012913565 -0.2332984465
-0.4184337739 0.2661532830 0.7604126169 0.0030040971 0.0010832772 -0.2320528338
0.4684933701 0.3397225910 -0.7456459878 0.0043522791 0.0000813058 -0.2328716602
-0.4663535406 0.3674647469 -0.5654460739 0.0016376779 0.0000751143 -0.2328755009
-0.4110863898 0.9728628986 -0.9597134038 0.0043129756 -0.0000899308 -0.2331616381
-0.0456533642 0.4792198220 0.1133189758 0.0029956923 0.0013202839 -0.2331935891
-0.4562430979 0.1342792744 0.0673031250 0.0017479818 -0.0005191345 -0.2327283163
-0.4682222302 0.3341108785 -0.4487570950 0.0016381456 0.0000248664 -0.2328958848
0.2737288645 0.4146107580 -0.0905747956 0.0029937563 0.0012834099 -0.2333220784
-0.4642763189 0.3693189981 0.5764350970 0.0016399131 -0.0000294929 -0.2329423478
0.2628259953 0.4795698775 0.3860800748 0.0029924810 0.0013034933 -0.2324919432
0.0005646247 0.8292591880 -0.8645005013 0.0029960336 0.0000917186 -0.2315173832
-0.4594612652 0.4432934196 0.3826981851 0.0016398954 0.0001073318 -0.2328638196
-0.0548578776 0.6282628936 -0.7177348412 0.0029975073 0.0010785935 -0.2320461815
0.4445565972 0.3805498503 -0.9511367394 0.0016537248 -0.0000630836 -0.2330641073
-0.4650716086 0.0261557831 -0.4503642706 0.0018994436 -0.0007770335 -0.2327483168
0.4769104629 0.2139085065 0.6697299361 0.0043518713 0.0000876644 -0.2328691572
-0.4331046017 0.1821963329 0.8636345525 0.0030132293 0.0010406182 -0.2319992862
0.3705883168 0.7548637623 -0.8576415432 0.0029977235 0.0004567075 -0.2315975987
-0.1385446301 0.2174463377 0.8207302387 0.0029971865 0.0010484221 -0.2320080023
-0.2046923084 0.3601378174 -0.2502827630 0.0029943871 0.0013081403 -0.2332425115
-0.4657878181 0.3415048982 0.4756176184 0.0016378601 0.0000783079 -0.2328693027
0.4424224521 0.7729730320 -0.8852144177 0.0043514960 0.0000908703 -0.2328883447
0.4698307341 0.3198123867 -0.9055283243 0.0043527387 0.0000724197 -0.2328624872
0.3340796365 1.0808100197 -0.9381548647 0.0030017138 0.0003407384 -0.2315576643
-0.0704760265 0.1904391233 0.8522439207 0.0029981885 0.0010381846 -0.2319958941
-0.1850540325 0.2301949730 0.8050293266 0.0029978839 0.0010563959 -0.2320178265
-0.0426459477 0.4630491547 0.0564238224 0.0029961083 0.0013036727 -0.2332577780
-0.3674751197 0.7661583031 -0.8599311949 0.0029944279 0.0002836695 -0.2315449782
0.4760193705 0.1599711878 0.5123108902 0.0033073756 -0.0012083948 -0.2330746276
0.4514286247 0.6216996386 -0.9595835386 0.0043510528 0.0000899431 -0.2328966462
0.4475713798 0.4747928711 0.2163722104 0.0017066430 0.0000293284 -0.2328587117
-0.4723420280 0.2307850929 0.5218291385 0.0016383863 0.0000868718 -0.2328713937
0.4474666161 0.6862039825 -0.9432353739 0.0043520902 0.0000810842 -0.2328752916
-0.3308985607 0.4471093829 0.4754399565 0.0029983285 0.0012418848 -0.2323230015
0.3761693263 0.4482165978 0.4712243574 0.0029932628 0.0012423919 -0.2323250653
0.4678257064 0.5730188119 -0.9827373856 0.0042851481 0.0001490187 -0.2330421096
0.4863647738 0.0719651616 0.9219721639 0.0043503486 0.0000643616 -0.2328992076
0.4826836966 0.1139943795 -0.4028155116 0.0043525633 0.0000764481 -0.2328756750
-0.0134332697 0.3891775050 -0.1625633171 0.0029941533 0.0012875076 -0.2333101007
0.4723613623 0.2790242325 -0.7044252758 0.0043520983 0.0000842465 -0.2328740992
0.4717520754 0.2995036030 -0.1690167727 0.0043527468 0.0000730519 -0.2328737186
-0.1402945132 0.2354983074 0.7981610747 0.0029972109 0.0010573286 -0.2320191140
-0.4682960421 0.1875370510 0.2788842222 0.0025714320 -0.0012363568 -0.2329019335
-0.4470193072 0.4233943339 -0.7124815659 0.0016387887 -0.0000064511 -0.2328429816
-0.0558264011 1.0687195270 -0.8535432374 0.0029059192 0.0001121175 -0.2315562667
0.0652754858 0.3454386728 -0.3253585235 0.0029947501 0.0013516625 -0.2329986948
0.4731251605 0.2650254884 -0.5792625077 0.0043520249 0.0000851098 -0.2328809106
0.3344536311 0.4289332732 -0.0507899954 0.0029920256 0.0012857986 -0.2333150930
-0.0094304390 0.4408696284 -0.0136285671 0.0029950887 0.0012901193 -0.2333022968
-0.4093596383 0.6545989381 -0.7547223218 0.0029988030 0.0011350424 -0.2321251012
-0.4290328086 0.9999713704 -0.9323039594 0.0016380396 0.0000810733 -0.2328715840
-0.3485993559 0.0935622972 0.9636067872 0.0030068624 0.0010124318 -0.2319662869
-0.4718785376 0.0323763297 -0.4746534632 0.0024431018 -0.0012187505 -0.2326719530
0.1654579316 0.4548037512 0.4532515509 0.0029951050 0.0012522950 -0.2323526168
-0.0300551356 0.9236313698 -0.8790936995 0.0029967935 0.0003867337 -0.2315706998
0.0804083410 0.4660168041 0.4231546856 0.0029942634 0.0012921777 -0.2324529170
0.0131569554 0.5956897105 -0.6841134847 0.0029953565 0.0008991900 -0.2318543203
-0.2938309625 0.6225316065 -0.7110160388 0.0029956379 0.0010454556 -0.2320055945
0.4845178670 0.0828470419 -0.4309000048 0.0042553112 0.0004919446 -0.2329463843
0.4756035531 0.2321305666 -0.5429594963 0.0043521459 0.0000833927 -0.2328768496
-0.4688357087 0.1916109595 0.2149819065 0.0021096642 -0.0010027735 -0.2326682170
0.4621091881 0.2526122402 0.7436160244 0.0016748986 -0.0000819475 -0.2328713937
0.2975919913 0.3499425272 -0.4186437777 0.0029939643 0.0013015206 -0.2325181079
0.4762314700 0.2199529847 -0.4959751954 0.0043522166 0.0000822344 -0.2328754710
-0.4655086283 0.3578543885 0.0536807412 0.0016378615 0.0000783678 -0.2328716194
0.0203569809 0.1570050544 0.8905353229 0.0030009946 0.0010270498 -0.2319828096
0.1747367599 0.8841284458 -0.8708028227 0.0029986711 0.0002245817 -0.2315334750
-0.1138202436 0.3437017775 -0.3769777269 0.0029951308 0.0013545013 -0.2328106567
-0.4624338932 0.4006858040 0.2234034791 0.0016379308 0.0000792610 -0.2328691627
-0.1759646290 0.4958853054 0.2277086556 0.0029952912 0.0013551974 -0.2329096613
0.1309909042 0.4685896290 0.0746282286 0.0029920813 0.0013114182 -0.2332296093
0.4366902092 0.8670005924 -0.8940452519 0.0043519501 0.0000857420 -0.2328852191
0.4701661430 0.3149207204 -0.9361274736 0.0043517720 0.0000875761 -0.2328899531
0.4640547595 0.4503875041 0.0606730285 0.0041705902 -0.0005510977 -0.2326843577
-0.0264249780 1.0201186520 -0.9087419289 0.0029850211 -0.0005334330 -0.2341200994
-0.4616482292 0.4128453378 0.3032898788 0.0016377935 0.0000770476 -0.2328747083
0.4520148861 0.6190741620 -0.7973020556 0.0043519175 0.0000867658 -0.2328801996
0.4150945786 0.4931701264 0.1832650450 0.0029944334 0.0013510602 -0.2330094802
-0.4144592751 0.8850604869 -0.9328401822 0.0043350494 -0.0001020051 -0.2330608144
0.3304973477 0.3750355979 -0.4718388935 0.0029929800 0.0011275907 -0.2321245248
0.4320765498 0.9480412995 -0.9261560241 0.0043515545 0.0000902571 -0.2328745560
-0.4015968106 0.1569731170 0.8930299785 0.0030152224 0.0010286568 -0.2319850502
-0.0866627298 0.3830845449 -0.4837238845 0.0029990477 0.0010730002 -0.2320388262
-0.1446221986 0.9377215375 -0.8835245931 0.0029953225 0.0003990744 -0.2315744046
-0.0777492873 0.3760538989 -0.1997467961 0.0029943123 0.0012886537 -0.2333067697
0.4137741846 0.8933638118 -0.8726061651 0.0029067907 0.0002599969 -0.2315494893
-0.3231588224 0.4318303464 -0.0419653852 0.0029968425 0.0012862622 -0.2333137457
-0.4771402367 0.1954731845 -0.6816726826 0.0016380069 0.0000804234 -0.2328792683
0.1925103079 0.7800565363 -0.8622284410 0.0029992013 0.0001724453 -0.2315253720
0.0490385780 0.9987024262 -0.8774247455 0.0030283544 -0.0009745654 -0.2319349599
0.4557083679 0.5545557548 -0.9104551542 0.0043516456 0.0000889397 -0.2328935994
0.4731882686 0.2684034570 0.4440656403 0.0043526299 0.0000748152 -0.2328784811
0.4568613470 0.5456403206 -0.6471496944 0.0031502077 0.0006764097 -0.2317975002
0.1632435316 0.4955859520 0.2163198497 0.0029936353 0.0013517264 -0.2329626216
0.4716796734 0.3012231760 -0.1440842118 0.0043525334 0.0000766724 -0.2328713366
0.4738003357 0.2688238181 0.1670534264 0.0043520195 0.0000853478 -0.2328712333
-0.0769879785 0.4796748492 0.1156637699 0.0029960675 0.0013233850 -0.2331803538
-0.4600510111 0.4445122857 0.2027651162 0.0016380124 0.0000804384 -0.2328683034
-0.4200172578 0.3536265506 -0.2769174444 0.0029950914 0.0013296526 -0.2331487562
-0.4242465069 0.3771256810 -0.4729569170 0.0029977153 0.0011312384 -0.2321255825
-0.4719347160 0.2316996472 0.5765631363 0.0016387683 0.0000922897 -0.2328647223
-0.1481174606 1.0222942474 -0.9093294343 0.0029571420 -0.0005099737 -0.2341312451
-0.4607018312 0.4333084439 0.3169701215 0.0016379213 0.0000792828 -0.2328721755
-0.4840323871 0.0514673894 0.9753553150 0.0016382068 0.0000723775 -0.2329107815
-0.4769145280 0.1829689899 -0.1055326128 0.0016387438 0.0000923237 -0.2328725303
-0.4766350894 0.2100275074 -0.7746191249 0.0016381878 0.0000837027 -0.2328676889
-0.4703760849 0.3075491688 -0.7585454635 0.0016380205 0.0000810216 -0.2328697296
-0.2319784828 0.3510902788 -0.2886475257 0.0029945924 0.0013303922 -0.2331481934
0.4868104240 0.1488325587 -0.0779707019 0.0042806996 0.0003623649 -0.2329384146
-0.4745483671 0.2079807602 0.1092144052 0.0016795075 0.0002247965 -0.2329029273
0.2974355100 1.1813581422 -0.9547001915 0.0029978037 0.0008545257 -0.2318251102
0.2516136684 1.0525248771 -0.8546124051 0.0030567189 -0.0001510539 -0.2315297688
-0.4622679304 0.1786438347 0.3819823916 0.0031944070 -0.0012701174 -0.2330169034
-0.4739550116 0.2048968359 0.4996133078 0.0016377595 0.0000756187 -0.2328759333
-0.2204355613 0.4114695132 0.5424346408 0.0029991157 0.0011973878 -0.2322351155
0.1618347961 0.6781176530 -0.7925580348 0.0029939072 0.0011069118 -0.2320847005
0.2221348035 0.6468219615 -0.7457612907 0.0029972490 0.0011159963 -0.2320971065
0.1924930890 0.1141365881 0.9390939592 0.0029939697 0.0010144141 -0.2319683276
-0.4002554237 0.3737753250 -0.4680159190 0.0029981368 0.0011484015 -0.2321547954
0.4707708251 0.3839499118 -0.4813519564 0.0040515825 0.0006938053 -0.2324028607
-0.4609316472 0.4631941641 -0.7904948370 0.0016376521 0.0000633745 -0.2328437280
-0.4755107386 0.2051119849 -0.2319779166 0.0016389138 0.0000948021 -0.2328691260
0.4343749162 0.9001752219 -0.9063516617 0.0043521880 0.0000804030 -0.2328677147
0.2430438086 0.9945708860 -0.9060993586 0.0029986181 0.0005114339 -0.2316137924
-0.4057278112 0.4010566458 -0.5031785028 0.0029994991 0.0010570268 -0.2320194974
0.1153961452 0.2964880332 0.7189978114 0.0029954068 0.0010861254 -0.2320559893
-0.3040221454 0.3448576403 -0.3961768675 0.0029958391 0.0013432863 -0.2326868062
0.2764223639 0.4949688218 0.1956474651 0.0029941465 0.0013524782 -0.2330028197
0.4633446925 0.4319561859 -0.8605083282 0.0043518631 0.0000865360 -0.2328774968
-0.0424284439 0.0067480859 1.0084049751 0.0029990273 0.0000007369 -0.2315139232
-0.4176312228 0.3452058903 -0.3267924557 0.0029951403 0.0013523464 -0.2329861705
0.4104386410 0.3747385680 -0.2047591858 0.0029950560 0.0012902253 -0.2333020303
0.4766028515 0.2043458415 -0.6228039917 0.0043519134 0.0000870146 -0.2328715174
-0.2770294524 0.4675205850 0.0698448527 0.0029991755 0.0013104937 -0.2332328056
-0.3340011368 0.5910995362 -0.6790914352 0.0029986167 0.0008601421 -0.2318212653
-0.2095695565 1.1176265179 -0.9387422872 0.0028962391 -0.0002846103 -0.2341971797
-0.0298096004 0.4344772728 -0.0323140129 0.0029950873 0.0012886319 -0.2333066909
0.2203971197 0.6693800887 -0.7794516884 0.0029949106 0.0011326156 -0.2321218478
0.0282402179 0.4000962240 0.5625910505 0.0029951988 0.0011668439 -0.2321769236
0.3812517864 0.3634080559 -0.4536744013 0.0029924552 0.0012045758 -0.2322518149
-0.0587928717 0.4964867095 0.2470536363 0.0029953918 0.0013557738 -0.2328771474
-0.4303656072 0.7006488935 -0.9687781612 0.0042880086 -0.0000837516 -0.2332738901
0.1264048154 1.0353050820 -0.8568266283 0.0030115883 -0.0003301121 -0.2315564393
-0.4511457424 0.6348108400 -0.8437389527 0.0016389083 0.0000907806 -0.2328986678
-0.4653301358 0.3634553550 -0.1219808724 0.0016388376 0.0000937199 -0.2328736669
-0.4631557436 0.2007235571 0.3493280523 0.0033583264 -0.0012435312 -0.2329438746
-0.3104936438 1.0549475073 -0.9287350310 0.0029967990 0.0004387287 -0.2315869424
0.4726022981 0.2847207720 0.2513491041 0.0043523974 0.0000790639 -0.2328780256
-0.2120029939 0.4236563470 -0.0645886625 0.0029963463 0.0012859726 -0.2333144812
-0.4696136544 0.0580966198 0.9136372238 0.0039039655 -0.0008233578 -0.2332915128
0.1395705977 0.3904357467 -0.1597606762 0.0029941288 0.0012852847 -0.2333166809
-0.0638780020 0.4664559801 -0.5824133782 0.0029985691 0.0010160469 -0.2319701875
0.3138924001 0.3627623817 0.6237685194 0.0029934721 0.0011452989 -0.2321419339
0.3853785954 0.3340930995 0.6661743668 0.0029933416 0.0011262773 -0.2321131371
-0.1712172039 0.4693018957 0.4141887995 0.0029986670 0.0012964399 -0.2324825772
-0.4474430074 0.3936906752 0.5628459680 0.0039396431 0.0007718400 -0.2323747423
0.0753940805 0.9285509791 -0.8805232131 0.0029981653 0.0003929306 -0.2315721871
-0.4223965710 1.1154176473 -0.9547409348 0.0016377881 0.0000750124 -0.2328556337
0.4597293773 0.2098442849 -1.0019078980 0.0017115456 -0.0001427022 -0.2332890343
0.1571665559 0.4968941045 0.2879303102 0.0029940540 0.0013534204 -0.2327546918
0.2814398086 0.1106219293 0.9429721576 0.0029921425 0.0010161081 -0.2319702663
-0.4712275516 0.3002146054 -0.6589072266 0.0016381687 0.0000827347 -0.2328691518
-0.4313407994 0.6428066786 -0.9458004819 0.0043132434 -0.0000766031 -0.2331644020
0.4148459667 0.4942829019 0.3051635485 0.0029940608 0.0013489611 -0.2327324208
0.2373672261 0.4959506526 0.2285387147 0.0029940839 0.0013535047 -0.2329136149
0.3113300506 0.4927463433 0.1809342749 0.0029936312 0.0013483085 -0.2330337279
0.3466227484 0.4364871133 -0.0298072626 0.0029909719 0.0012871568 -0.2333111285
0.2539426127 0.4953266363 0.2076350200 0.0029940703 0.0013527066 -0.2329717864
0.4795760601 0.1617106866 -0.4877815082 0.0043527115 0.0000736351 -0.2328773649
-0.3979798367 0.9808760389 -0.8994829121 0.0029930357 0.0005045110 -0.2316111127
-0.2571870644 0.0214280784 1.0084536025 0.0030040862 -0.0000628022 -0.2315155560
0.2204831296 0.4759861367 0.3950245927 0.0029930697 0.0012925298 -0.2324574511
0.3154650754 0.0024529280 1.0061608375 0.0029834236 -0.0011622907 -0.2327890057
0.1520218700 1.0452868628 -0.8552943849 0.0031212055 -0.0002219455 -0.2315498727
0.4702318641 0.3062003954 -0.9911442709 0.0042806045 0.0000973771 -0.2324473047
-0.4703228106 0.2612871125 0.4773231255 0.0016381470 0.0000830868 -0.2328725276
-0.4772186113 0.1816479950 -0.3600301919 0.0016383509 0.0000864150 -0.2328737566
0.4776721864 0.1839549906 -0.7985461062 0.0043522574 0.0000816742 -0.2328707316
-0.4634055165 0.4226439790 -0.6770835022 0.0016383224 0.0000858685 -0.2328690566
-0.4146991328 0.3524529497 -0.4260212013 0.0029991211 0.0012728542 -0.2324211550
-0.4627712110 0.4384534724 -0.8790496783 0.0016376086 0.0000731661 -0.2328632581
0.3066116290 0.3510119437 0.6410503022 0.0029935795 0.0011375127 -0.2321301724
-0.4349113878 0.9020311738 -0.9194782547 0.0016381742 0.0000818605 -0.2328773363
-0.3640757216 0.4093396398 -0.5132844019 0.0029996364 0.0010409024 -0.2319989299
-0.1365805754 0.9855327651 -0.9009505967 0.0029955128 0.0005105991 -0.2316136496
0.4695184757 0.3231861639 -0.3484681223 0.0043412545 -0.0001193830 -0.2328744282
-0.2767720659 0.6609676441 -0.7655992601 0.0029977629 0.0011374910 -0.2321288400
0.4933101984 0.0815958808 -0.3784854084 0.0043171141 0.0001948236 -0.2328917817
0.3329618618 0.4301321823 0.5085262105 0.0029937672 0.0012164923 -0.2322698278
0.0566550544 0.2114299889 0.8267542419 0.0029990695 0.0010461285 -0.2320053199
-0.3698610296 0.3434156173 -0.3716626922 0.0029952151 0.0013556379 -0.2328095079
0.2511787030 0.8310857653 -0.8645512020 0.0029979247 0.0000884421 -0.2315171630
0.3614663844 0.3764430798 -0.1998728640 0.0029949174 0.0012889705 -0.2333057528
-0.4595478148 0.1581923556 -0.9514987019 0.0043132462 -0.0001776687 -0.2331171029
0.4802656726 0.1462626174 -0.5446298615 0.0043525171 0.0000772108 -0.2328738613
-0.4606940722 0.2059002824 0.3807070984 0.0039044427 0.0009548382 -0.2327682031
-0.1592654666 0.4615731727 0.0515741231 0.0029979845 0.0013086705 -0.2332380290
0.3244687804 0.3432829310 -0.3512274353 0.0029951797 0.0013566738 -0.2329374275
0.4698584079 0.4777128053 0.3678189097 0.0043202044 0.0000672071 -0.2328902630
0.4679919167 0.3532460831 0.0673086843 0.0043522547 0.0000815695 -0.2328775403
-0.2270577532 0.4798108963 0.1158964069 0.0029974788 0.0013274542 -0.2331635210
-0.2568454736 0.9973386337 -0.8782946343 0.0029132866 -0.0009685520 -0.2319297705
0.0115130160 0.3662264636 -0.4595724194 0.0029970872 0.0011693618 -0.2321911038
0.1650680654 0.4385353737 -0.0204517592 0.0029915674 0.0012917018 -0.2332973167
0.4036306746 0.4072827082 0.5501195085 0.0029929419 0.0011889952 -0.2322189734
-0.0699860763 0.0622552058 0.9971622988 0.0029991306 0.0010064607 -0.2319594633
-0.4716913330 0.2433922673 0.3062440427 0.0016385181 0.0000885264 -0.2328658481
-0.1070235738 0.4542192328 0.0274111656 0.0029974924 0.0012986927 -0.2332748935
-0.4602641480 0.4882530472 -0.9484199425 0.0016382585 0.0000848705 -0.2328687929
-0.1908245076 0.4187812986 -0.0785266954 0.0029959085 0.0012848129 -0.2333179317
-0.4683600611 0.3131221705 0.2013841878 0.0016382462 0.0000847930 -0.2328705100
-0.3120375263 0.5553855637 -0.6905554208 0.0029989933 -0.0009401304 -0.2338428756
0.4517027936 0.7571088136 -0.8657219397 0.0042771512 -0.0000188177 -0.2331828744
-0.1189620241 0.4527431678 0.4589304773 0.0029971647 0.0012598025 -0.2323711966
0.4535941797 0.3480501881 -1.0062893757 0.0017914619 -0.0000274223 -0.2333685917
0.2912468315 0.4378476687 -0.0248480085 0.0029910548 0.0012887407 -0.2333063279
0.4389973284 0.4369973630 -0.0283897811 0.0029915511 0.0012867938 -0.2333121563
-0.0346793234 1.1766556941 -0.9470451144 0.0029945571 0.0000486981 -0.2329025548
0.4903250828 0.0618454670 0.9014194383 0.0038394911 -0.0007148608 -0.2332607092
-0.4737413771 0.2366941058 -0.3116017621 0.0016386011 0.0000901660 -0.2328700518
-0.4766436778 0.1901370100 -0.2548367064 0.0016387656 0.0000926826 -0.2328703115
-0.4601807105 0.1111421364 -0.0549073037 0.0018956151 -0.0007034772 -0.2326970682
0.2569683261 0.5987676827 -0.6867100829 0.0029972612 0.0009225649 -0.2318763710
0.3182868222 0.4877354952 0.1533746358 0.0029919848 0.0013375530 -0.2330993022
-0.4612939836 0.4639819449 -0.6075605118 0.0016376684 0.0000239826 -0.2329383534
-0.4661841761 0.3323585278 0.4974859251 0.0016378669 0.0000784194 -0.2328692402
-0.4558987267 0.5549291689 -0.7827420497 0.0016385793 0.0000898669 -0.2328739905
0.1326871187 0.3577593349 -0.4466226372 0.0029931268 0.0012418427 -0.2323215631
0.0315082077 0.3525635635 -0.2831933673 0.0029943708 0.0013316729 -0.2331364780
0.4712268052 0.3062000011 0.0778477651 0.0043515232 0.0000930429 -0.2328748973
0.4298214174 0.7087143116 -0.8277387701 0.0026456192 0.0009040559 -0.2319223500
0.4689628765 0.3498887553 0.3693324822 0.0043525565 0.0000763760 -0.2328759306
0.2921298522 0.3430306279 -0.3542550277 0.0029951933 0.0013576541 -0.2329214146
0.2201235109 0.9668867751 -0.8950138896 0.0029990450 0.0004810138 -0.2316019533
-0.4795101731 0.1502061223 -0.5381725311 0.0016378751 0.0000785268 -0.2328704094
-0.4766327252 0.1876717290 -0.0495526256 0.0016381198 0.0000825022 -0.2328687725
-0.3920869849 0.3462788755 -0.3139164650 0.0029950737 0.0013486062 -0.2330404265
-0.0849544846 0.4908300215 0.3245075327 0.0029969649 0.0013429926 -0.2326954979
0.4681367180 0.3472502310 0.0416274652 0.0043520779 0.0000845714 -0.2328770033
0.4756649589 0.2392301492 0.3114506429 0.0043524790 0.0000759722 -0.2328788278
-0.0946355619 1.1453556045 -0.9269164207 0.0029825440 0.0013269294 -0.2325794948
0.4865524352 0.1603332754 -0.0239212562 0.0042947616 0.0003263815 -0.2329266041
0.4694593933 0.3262210068 -0.8395759631 0.0043522275 0.0000817286 -0.2328818718
-0.4657610565 0.4886947139 0.2353518664 0.0016972715 -0.0000594101 -0.2328404134
-0.1948638548 0.3941315112 -0.1485268479 0.0029951226 0.0012856110 -0.2333156953
-0.2441702137 1.1661281465 -0.9456046468 0.0029913308 0.0002904700 -0.2331278244
0.3227320511 0.3929578695 -0.4948458863 0.0029943518 0.0010552403 -0.2320168299
0.4201547582 0.9757612580 -0.8954382124 0.0027220060 0.0004662693 -0.2316283329
0.4947668054 0.0762391334 -0.8972087363 0.0042896741 -0.0001012193 -0.2329467269
0.3064028074 1.0310979475 -0.9210176765 0.0029953742 0.0004945767 -0.2316070802
-0.4178492555 0.4874214124 0.3502289771 0.0029991089 0.0013205354 -0.2325824953
-0.1000229986 0.0286442391 1.0084049751 0.0029982048 -0.0000706509 -0.2315159544
0.0154155017 0.3872698558 -0.1680785593 0.0029940581 0.0012876884 -0.2333095677
-0.1219474619 0.3588424434 -0.4473061099 0.0029987228 0.0012204609 -0.2322779838
-0.0111212071 0.0767553530 0.9805007160 0.0029993808 0.0010091798 -0.2319625128
-0.2690011068 0.4294721920 0.5104387555 0.0029986847 0.0012220978 -0.2322809775
0.3437274603 0.4955898512 0.2967278691 0.0029941356 0.0013515483 -0.2327469042
0.1316962535 0.5504035941 -0.6767205023 0.0030130484 -0.0012907651 -0.2324595177
0.4156441617 0.1982057686 0.8432417303 0.0029829573 0.0010484194 -0.2320083938
-0.0729362308 0.8827628275 -0.8694739655 0.0029967052 0.0002252343 -0.2315338965
0.1467791843 1.1033703874 -0.9422811761 0.0029998349 0.0002771966 -0.2315429335
-0.4804525047 0.1875642898 0.3692736078 0.0020086231 -0.0006016407 -0.2329437006
-0.2258636787 0.4649054805 0.4268550971 0.0029988506 0.0012816642 -0.2324357947
0.4820690163 0.1282767727 -0.1923456631 0.0042270378 0.0005534457 -0.2329840999
-0.0695450581 0.3966367891 -0.1414285829 0.0029947365 0.0012856382 -0.2333156314
-0.4747009696 0.2349368797 -0.6893423233 0.0016379471 0.0000791658 -0.2328818786
0.4855478263 0.2022919797 0.1814539858 0.0042208069 0.0003900034 -0.2328901149
-0.2780890365 0.4956713391 0.2205414241 0.0029958663 0.0013542756 -0.2329359769
-0.4778520059 0.1760469048 -0.4453387148 0.0016380056 0.0000804275 -0.2328663837
0.4469768210 0.1104840141 -0.7870151963 0.0041280183 0.0001498575 -0.2335879173
-0.4828789104 0.1006680508 -0.1633669776 0.0020134617 -0.0008414264 -0.2326630710
-0.3250718854 0.3006864978 0.7149421999 0.0030026002 0.0010991772 -0.2320736459
-0.4787156720 0.1701083405 -0.7353799977 0.0016382177 0.0000841948 -0.2328679812
-0.4605917572 0.4677422681 -0.7185639051 0.0016376304 0.0000715210 -0.2328578416
-0.3394907010 0.7100422566 -0.8299806251 0.0029953429 0.0009390292 -0.2318914554
0.2316614334 0.4066848307 -0.1131797976 0.0029938406 0.0012838204 -0.2333209037
0.2983061057 0.2322919437 0.8013674587 0.0029911962 0.0010593639 -0.2320216047
0.1555752396 0.3697649379 -0.2200074446 0.0029943912 0.0012919493 -0.2332952475
0.0842474861 0.3673552534 -0.4612988379 0.0029944537 0.0011714324 -0.2321936706
0.1548008097 0.0829829082 0.9734703188 0.0029946658 0.0010088684 -0.2319621457
-0.4411128870 0.3839693712 -0.7103706135 0.0023599728 -0.0002416781 -0.2317105305
-0.4728519038 0.2233775482 0.3913315256 0.0016384271 0.0000874551 -0.2328708091
-0.4704028044 0.2541787133 0.5855848270 0.0016383332 0.0000857148 -0.2328667535
-0.0071005090 0.2159317483 0.8223780746 0.0029999804 0.0010540888 -0.2320150040
-0.1822442553 1.0931326939 -0.8591787245 0.0029550686 0.0005141272 -0.2316265858
-0.4823335174 0.1255473632 -0.8341093429 0.0016380110 0.0000809115 -0.2328707425
-0.4561479191 0.5510389791 -0.7367328363 0.0016375637 0.0000707855 -0.2328570123
-0.3834784551 0.9306033467 -0.8811518764 0.0029951566 0.0004039552 -0.2315754270
0.3076270465 0.3470106221 -0.3088755992 0.0029951471 0.0013417132 -0.2330911027
-0.0277571077 0.4773383539 0.3912366364 0.0029956923 0.0013062437 -0.2325029257
-0.4450592959 0.8542583674 -0.8679118064 0.0018083014 0.0000756391 -0.2327708284
-0.4559263598 0.5511461491 -0.6826020277 0.0016405588 0.0000615364 -0.2329540142
-0.0211471912 1.1666164896 -1.0003037094 0.0029921547 0.0000879173 -0.2327415788
0.4753600042 0.2331227710 -0.2061154369 0.0043514743 0.0000936737 -0.2328724011
0.4941004265 0.0625021373 -0.4091523115 0.0042291166 -0.0002795297 -0.2328042029
0.4855425580 0.0540092830 0.9940120918 0.0043243918 -0.0000204369 -0.2330567426
0.2967145924 0.4498191264 0.0102541442 0.0029902636 0.0012928167 -0.2332938838
-0.4750221467 0.0264221155 -0.5084073210 0.0033999385 -0.0012109127 -0.2326768950
0.4763364824 0.2338303908 0.3729719854 0.0043512404 0.0000968795 -0.2328674877
0.3957352015 0.3514139045 -0.2885103217 0.0029950941 0.0013290775 -0.2331538886
-0.2175544207 0.9345022078 -0.8824514827 0.0029951566 0.0003942303 -0.2315727853
-0.4477437720 0.3627657834 0.6039008014 0.0043365980 -0.0001308509 -0.2328943458
0.4718751768 0.2951783662 0.0208194686 0.0043518767 0.0000873789 -0.2328766715
-0.3138394996 0.4699759086 0.0774872953 0.0029995167 0.0013113964 -0.2332300525
-0.0037392140 0.3456692148 -0.3225495770 0.0029946250 0.0013512125 -0.2330020746
0.4639516559 0.4179624423 -0.6428678357 0.0043523743 0.0000796050 -0.2328737090
0.0377928549 0.4921770927 0.3158390503 0.0029950927 0.0013421850 -0.2326971457
0.0731525573 0.3766367166 0.6030509104 0.0029947841 0.0011512919 -0.2321508173
0.4674477269 0.3616413917 -0.5148262506 0.0043528583 0.0000697019 -0.2328776341
0.0341446981 0.4878600500 -0.6058619330 0.0029982292 0.0009644067 -0.2319160022
0.0233695256 0.6989745040 -0.8179067286 0.0029953239 0.0010037538 -0.2319573396
0.4753259825 0.2307651984 -0.5822380820 0.0043520534 0.0000844504 -0.2328829731
0.4581026186 0.4891048470 0.1287075480 0.0030250792 0.0013183519 -0.2331293852
-0.2681108029 0.3455201390 -0.3230213226 0.0029948589 0.0013481956 -0.2330329190
0.4531920123 0.5996113088 -0.8665178099 0.0043521826 0.0000818034 -0.2328636904
-0.4663271937 0.3835491964 -0.9176188182 0.0016375964 0.0000706264 -0.2328526930
-0.4673269068 0.3273098826 0.1775415577 0.0016381932 0.0000839365 -0.2328707139
-0.4741564902 0.1022533714 -0.1993114730 0.0022180416 0.0010706672 -0.2331118075
0.0869867143 0.4445188415 0.4823697802 0.0029955468 0.0012491707 -0.2323416941
0.4653458604 0.4059820224 0.3078654909 0.0043523172 0.0000805947 -0.2328755322
-0.3367926157 0.3788469141 -0.1918332177 0.0029946577 0.0012874178 -0.2333104310
0.2760740718 0.5519220216 -0.6880582758 0.0029908400 -0.0011142221 -0.2336434526
-0.0128938968 0.3602920799 -0.2508894586 0.0029940921 0.0013130415 -0.2332237836
0.2086088233 0.4857969772 0.1455416481 0.0029921071 0.0013348733 -0.2331174102
0.3010087741 0.3570634141 -0.2623814511 0.0029949799 0.0013161345 -0.2332134577
-0.4085705727 0.4297284799 0.5106960794 0.0029986575 0.0012192984 -0.2322747997
0.4859153915 0.0834565110 -0.4055918164 0.0042570338 0.0004713011 -0.2329453783
-0.0927319791 0.2597551179 0.7667465536 0.0029962715 0.0010682363 -0.2320331406
-0.1782455060 0.4067385184 -0.1128070158 0.0029953130 0.0012842079 -0.2333197794
-0.2270545379 0.5591862169 -0.6696615190 0.0029776414 -0.0003439225 -0.2315638435
0.3033511399 0.3793698608 -0.1914827312 0.0029947528 0.0012872819 -0.2333107546
0.0250444833 0.3433794381 -0.3500695088 0.0029950030 0.0013574202 -0.2328989031
0.4356980062 0.7231494324 -0.8582708293 0.0033859065 -0.0005763475 -0.2339517913
-0.3421403043 1.1328476344 -0.9465466466 0.0030000551 0.0001426301 -0.2315217148
-0.0347260311 1.0612809464 -0.8534130405 0.0031317408 -0.0000053336 -0.2315340433
0.1451574982 0.4777284049 0.3902720244 0.0029935224 0.0012991644 -0.2324735279
0.2003351437 1.0485909992 -0.8549755721 0.0030940810 -0.0001900067 -0.2315410845
0.4782735077 0.1879964124 -0.4427185690 0.0043523729 0.0000797246 -0.2328732278
0.4698947530 0.1900563323 0.5009335345 0.0023539133 0.0011613771 -0.2326831803
-0.1024588111 1.1908288426 -0.9523851052 0.0029939371 -0.0001240612 -0.2333598755
-0.4630452548 0.4316423518 -0.8478406193 0.0016391870 0.0000948674 -0.2328949427
-0.4097297758 1.1693810845 -0.9476039073 0.0032082255 0.0000864381 -0.2315335416
0.3934461712 0.4969402004 0.2616888639 0.0029949581 0.0013560294 -0.2328289020
0.0219384172 0.5503486610 -0.6730654811 0.0030050882 -0.0012299397 -0.2323070593
0.0112230259 0.8781093371 -0.8689463311 0.0029982687 0.0002267706 -0.2315349420
0.1803174159 0.4836893014 0.3663659953 0.0029932437 0.0013095488 -0.2325227114
0.0063362296 0.9942973805 -0.9045811799 0.0029994447 0.0005271232 -0.2316202720
-0.3140008142 0.0549369272 1.0047025297 0.0029983054 0.0006524448 -0.2316828485
-0.1704336771 1.1462519639 -0.9317927974 0.0029631064 0.0013300672 -0.2325964145
0.4650930176 0.4111916517 0.1881246176 0.0043519651 0.0000863198 -0.2328751339
0.4668490609 0.3682352668 -0.5858628149 0.0043526326 0.0000750436 -0.2328784498
-0.4769984632 0.1821484736 -0.0766223037 0.0016383835 0.0000866488 -0.2328703482
0.2433009667 0.2906189342 0.7265025265 0.0029928250 0.0010896943 -0.2320610102
-0.4678918830 0.3475926716 -0.8069666007 0.0016383795 0.0000864762 -0.2328810085
-0.3851014804 0.3319083978 0.6713464056 0.0030034622 0.0011247465 -0.2321109414
0.4742126265 0.2665738303 0.5429078820 0.0043523498 0.0000800536 -0.2328774138
-0.1558436521 0.9093995522 -0.8754039931 0.0029951675 0.0003024831 -0.2315498754
-0.4665238581 0.3702521607 -0.8066144705 0.0016383618 0.0000862723 -0.2328784322
0.3647684053 0.4668515088 0.0655294686 0.0029899822 0.0013092306 -0.2332368258
0.1564794110 0.0623350229 0.9962542377 0.0029946767 0.0010055865 -0.2319584912
-0.0172450455 0.3993030511 -0.1338742547 0.0029944211 0.0012859155 -0.2333147884
0.2852368726 0.3453014225 -0.3270056851 0.0029951566 0.0013494818 -0.2330225986
0.2624757318 0.4065246351 -0.5109973022 0.0029944918 0.0010378216 -0.2319954046
0.4654765563 0.2068208950 0.3607440766 0.0018164941 0.0005966987 -0.2328141521
0.1856805586 0.0952562181 0.9599273279 0.0029942090 0.0010110369 -0.2319645575
-0.4846686014 0.0658537849 -0.6648105756 0.0016748973 0.0002927731 -0.2328735731
0.4368512341 0.8560898405 -0.9482443553 0.0043525374 0.0000742320 -0.2328728389
0.1974033432 0.3925660334 -0.4951106375 0.0029929174 0.0010696408 -0.2320359521
0.4773997183 0.1898337778 0.4790877992 0.0043379929 0.0000142618 -0.2328897994
-0.4416194034 0.7920140109 -0.9492085934 0.0016387778 0.0000928865 -0.2328740924
-0.4637302216 0.3933375906 0.0264057056 0.0016375134 0.0000719996 -0.2328707493
-0.0478254846 0.3503372674 -0.4210417618 0.0029968670 0.0012882390 -0.2324682855
0.1740643853 0.4970376210 0.2649518423 0.0029938868 0.0013542865 -0.2328184552
-0.4671662150 0.0652176372 -0.2831411982 0.0021434207 -0.0009850353 -0.2326423717
0.2433466275 1.1474687974 -0.9345955620 0.0030560758 0.0012371631 -0.2327723008
0.1355033674 0.9079602471 -0.8755360989 0.0029991660 0.0003087493 -0.2315508012
-0.4714604796 0.2999508507 -0.8731413084 0.0016378995 0.0000774405 -0.2328608068
-0.4673363667 0.3359023968 -0.1876076108 0.0016389151 0.0000946567 -0.2328699172
0.4748148613 0.2503710080 0.0717170690 0.0043526163 0.0000752598 -0.2328795783
-0.4693537582 0.3040011722 -0.1091209381 0.0016379702 0.0000799612 -0.2328662505
-0.1599793622 0.4271722512 0.5138541691 0.0029981953 0.0012106136 -0.2322596134
0.1059557739 0.1388997479 0.9117689081 0.0029955428 0.0010177300 -0.2319720202
0.4684757787 0.0515261306 -0.8930778595 0.0018388820 -0.0005920885 -0.2332222812
0.3562875423 0.4250884329 -0.0614701645 0.0029927611 0.0012849679 -0.2333175076
0.3007279882 0.4471641079 -0.5596836882 0.0029942022 0.0010423530 -0.2320006851
-0.4788848692 0.1678972089 -0.6351456684 0.0016379131 0.0000790231 -0.2328701715
-0.4337738424 0.9311580745 -0.9379835085 0.0016380219 0.0000767213 -0.2328505707
0.4682280397 0.0920495227 0.8189189293 0.0021185081 -0.0009807378 -0.2331808881
-0.4730630490 0.2014770444 0.6827144660 0.0016387071 0.0000913937 -0.2328665047
0.1062363532 0.4020072761 0.5591511566 0.0029952124 0.0011787101 -0.2321994963
-0.4665975042 0.3406962074 -0.0440813585 0.0016380396 0.0000813071 -0.2328694251
0.4241890016 0.6964203499 -0.9216906520 0.0016493851 -0.0000799897 -0.2330406671
0.4795624509 0.1536191921 -0.7338160562 0.0043521908 0.0000820100 -0.2328825027
0.1497605149 0.4882306008 -0.6064303107 0.0029955088 0.0009741901 -0.2319259148
-0.2457241978 0.3503929890 -0.4210603919 0.0029974665 0.0012939016 -0.2324981156
0.3533868595 1.0947890759 -0.9417195608 0.0030023270 0.0002882050 -0.2315457369
-0.2993935500 0.8374413611 -0.8647481574 0.0029965447 0.0000974995 -0.2315176062
0.4776144731 0.1987876726 0.5219217449 0.0043500834 0.0001080415 -0.2328672321
-0.0104686345 0.9766325579 -0.8974678848 0.0029993495 0.0004996574 -0.2316094391
0.4249927967 1.0661862830 -0.9764506651 0.0043519284 0.0000841690 -0.2328514354
-0.1458973872 0.4950232572 0.1987582558 0.0029951145 0.0013542361 -0.2329833780
0.1083846064 0.2329488424 0.8002446428 0.0029970111 0.0010526585 -0.2320133059
-0.1859291080 0.4884873864 0.3390295334 0.0029974869 0.0013377134 -0.2326560462
-0.4824935458 0.1111066410 -0.7325605949 0.0016382095 0.0000841880 -0.2328710538
-0.4665639380 0.3662240572 -0.5399982790 0.0016377541 0.0000764277 -0.2328710022
-0.0884451404 1.0172848514 -0.9072262817 0.0029730842 -0.0005604039 -0.2341029635
0.4145544552 0.8710949569 -0.9330279687 0.0016550504 -0.0001024524 -0.2330597975
-0.1162800904 0.3498904561 0.6424408971 0.0029977126 0.0011255744 -0.2321120290
0.4550940601 0.1984490061 -0.9527079844 0.0016564507 -0.0001117259 -0.2330612577
0.0907898828 0.3436858870 -0.3770785491 0.0029948195 0.0013502132 -0.2327690243
-0.2179643880 1.0138944985 -0.9133106534 0.0029971919 0.0005259064 -0.2316197622
0.0672111827 1.0233482709 -0.9102486139 0.0030145005 -0.0005232838 -0.2341254303
0.4308956481 0.6398113554 -0.9487419910 0.0016789134 -0.0000785581 -0.2331717110
0.4274079996 0.2538408571 -0.7427420692 0.0018531220 -0.0001499160 -0.2321651743
0.1421158834 1.1602802294 -0.9460642788 0.0030005894 0.0001565710 -0.2337677884
-0.1158800698 0.3705593982 -0.4652713028 0.0029991905 0.0011451086 -0.2321554085
0.4011602477 0.8722036646 -0.8694304419 0.0030004073 0.0001969377 -0.2315299157
0.0013784057 0.4730402294 0.0892516118 0.0029951621 0.0013100151 -0.2332362099
0.4030293112 0.5045414647 -0.6222457372 0.0029951512 0.0009141995 -0.2318706867
-0.0800675482 0.8603257691 -0.8664824178 0.0029957780 0.0001435587 -0.2315225020
0.4748744821 0.2424861775 0.4854588288 0.0043526054 0.0000742714 -0.2328793539
-0.4139845004 0.3833471793 0.5948941298 0.0030004766 0.0011684849 -0.2321785618
-0.3274150194 0.3298981426 0.6735029971 0.0030025934 0.0011206474 -0.2321048873
0.4629098304 0.0988742511 -0.1124222643 0.0040828850 -0.0007230454 -0.2326957848
-0.4659513310 0.1061162911 -0.1193077338 0.0021902521 -0.0010647409 -0.2326172810
0.1952976183 0.9301635480 -0.8813233564 0.0029996038 0.0003846114 -0.2315698704
0.4492158956 0.3896610353 -0.9947243191 0.0017010171 -0.0000356558 -0.2332775650
-0.4635814368 0.4422896822 0.4940295180 0.0019322443 0.0007764462 -0.2325533939
0.4777173279 0.1994283068 -0.1709879542 0.0043515409 0.0000925072 -0.2328736370
0.4808277039 0.1414270574 -0.6240758412 0.0043520031 0.0000856985 -0.2328706269
-0.2624853575 0.7328125662 -0.8464324317 0.0029991143 0.0006889626 -0.2317028381
-0.4404248095 0.3894617156 0.5840591394 0.0030003162 0.0011763798 -0.2321931635
-0.4126135294 0.5619844596 -0.6947784893 0.0031574256 -0.0001003926 -0.2341957263
-0.4863144469 0.1606553865 0.5837227339 0.0018554768 -0.0006241782 -0.2330013255
0.1923648213 0.3453761670 -0.3261089613 0.0029951770 0.0013498692 -0.2330129810
-0.3813828956 0.1710916125 0.8762539657 0.0030130484 0.0010344893 -0.2319919323
0.4734759216 0.2668217977 0.3716030483 0.0043516225 0.0000912822 -0.2328671954
-0.4429581351 0.5322303055 -0.6464883785 0.0035946805 0.0007373371 -0.2319125897
0.3770056910 1.0149960712 -0.9147584640 0.0029958201 0.0005051011 -0.2316112486
0.4542166190 0.3193331295 -1.0065364105 0.0017069326 -0.0000464276 -0.2333022003
0.3986207810 0.4466968420 0.4754036929 0.0029931078 0.0012401119 -0.2323188875
0.4708377073 0.3010425068 -0.7001606754 0.0043521228 0.0000838835 -0.2328742529
-0.4445840223 0.4988400919 -0.6179137991 0.0037498376 0.0007095912 -0.2320828298
0.3390461724 0.3686405870 -0.2238151417 0.0029949677 0.0012967036 -0.2332803902
-0.1139826689 0.3024895900 0.7114018997 0.0029969309 0.0010917867 -0.2320634343
-0.3398853582 0.4480438725 0.0048156546 0.0029985066 0.0012911920 -0.2332990189
