-0.4014494578 0.6245287162 0.3258294047 -0.0974757793 0.0363096350 -0.3891647033
-0.3086274005 0.5886684703 0.0632022908 -0.0974492083 0.0333083895 -0.3891689249
-0.1257036288 0.5723432499 -0.0501529412 -0.0973955033 0.0333041391 -0.3891801836
0.3019214583 0.8687927807 -0.3732694804 -0.0971922506 0.0349336116 -0.3876683779
0.3612298330 0.8225456364 -0.3991582593 -0.0971803941 0.0347588265 -0.3906786963
0.2953713954 0.8387297342 -0.4006765693 -0.0972001656 0.0347533031 -0.3906792912
-0.0929720962 0.5706095597 0.0907211340 -0.0973774255 0.0333031734 -0.3891657402
-0.4282938291 0.6182523507 0.3197301463 -0.0978445064 0.0361934820 -0.3891335701
0.2138955631 0.6068434658 0.1463809572 -0.0974430280 0.0363214416 -0.3891670601
0.1241558643 1.0658667976 -0.3860096446 -0.0972877421 0.0349586113 -0.3876655821
0.2794335082 0.7595087489 -0.3670203141 -0.0971840950 0.0349203367 -0.3876681160
0.0739792296 0.5970138918 -0.0037888340 -0.0973645533 0.0363266683 -0.3891732692
0.0680997819 0.6816361519 -0.3634431956 -0.0973126707 0.0345757435 -0.3877008582
0.3335232115 0.5913851594 0.3593092507 -0.0971604984 0.0333079263 -0.3891380672
0.2265240291 0.5807404541 0.0008084182 -0.0971591996 0.0333080293 -0.3891737369
0.1651114448 0.6025168382 0.0712781730 -0.0974201004 0.0363233504 -0.3891702766
-0.1807064085 0.6142712048 -0.3614851719 -0.0969973156 0.0347063067 -0.3877301841
0.1930443450 0.5774243106 -0.0860373241 -0.0971685375 0.0333071740 -0.3891824254
0.2246438806 0.5804567332 -0.1740051988 -0.0971597385 0.0333079687 -0.3891911274
0.4322509999 0.6143047417 0.2026606042 -0.0964973078 0.0354937711 -0.3891589483
-0.2326733961 0.5814608886 -0.2897622325 -0.0974449640 0.0333080262 -0.3892040103
-0.1894404618 0.5710888181 -0.3864375230 -0.0969730832 0.0340351073 -0.3903112331
-0.4071127882 0.6161549331 -0.0562170704 -0.0977336619 0.0362355999 -0.3891767612
-0.0297814333 0.5956171825 -0.2695417398 -0.0972662449 0.0363273858 -0.3891847337
0.0328109043 1.2982040551 -0.4101461273 -0.0972991128 0.0349578787 -0.3887172532
-0.3105642964 1.2727499252 -0.4300094619 -0.0973560994 0.0348030514 -0.3906836899
-0.1080467265 0.5714358241 -0.1558071546 -0.0973835710 0.0333034761 -0.3891904493
-0.4961187715 0.0000000000 0.4210764153 -0.0975505940 0.0333737210 -0.3889148039
-0.2882078373 0.5868839208 -0.2985669319 -0.0974492068 0.0333084092 -0.3892049049
-0.0077062870 0.7121414565 -0.3660850669 -0.0973031437 0.0347844999 -0.3876709011
0.2056522765 0.6060886634 0.2257416316 -0.0974415461 0.0363215824 -0.3891634727
-0.3871665469 0.5667253750 -0.3374287200 -0.0978912804 0.0354743522 -0.3903885423
-0.1810966403 0.6035178059 0.2218756004 -0.0971802987 0.0363230567 -0.3891618349
0.3060307909 0.9636959731 -0.3788186906 -0.0972065987 0.0349443011 -0.3876681538
-0.2179345675 0.5974527306 -0.3888864407 -0.0970638263 0.0344637213 -0.3905968764
-0.2538554193 1.0360720432 -0.4156371733 -0.0973686538 0.0347736014 -0.3906810516
0.3426640396 0.5922258823 0.2703468733 -0.0971621831 0.0333077644 -0.3891469207
-0.4349175002 0.2920868037 0.3828550779 -0.0967425467 0.0346173725 -0.3905506171
-0.2095605755 0.9524374018 -0.4104608058 -0.0973616485 0.0347617222 -0.3906806716
-0.0680173383 1.2460557752 -0.3971037012 -0.0973359570 0.0349947972 -0.3876701519
-0.4126871496 0.5977811669 0.1840585039 -0.0977457213 0.0334093786 -0.3891499677
0.1186736355 0.5720481659 0.3420632085 -0.0972167948 0.0333036805 -0.3891398776
-0.1865531564 1.0152344981 -0.4141233180 -0.0973390706 0.0347663722 -0.3906823306
-0.2176307178 0.5817581448 -0.3543567779 -0.0974167159 0.0335509204 -0.3892791792
0.1535819945 1.2855266022 -0.4286720023 -0.0972389807 0.0348108695 -0.3906817131
0.2112254134 0.5792797680 0.0563167713 -0.0971633683 0.0333076523 -0.3891682392
0.3958039569 0.6352982373 -0.3595946624 -0.0972106720 0.0347698233 -0.3876703653
-0.0432859997 1.0296005111 -0.4143425323 -0.0973040458 0.0347822551 -0.3906832585
-0.1963786192 0.5777436936 0.0172966079 -0.0974349874 0.0333070983 -0.3891734130
-0.1259411071 0.6768738278 -0.3940256505 -0.0972940510 0.0346142392 -0.3906615964
-0.3572332583 0.5667106849 -0.3373120130 -0.0971919070 0.0341339757 -0.3905056050
-0.1528280700 0.6015308831 0.0481099763 -0.0971929015 0.0363239982 -0.3891697332
0.3906886676 0.6154971826 0.4005397743 -0.0969343257 0.0361339872 -0.3888425579
-0.2788669458 0.6128900182 0.2551348728 -0.0971547419 0.0363207953 -0.3891602531
-0.3174803739 1.1780140464 -0.3943386580 -0.0974242524 0.0349426830 -0.3876682447
-0.0912198499 1.0708293727 -0.3872634089 -0.0973449512 0.0349525234 -0.3876663147
0.4273154484 0.3215872354 -0.3551256211 -0.0981363391 0.0347897811 -0.3904203203
0.3877055786 0.6237383909 0.3637503920 -0.0972279869 0.0363128909 -0.3891447228
-0.1304875529 0.5997557108 0.3494380553 -0.0972118027 0.0363252652 -0.3891562025
0.2508589812 0.6102069115 -0.2434735470 -0.0974492462 0.0363208498 -0.3891846701
-0.0620932600 0.8808201060 -0.4055812328 -0.0973073729 0.0347471304 -0.3906825834
0.0714121260 0.8236436576 -0.4015259443 -0.0972701169 0.0347323766 -0.3906813952
0.2266040583 0.5682315151 0.3903691537 -0.0973033904 0.0348287793 -0.3876589613
0.0341176167 1.0585478900 -0.4157140965 -0.0972836309 0.0347877073 -0.3906829391
0.2184804592 0.5798456386 -0.1910180343 -0.0971609025 0.0333078582 -0.3891928288
-0.2742576827 0.5859663776 -0.3890052018 -0.0971431562 0.0344842860 -0.3906188034
-0.1857405136 1.2179250973 -0.3960397724 -0.0973797520 0.0349629223 -0.3876686291
0.1233730923 1.2607211226 -0.4273331515 -0.0972503377 0.0348122000 -0.3906821611
-0.1730893395 1.1812475025 -0.3939008302 -0.0973751308 0.0349579272 -0.3876679646
-0.0371586370 0.5957486963 0.0414927489 -0.0972675225 0.0363274842 -0.3891706808
0.1684231775 0.5755595229 0.1824104103 -0.0971854936 0.0333058042 -0.3891557696
0.0698754976 0.5695136637 -0.1950129682 -0.0972388263 0.0333025967 -0.3891936114
0.4021863823 0.5331002969 -0.3379466769 -0.0969579844 0.0350045800 -0.3906235442
-0.1061901868 1.0860636392 -0.4179844298 -0.0973162959 0.0347869823 -0.3906833569
0.4866567591 0.0582673645 0.4112945598 -0.0959730964 0.0348490746 -0.3898816398
0.0170695248 1.0850837812 -0.4173687004 -0.0972901231 0.0347973979 -0.3906833645
-0.1302445407 0.5727758539 -0.2834528962 -0.0973951309 0.0333041527 -0.3892033337
0.3960626871 0.7016828177 -0.3628665234 -0.0971018118 0.0348617410 -0.3876791068
0.0739432103 0.5697642640 -0.0131470268 -0.0972386991 0.0333026300 -0.3891754534
-0.4176473225 0.6173401674 -0.0893556851 -0.0978057141 0.0362015726 -0.3891858811
0.3830583692 0.6231759836 0.0785240945 -0.0973023187 0.0363160212 -0.3891649031
-0.2027091227 0.6055621028 0.0911781278 -0.0971680440 0.0363220138 -0.3891676595
0.4461695810 0.3264055925 -0.3489316962 -0.0958911055 0.0350954805 -0.3896047622
0.3857513148 0.6534484252 -0.3901844753 -0.0972338508 0.0346933466 -0.3906757885
-0.1577024481 0.8943001267 -0.4067786099 -0.0973463544 0.0347518636 -0.3906809199
-0.0961347731 0.5707525289 0.1423552806 -0.0973799851 0.0333033142 -0.3891606588
0.3005563923 0.8403456775 -0.3716071734 -0.0971880139 0.0349304011 -0.3876684399
-0.4739821701 0.0752308846 0.4222676544 -0.0969395464 0.0348475776 -0.3877067206
-0.3901673277 0.6236159320 0.2484744543 -0.0973566383 0.0363140958 -0.3891662442
-0.1247727517 0.5995977744 -0.2076929050 -0.0972036244 0.0363247823 -0.3891813204
0.0603857003 0.5963582197 -0.0697257313 -0.0973549294 0.0363270710 -0.3891761936
0.2436357164 0.5994457520 0.4206425655 -0.0973860126 0.0356733893 -0.3884637119
-0.1386284079 0.8412601253 -0.4035317607 -0.0973463726 0.0347450143 -0.3906804582
0.3260761171 0.5905104848 0.1012076728 -0.0971587425 0.0333080762 -0.3891637300
-0.2625484583 0.8725217097 -0.3766823641 -0.0973947434 0.0349270786 -0.3876655367
0.0365214830 0.5958458876 0.3784783766 -0.0973460259 0.0363271966 -0.3891558574
-0.0843943701 0.9606026677 -0.3809764084 -0.0973426520 0.0349306448 -0.3876640715
-0.3442576956 0.6193841389 0.2011886459 -0.0971566703 0.0363209936 -0.3891638390
0.1473436237 0.5740593876 0.2800702950 -0.0971991590 0.0333048611 -0.3891460458
0.2309718684 0.6086013157 0.2938386095 -0.0974464822 0.0363211223 -0.3891604423
0.4217810449 0.5985528755 -0.0169851111 -0.0968014920 0.0334241308 -0.3891830248
-0.2370885189 1.2212891908 -0.4266171657 -0.0973418210 0.0348007279 -0.3906836369
0.3373863334 0.7843074382 -0.3680189264 -0.0971610448 0.0349262264 -0.3876697190
-0.1359028185 0.5731695143 -0.2362893969 -0.0973989075 0.0333044070 -0.3891986534
-0.1982865284 0.5778805657 0.1031004089 -0.0974370430 0.0333072709 -0.3891648804
-0.2141189097 0.6280308353 -0.3912211716 -0.0972828075 0.0343854085 -0.3906012675
-0.2630838072 0.6114782041 0.0495425323 -0.0971550189 0.0363208286 -0.3891694865
-0.3457363277 0.5921123388 0.3707320402 -0.0974368447 0.0333072633 -0.3891382428
0.3253267654 0.6174814731 -0.2283203269 -0.0974484348 0.0363209330 -0.3891835046
0.0589710116 0.5963465326 0.0766963539 -0.0973570773 0.0363269892 -0.3891695834
-0.4660223728 0.1603171316 0.4159521636 -0.0977367467 0.0349880477 -0.3877401455
-0.0039586036 0.5949285290 0.1085336947 -0.0973025987 0.0363279307 -0.3891677957
-0.3788439455 0.5953314303 0.1230320055 -0.0974504374 0.0333099350 -0.3891628612
0.1847440551 0.6039254646 0.0119382019 -0.0974304328 0.0363225587 -0.3891730482
-0.1614259158 0.6020710698 0.2383385240 -0.0971919101 0.0363239014 -0.3891611431
-0.2635411113 0.5841249640 0.3156128669 -0.0974492098 0.0333083744 -0.3891438207
0.1302632769 0.5922151655 -0.3404009696 -0.0973777691 0.0361628574 -0.3898091092
0.1754303234 0.6185989419 -0.3890465401 -0.0976577119 0.0346288234 -0.3906100907
-0.0802042105 0.5700485858 -0.1726470851 -0.0973661214 0.0333026830 -0.3891920462
-0.2248092885 0.5988876873 0.4176152244 -0.0972047702 0.0359282339 -0.3883915521
-0.3410918883 1.1660682988 -0.4111941262 -0.0974190969 0.0348522366 -0.3894339944
0.3920465270 0.5674316280 -0.3320544114 -0.0965314653 0.0355616577 -0.3901811755
0.4771980268 0.0957399707 0.4036217166 -0.0963777960 0.0348567368 -0.3903243400
0.0743506829 0.9236548404 -0.3781624932 -0.0972970920 0.0349341868 -0.3876631920
0.1053975138 1.0879745742 -0.4171427109 -0.0972567754 0.0347781470 -0.3906817569
-0.0168623941 1.2553530609 -0.3973999129 -0.0973169332 0.0350080266 -0.3876707543
-0.4315547009 0.6188933796 -0.1006159881 -0.0980210746 0.0361331562 -0.3891803456
0.0573550109 0.5962934573 -0.0109844063 -0.0973538395 0.0363270861 -0.3891735280
0.4695340069 0.0518526192 0.4262691259 -0.0979637504 0.0344786037 -0.3879227381
-0.4150232504 0.5980638706 -0.0756831527 -0.0976129799 0.0333456803 -0.3891814672
0.4197065836 0.4795263905 -0.3278647013 -0.0958488498 0.0350396079 -0.3888433874
0.1980063177 0.5781817937 0.3903625011 -0.0971736976 0.0333067699 -0.3891350293
-0.3003748744 0.6149931651 0.2474526979 -0.0971543271 0.0363207559 -0.3891606452
-0.3125502277 1.0701755487 -0.3881636221 -0.0974181024 0.0349381995 -0.3876675393
-0.3084217471 0.6159380997 -0.0093736125 -0.0971541410 0.0363207423 -0.3891722883
0.0681560117 1.2569776880 -0.3971087236 -0.0972975037 0.0350056033 -0.3876702139
0.0512172719 0.9609230664 -0.3803819249 -0.0973012152 0.0349447597 -0.3876642380
0.0688486613 0.7625966036 -0.3688732361 -0.0972838489 0.0349092097 -0.3876619538
-0.3268543179 0.6175750149 0.3090038617 -0.0971552792 0.0363208513 -0.3891583868
-0.0197735172 0.5953035757 0.1769775846 -0.0972896266 0.0363277415 -0.3891646503
0.1669309404 0.9980784875 -0.3819448972 -0.0972780409 0.0349405184 -0.3876639655
-0.0756948239 0.5698564208 -0.2857909133 -0.0973618529 0.0333025074 -0.3892033685
-0.4084411295 0.6220672456 0.2812345106 -0.0975795369 0.0362920961 -0.3891652285
0.0917118292 0.5706877196 0.1844738294 -0.0972307160 0.0333030160 -0.3891556849
-0.1825944840 0.6037970463 -0.1413645060 -0.0971716753 0.0363223468 -0.3891781644
-0.1200831928 0.9006898964 -0.3777226130 -0.0973539409 0.0349180601 -0.3876632314
-0.3008919428 1.1713903510 -0.3938944880 -0.0974190712 0.0349412526 -0.3876679192
-0.2074228533 0.6061045993 -0.0415359490 -0.0971635075 0.0363216218 -0.3891736188
0.1285979759 0.5999633047 0.3235454559 -0.0974039238 0.0363245704 -0.3891587410
-0.3518454265 0.8236653681 -0.4033293663 -0.0974549966 0.0347594047 -0.3906749485
-0.3598330784 0.6210258584 -0.0253941870 -0.0971605211 0.0363213463 -0.3891750946
-0.3129531501 0.9053087911 -0.4080552684 -0.0974212024 0.0347647692 -0.3906773249
-0.4188772949 0.6172329057 0.2690008387 -0.0976324957 0.0362509803 -0.3891529496
0.1793559691 0.6034384456 -0.1867559617 -0.0974229885 0.0363231581 -0.3891819516
-0.1952770651 0.5776239138 0.0387338390 -0.0974348663 0.0333070847 -0.3891712787
0.0381539874 0.5685629076 -0.1273705593 -0.0972631495 0.0333017990 -0.3891821060
0.2940689682 0.5875294302 0.3478900638 -0.0971553489 0.0333084077 -0.3891391843
0.2342177972 0.6538843078 -0.3618573017 -0.0972864282 0.0347908331 -0.3876636794
-0.1511138608 0.5742961756 -0.2683811843 -0.0974070662 0.0333049777 -0.3892018367
0.1059419508 0.5714218741 0.3238573553 -0.0972240862 0.0333033338 -0.3891417364
-0.2948853709 0.5702686054 0.3873418125 -0.0973215529 0.0347425379 -0.3876602373
-0.2354560736 1.2002273288 -0.3952602669 -0.0973982597 0.0349482276 -0.3876678647
-0.1595985445 0.5747043414 0.2254656713 -0.0974184036 0.0333057754 -0.3891527741
-0.1511962362 0.5741789827 0.0179151860 -0.0974107066 0.0333051820 -0.3891734251
-0.0277358619 0.7425372350 -0.3683273716 -0.0973198107 0.0349054528 -0.3876607232
-0.0880504674 0.9174067003 -0.3785412893 -0.0973441036 0.0349206773 -0.3876631421
-0.4354741556 0.3614177484 -0.3403823651 -0.0986778336 0.0349975717 -0.3885868474
-0.3586557424 0.5934875207 0.1708253417 -0.0974343819 0.0333070423 -0.3891581203
0.2860812013 0.5867339766 0.3197870103 -0.0971553489 0.0333084062 -0.3891419801
0.3824628412 0.5956468399 -0.0846874781 -0.0971401985 0.0333122070 -0.3891822876
0.0026348350 0.5783801482 -0.3528431103 -0.0972903834 0.0347481203 -0.3897230449
0.0462463247 0.5960573610 0.2128403720 -0.0973500341 0.0363271330 -0.3891633773
0.4597891061 0.1037892396 -0.3672354536 -0.0987811068 0.0345794293 -0.3893759330
-0.0753823084 0.5697582593 -0.0050798755 -0.0973653237 0.0333026224 -0.3891752430
0.4121891823 0.4649981923 0.3752226543 -0.0966439053 0.0348312784 -0.3905286976
0.1245588806 0.5722025452 -0.1611578924 -0.0972066744 0.0333042693 -0.3891900104
-0.3674820161 0.5945678047 -0.2111175681 -0.0974358123 0.0333071665 -0.3891961468
-0.0616895595 0.5962994151 0.3471285633 -0.0972548016 0.0363272375 -0.3891568171
-0.3110401823 1.0991796540 -0.3898131462 -0.0974189198 0.0349392046 -0.3876676801
-0.3725519665 0.5806789249 0.3662846626 -0.0976928457 0.0359100472 -0.3901054344
-0.2463899505 0.5825127171 0.2091712632 -0.0974487315 0.0333083365 -0.3891544028
-0.0361930877 0.5593401792 0.3662200379 -0.0972762866 0.0355025943 -0.3905145160
-0.0340878459 0.5683957802 0.2648531194 -0.0973375040 0.0333016961 -0.3891544830
0.3492340572 0.6201747881 0.3512442246 -0.0974438303 0.0363213569 -0.3891556546
-0.3236955780 0.6753125311 -0.3948550739 -0.0973908049 0.0346585655 -0.3906666112
-0.1174534823 0.5991163454 -0.0284218506 -0.0972116847 0.0363252576 -0.3891732964
0.3602926106 0.5938742075 0.1456900392 -0.0971678170 0.0333072497 -0.3891593600
0.2273313074 0.5806779077 -0.2454014002 -0.0971593177 0.0333080035 -0.3891982250
-0.4830305886 0.1023949855 0.4140717170 -0.0986218928 0.0350928119 -0.3884950373
-0.0544139413 0.5689469606 -0.1218869909 -0.0973493182 0.0333020109 -0.3891885466
-0.0108379337 0.5678361444 0.2128854567 -0.0973165805 0.0333011648 -0.3891610871
0.2431158780 0.7746183389 -0.3681972323 -0.0972037999 0.0349200249 -0.3876670004
0.0484406460 0.5960611497 -0.1066756822 -0.0973446409 0.0363273283 -0.3891777966
-0.1004620561 0.8370748972 -0.4031294997 -0.0973282358 0.0347416918 -0.3906813165
0.1795291481 0.5761597629 -0.3108047271 -0.0971720401 0.0333068879 -0.3892048095
0.2521636018 0.7379153372 -0.3948175213 -0.0972174502 0.0347462676 -0.3906798119
0.2657070695 0.7025163809 -0.3640716535 -0.0972230644 0.0348640978 -0.3876664298
0.0690489563 0.5694791581 -0.1748246274 -0.0972395634 0.0333025664 -0.3891915997
0.3260149103 0.6924077058 -0.3630807956 -0.0972047354 0.0348525091 -0.3876678117
0.3683291827 0.5946487815 0.1291924708 -0.0971711864 0.0333069500 -0.3891610296
0.0347090214 0.5957836182 0.2618536327 -0.0973419860 0.0363273192 -0.3891611068
0.2504806090 1.1528788362 -0.3903791348 -0.0972646101 0.0349625030 -0.3876659348
-0.1015965174 0.7093975577 -0.3666395850 -0.0973226761 0.0348876959 -0.3876604477
-0.3170996464 1.0225046262 -0.4150780460 -0.0974023617 0.0347770208 -0.3906792715
-0.2325212918 0.8165696679 -0.4024297737 -0.0973972274 0.0347496264 -0.3906777366
0.2149905358 0.6069710516 0.1797339092 -0.0974432793 0.0363214189 -0.3891655585
-0.0929385578 0.5705295062 0.3573128569 -0.0973806814 0.0333033702 -0.3891392600
-0.0275023525 1.2169913411 -0.3952707702 -0.0973209671 0.0349975475 -0.3876698688
-0.0993729217 0.8919833343 -0.3771431330 -0.0973474518 0.0349162588 -0.3876628227
0.2273196658 0.6450944590 -0.3910899621 -0.0972886866 0.0346723717 -0.3906769859
-0.2449174033 0.5823262798 0.2837931724 -0.0974483773 0.0333082987 -0.3891469782
0.2398688396 0.8129846784 -0.3995332651 -0.0972183539 0.0347474437 -0.3906798391
-0.3853116450 0.5959246469 -0.1557984692 -0.0974815388 0.0333145986 -0.3891906764
-0.2300156145 1.0510256389 -0.3867417193 -0.0973929195 0.0349316150 -0.3876659999
-0.0823704003 1.1415012707 -0.3912344723 -0.0973415137 0.0349694613 -0.3876678587
0.3461923967 0.6118910819 -0.3273026421 -0.0974279458 0.0362383305 -0.3896246911
-0.1687394937 0.8297468425 -0.3738670488 -0.0973652057 0.0349187897 -0.3876636658
0.3700798714 0.5947666677 0.0369635165 -0.0971731133 0.0333067790 -0.3891702252
0.3062448981 0.6159826773 0.3543427037 -0.0974492477 0.0363208664 -0.3891577374
-0.3634010694 0.8912134723 -0.3895004930 -0.0974489222 0.0348651043 -0.3888501414
0.1834607047 0.6038739589 0.1027532168 -0.0974316210 0.0363224558 -0.3891689582
-0.1808543834 1.0091325136 -0.3841546095 -0.0973765915 0.0349265246 -0.3876649070
-0.3414415281 0.5917770199 0.2249455333 -0.0974403564 0.0333075752 -0.3891527816
0.0464705719 0.5688362810 0.3643660594 -0.0972636914 0.0333018444 -0.3891386485
0.1786926756 0.6329176981 -0.3596390916 -0.0973864470 0.0344711489 -0.3877164006
0.0650286381 0.5694065867 0.2558151648 -0.0972472877 0.0333022864 -0.3891486402
0.3234091779 1.2782445570 -0.4274740243 -0.0971748359 0.0347710237 -0.3906785676
0.1145055210 0.5718246361 0.2714699775 -0.0972183554 0.0333036048 -0.3891469328
-0.1459582791 0.7825317573 -0.3710812576 -0.0973564294 0.0349153658 -0.3876629998
0.3420077211 0.5861990545 -0.3202057749 -0.0973242715 0.0363091037 -0.3890452883
0.1315402291 1.1557389577 -0.3910772261 -0.0972862072 0.0349768223 -0.3876673698
-0.2387709804 0.5819810282 -0.1595980745 -0.0974477174 0.0333082624 -0.3891910714
-0.4622060929 0.1943342187 0.4127780190 -0.0980543451 0.0350306742 -0.3878854700
-0.2243130316 0.5804425516 0.0634177376 -0.0974447884 0.0333079763 -0.3891688659
-0.1716681239 1.2976938936 -0.4212722101 -0.0973336517 0.0348807118 -0.3897323903
0.3614428307 0.5940101548 0.1870656118 -0.0971677110 0.0333072588 -0.3891552413
-0.1815556019 0.6036902008 -0.0753296562 -0.0971736855 0.0363225103 -0.3891751976
-0.0412012379 1.2761708359 -0.4289940326 -0.0973041442 0.0348368956 -0.3906843120
0.1942396029 0.6047473408 -0.1402837149 -0.0974311820 0.0363224800 -0.3891799157
-0.1753365984 0.5758011153 0.3525021666 -0.0974293323 0.0333066352 -0.3891400925
-0.0622269474 1.0445821914 -0.4153190375 -0.0973077301 0.0347832329 -0.3906832797
-0.1524738514 1.1773176322 -0.4236197785 -0.0973254098 0.0348014227 -0.3906836400
0.0394945697 0.5958235291 -0.2313894151 -0.0973317657 0.0363274857 -0.3891833593
0.2714799473 0.5851933294 0.1174417990 -0.0971553489 0.0333083956 -0.3891621043
0.0685431481 0.5968697207 0.3848856549 -0.0973695756 0.0363264564 -0.3891557257
0.3083705412 0.6159212859 -0.0772781014 -0.0974492462 0.0363208543 -0.3891771820
-0.1783811062 0.6786271034 -0.3944471230 -0.0973224324 0.0346523534 -0.3906705588
0.3413769019 0.5919419767 -0.0055376080 -0.0971624404 0.0333077311 -0.3891743681
-0.4576360020 0.1766359885 -0.3505845200 -0.0976103704 0.0347308947 -0.3876991084
0.4204216143 0.3368935178 -0.3388050568 -0.0986348665 0.0345266733 -0.3885500350
0.1365625775 0.5731331604 -0.0393295834 -0.0972012540 0.0333046644 -0.3891778707
0.3354439868 0.5912308270 -0.2361648143 -0.0971632200 0.0333076645 -0.3891973290
0.1728180095 1.0424466626 -0.4141319489 -0.0972312231 0.0347529247 -0.3906803265
-0.3499665027 0.5632915755 -0.3685867391 -0.0972738784 0.0344999480 -0.3887066560
0.2255500365 0.5808107611 0.2889379344 -0.0971611038 0.0333078824 -0.3891450786
-0.0381028510 0.5685715461 -0.2778643639 -0.0973310058 0.0333016718 -0.3892001050
-0.2772181590 0.5855154369 0.2177814651 -0.0974492083 0.0333083804 -0.3891535506
-0.2597383303 0.9063149794 -0.4079034109 -0.0973946950 0.0347608321 -0.3906786403
0.4060244212 0.5217923904 0.3915551267 -0.0962809619 0.0350704262 -0.3880921299
-0.2597981279 0.8382812881 -0.3747169718 -0.0973924411 0.0349255709 -0.3876652930
-0.1963245388 0.6048813022 0.1841881694 -0.0971724367 0.0363223983 -0.3891634909
-0.3243523354 0.5900902157 0.2591164335 -0.0974465352 0.0333081276 -0.3891494304
-0.2173542489 0.5996811081 -0.3394888605 -0.0971710623 0.0361762065 -0.3897691634
-0.3434717811 0.5919396214 0.2867105273 -0.0974387867 0.0333074359 -0.3891466210
0.0414441230 1.0175000150 -0.4132404076 -0.0972807822 0.0347770042 -0.3906826303
-0.1718847544 0.6028539584 0.2002916129 -0.0971851636 0.0363234321 -0.3891628339
-0.0539230837 0.9856977807 -0.4117802271 -0.0973060090 0.0347712659 -0.3906830481
-0.3282816290 0.8425557622 -0.4043648002 -0.0974399719 0.0347595410 -0.3906758536
0.4219206870 0.5986475738 0.1792028212 -0.0969210145 0.0333690347 -0.3891586910
-0.0250070060 0.5954721820 -0.0861755585 -0.0972743764 0.0363276265 -0.3891764781
0.3281510401 0.6177400186 -0.2555590306 -0.0974482865 0.0363209467 -0.3891846429
0.3663072897 0.9756405188 -0.3883522527 -0.0971559649 0.0348840525 -0.3885928885
-0.1748844787 0.5760491757 -0.3007679512 -0.0974200399 0.0333058829 -0.3892050472
-0.1226364115 1.0324925044 -0.4148735386 -0.0973193596 0.0347731458 -0.3906830920
0.3389789949 0.6190254928 0.1121894529 -0.0974470695 0.0363210723 -0.3891675081
-0.2710473917 0.6123882637 -0.1642267384 -0.0971548388 0.0363208165 -0.3891791543
-0.2154216488 0.5797828622 -0.2986347958 -0.0974378967 0.0333073950 -0.3892048670
-0.4335325022 0.6189835021 0.0985180528 -0.0980212063 0.0361384737 -0.3891532539
-0.4343838950 0.6177577573 0.0793999709 -0.0980570001 0.0359569967 -0.3891545950
-0.3191264346 0.6570520783 -0.3938948407 -0.0973691503 0.0346316767 -0.3906645041
0.4083750260 0.5975675683 -0.0272859286 -0.0969573184 0.0333680100 -0.3891799656
0.2103578985 0.6062499238 -0.2526040746 -0.0974352674 0.0363221031 -0.3891850031
0.2415790876 0.5821476031 -0.1066550570 -0.0971565189 0.0333082730 -0.3891844022
0.2529149863 0.9396867781 -0.4072242663 -0.0972094096 0.0347525160 -0.3906795697
0.2526669275 1.1510421801 -0.4202285388 -0.0972013069 0.0347589673 -0.3906793260
0.0639929317 0.7734600812 -0.3984976041 -0.0972743582 0.0347301606 -0.3906815223
-0.2372870126 0.9802596905 -0.3827313929 -0.0973919825 0.0349294187 -0.3876657183
0.1881779455 0.6043185724 0.1208373966 -0.0974340625 0.0363222469 -0.3891681590
0.2465488678 0.7161635290 -0.3649152221 -0.0972184735 0.0348831337 -0.3876663844
0.0050943182 0.9340515323 -0.3790645486 -0.0973096494 0.0349443768 -0.3876642107
0.3559655213 0.5842713980 -0.3875068193 -0.0972907997 0.0346368216 -0.3906737678
-0.3648528869 0.6215075644 -0.0061459764 -0.0971612310 0.0363214114 -0.3891744438
-0.2074111769 0.8853703572 -0.3771960933 -0.0973790376 0.0349236637 -0.3876646557
-0.2629540266 0.6500964819 -0.3933122152 -0.0973339711 0.0346173028 -0.3906650309
0.1024280069 0.7294421453 -0.3956342737 -0.0972691799 0.0347265611 -0.3906809502
-0.0243679524 0.7709917280 -0.3988757175 -0.0973023687 0.0347291858 -0.3906820188
0.4532559979 0.1757071972 -0.3476185234 -0.0981456951 0.0345587647 -0.3879434315
-0.1047935759 0.5907817800 0.4057849608 -0.0972393273 0.0361682763 -0.3885451700
-0.4293423759 0.6627840052 -0.3661847376 -0.0978160706 0.0350100368 -0.3878602553
0.2335350788 0.6086824772 0.0226040638 -0.0974466411 0.0363210996 -0.3891726637
-0.2368624128 0.6089220367 0.0463272750 -0.0971574453 0.0363210557 -0.3891696167
-0.1197271502 0.8349686549 -0.3739698422 -0.0973509741 0.0349155156 -0.3876628469
0.2112726474 0.5794534557 0.3509765789 -0.0971677746 0.0333072951 -0.3891389270
0.4342615753 0.6098198553 -0.1391331951 -0.0964940988 0.0349269862 -0.3892028463
0.3031758901 0.9809797557 -0.4093656591 -0.0971922431 0.0347583739 -0.3906790535
0.0309810733 1.2533751445 -0.4273125459 -0.0972852112 0.0348313843 -0.3906838246
-0.0680541084 0.7747363628 -0.3703259239 -0.0973331068 0.0349095442 -0.3876616057
-0.0533422187 0.5688497708 0.3736992841 -0.0973543693 0.0333022152 -0.3891397262
0.4846077971 0.0420291362 0.4279365294 -0.0965019275 0.0349662645 -0.3879070141
0.0973155815 1.1328505101 -0.4198474147 -0.0972599178 0.0347898643 -0.3906820960
0.4149135396 0.5981544562 0.2247965124 -0.0970211362 0.0333308887 -0.3891512392
0.3816786600 0.6229585055 -0.0971495311 -0.0973324725 0.0363170308 -0.3891736476
-0.2365454442 0.5575081883 0.3834794761 -0.0974211040 0.0336147337 -0.3882712850
0.0540131607 0.7501112234 -0.3682566348 -0.0972886972 0.0349070255 -0.3876615648
-0.2252154578 0.6076838194 0.2100237186 -0.0971615716 0.0363214235 -0.3891622663
-0.2887457156 0.5866881532 0.1339659748 -0.0974492083 0.0333083850 -0.3891618864
-0.4446583595 0.6218845971 -0.3722293283 -0.0979159123 0.0349181222 -0.3886888961
0.0380387335 0.8707975814 -0.4045328994 -0.0972817691 0.0347454139 -0.3906820688
-0.0419833409 1.0357262391 -0.3850482746 -0.0973267357 0.0349559125 -0.3876659742
0.2463775581 0.5683755469 -0.3861122397 -0.0974324293 0.0339137336 -0.3902355405
0.1144661883 1.2219838490 -0.4250699779 -0.0972536224 0.0348056625 -0.3906821596
-0.2871327407 0.6567632291 -0.3937524724 -0.0973530146 0.0346288279 -0.3906652504
-0.2210056992 1.0160541568 -0.3847096620 -0.0973887387 0.0349296367 -0.3876656427
-0.0602067072 1.1021357648 -0.3888999230 -0.0973333626 0.0349659875 -0.3876672138
0.0239474108 0.5682782179 0.3035828170 -0.0972844226 0.0333014645 -0.3891475519
0.2381332785 0.5819025928 0.0522312276 -0.0971569867 0.0333082381 -0.3891686040
-0.3236252725 0.6173135601 0.2127130163 -0.0971550779 0.0363208331 -0.3891626553
0.2887927393 0.5869747834 0.2784440967 -0.0971553489 0.0333084046 -0.3891460912
0.2390370549 1.0904912922 -0.4166117001 -0.0972078717 0.0347558673 -0.3906795228
-0.2639586316 0.5948173878 -0.3605492996 -0.0971179294 0.0347728083 -0.3876878013
-0.2299474570 0.9804369822 -0.4122159220 -0.0973667436 0.0347661209 -0.3906806626
0.1978146143 0.6050517566 -0.2114726465 -0.0974311548 0.0363224755 -0.3891831262
0.1103471304 0.9924189443 -0.4114387263 -0.0972547123 0.0347559566 -0.3906812589
-0.3395710112 1.1855350971 -0.3982546176 -0.0974381676 0.0349236229 -0.3880228523
0.0387383581 0.5685889609 -0.0453515372 -0.0972636081 0.0333017778 -0.3891741380
0.1042585433 0.5985131492 0.0676523477 -0.0973839676 0.0363257374 -0.3891701616
0.4231092015 0.6179612386 0.0390873583 -0.0967933243 0.0361946127 -0.3891666166
0.1406732270 0.6007714610 0.1622771307 -0.0974076036 0.0363242995 -0.3891660565
-0.2808097072 0.6134026273 -0.2636686797 -0.0971546390 0.0363207983 -0.3891836862
0.2639349457 1.2419567431 -0.4255842717 -0.0971972215 0.0347764123 -0.3906795031
0.3094978019 0.6880204723 -0.3922459947 -0.0972336193 0.0347132665 -0.3906776458
0.4013215012 0.5972254575 0.3768743520 -0.0970610457 0.0333243391 -0.3891361600
-0.0109189332 1.0967302867 -0.3883701080 -0.0973150638 0.0349756886 -0.3876674939
0.1583900965 0.7476876324 -0.3961629322 -0.0972461176 0.0347379984 -0.3906806732
0.1604263316 0.5749041293 0.0189763448 -0.0971879806 0.0333056255 -0.3891720446
-0.4331218419 0.6180197661 -0.1351482847 -0.0980753533 0.0359797366 -0.3891825283
0.3409188016 0.8990128856 -0.3747374063 -0.0971790620 0.0349390683 -0.3876694072
0.2858024468 0.7728530978 -0.3966998690 -0.0972056799 0.0347504120 -0.3906794577
0.1142670468 1.2838195648 -0.3984244727 -0.0972890711 0.0350059817 -0.3876702397
-0.2436720490 1.2194155799 -0.3963865090 -0.0974012704 0.0349504905 -0.3876681992
0.0451683990 0.5959642808 -0.2160440876 -0.0973380171 0.0363274161 -0.3891827039
0.0781881330 1.2385056226 -0.4262157720 -0.0972673544 0.0348174752 -0.3906828952
0.0878071221 0.9889716110 -0.3818090513 -0.0972945082 0.0349464899 -0.3876643984
-0.2685349710 0.5847718130 0.0373844789 -0.0974492083 0.0333083910 -0.3891714921
-0.3210859191 0.5899890525 -0.1200074223 -0.0974467971 0.0333081746 -0.3891871374
0.3617257206 1.0319069561 -0.3964949604 -0.0971552656 0.0348565930 -0.3890681659
0.3078497552 1.2427497945 -0.3952170713 -0.0972536239 0.0349751709 -0.3876671972
0.4165312387 0.5980367562 -0.3237148917 -0.0966754956 0.0334881091 -0.3892194422
-0.2334803868 0.6012543673 -0.3454912697 -0.0971739443 0.0361370766 -0.3898596749
0.2241177590 0.6780534722 -0.3631621509 -0.0972670714 0.0348258428 -0.3876642940
-0.0707923945 0.7227510537 -0.3962947745 -0.0973160674 0.0347083229 -0.3906785449
-0.0555159117 0.9003359624 -0.3774251949 -0.0973320533 0.0349242162 -0.3876630437
-0.1063409075 0.5712935935 0.0375994640 -0.0973849091 0.0333035639 -0.3891712151
0.2830254273 0.6135760380 0.1274079682 -0.0974492477 0.0363208589 -0.3891679607
0.0708358278 0.5968810385 0.0620116512 -0.0973640856 0.0363267001 -0.3891702903
-0.2653522802 0.6116877385 0.0685575106 -0.0971549780 0.0363208241 -0.3891686343
0.3565246955 1.0967434057 -0.3865078073 -0.0972049458 0.0349598783 -0.3876953772
-0.4160327415 0.6418902424 -0.3926950796 -0.0977417100 0.0347136177 -0.3905382458
0.0474159001 1.1088631179 -0.4186459069 -0.0972787115 0.0347958100 -0.3906829089
-0.0817634744 0.7493927748 -0.3978131450 -0.0973346159 0.0347313413 -0.3906802402
-0.0929392419 0.5978835773 -0.0065031224 -0.0972269864 0.0363260750 -0.3891725199
-0.1781182361 0.5603556524 0.3636973152 -0.0973124906 0.0345644107 -0.3906495672
-0.3529820645 1.0129027400 -0.4146469784 -0.0974218260 0.0347787661 -0.3906782286
0.3610658450 0.8917689047 -0.4034180810 -0.0971777648 0.0347609320 -0.3906786176
0.2170791075 0.6073013829 0.3829617857 -0.0974439286 0.0363213644 -0.3891564084
0.2464308892 1.2409604406 -0.3953966032 -0.0972651566 0.0349816540 -0.3876678178
-0.1187339946 0.8384439820 -0.4032841378 -0.0973370317 0.0347432175 -0.3906808957
-0.1110577230 0.5988349344 -0.1487029536 -0.0972130621 0.0363253166 -0.3891787653
0.3775044242 0.5953201126 -0.0008409696 -0.0971537550 0.0333099456 -0.3891739594
-0.0188764040 0.7242357618 -0.3670391441 -0.0973033677 0.0348529541 -0.3876627137
0.0923248869 0.9126991137 -0.4067798102 -0.0972613558 0.0347424319 -0.3906812514
0.2821961841 1.0151425729 -0.4116338127 -0.0971974198 0.0347575036 -0.3906792094
0.1643479584 0.5752968663 0.2649082745 -0.0971890008 0.0333055589 -0.3891475564
0.0245510112 0.5682381208 -0.0788132752 -0.0972744702 0.0333014584 -0.3891745709
0.1491943221 0.8254792965 -0.4010215530 -0.0972459542 0.0347395408 -0.3906806686
-0.2514554098 0.6752467515 -0.3945638709 -0.0973549944 0.0346529861 -0.3906683655
-0.2360386551 0.5815769281 0.0801332005 -0.0974469499 0.0333081761 -0.3891672220
-0.2452058590 0.5825111459 0.0106504633 -0.0974487285 0.0333083471 -0.3891741471
0.1271462735 1.2765636652 -0.4282581420 -0.0972489452 0.0348148459 -0.3906821596
0.3803505018 0.7732999288 -0.3959769748 -0.0971763768 0.0347590657 -0.3906785767
0.1942440137 0.6047720545 -0.1012457689 -0.0974319722 0.0363224134 -0.3891781598
0.2692365119 0.6122834496 0.2119217207 -0.0974492477 0.0363208619 -0.3891641538
0.1836123124 0.6037786159 -0.1251337054 -0.0974268257 0.0363228539 -0.3891792043
0.1565163706 0.5747390332 0.3000786665 -0.0971940504 0.0333052169 -0.3891440523
-0.3816136660 0.6228637618 0.3595187382 -0.0972568662 0.0363176332 -0.3891593131
0.3040391092 0.6155656868 0.0303510934 -0.0974492462 0.0363208574 -0.3891723337
0.2789630972 0.5860479099 0.3344612717 -0.0971553489 0.0333084077 -0.3891405194
0.3438784227 0.8830615101 -0.4030188277 -0.0971834259 0.0347590944 -0.3906787886
-0.1442376201 0.6007671183 0.3377923354 -0.0972037364 0.0363247066 -0.3891566990
0.1115316260 0.5987682769 -0.2523219703 -0.0973814368 0.0363258767 -0.3891846096
-0.1767322905 0.6032739036 0.0604429193 -0.0971793738 0.0363229674 -0.3891691081
0.1057315173 0.5713413120 0.0788097559 -0.0972210634 0.0333034822 -0.3891661731
-0.0869181282 0.5702405662 0.3160603442 -0.0973765098 0.0333031462 -0.3891432682
-0.3691350519 0.8210507202 -0.3749165008 -0.0974255012 0.0349280609 -0.3877449802
0.4142933448 0.3679893599 0.3845833174 -0.0983970598 0.0345542070 -0.3901688815
0.2313913519 0.9430687011 -0.3781978511 -0.0972382284 0.0349379619 -0.3876660483
0.2378097844 0.6242640267 -0.3893582367 -0.0973137590 0.0345605614 -0.3906557112
-0.0954527601 0.5979300939 0.2417074204 -0.0972308644 0.0363262279 -0.3891613142
0.1955617321 1.2794308071 -0.3978091928 -0.0972743143 0.0349956781 -0.3876692089
-0.1467279957 0.5933573011 0.4027826572 -0.0972129062 0.0361853384 -0.3885876512
0.0318348002 1.1042783141 -0.4184434837 -0.0972845861 0.0347983076 -0.3906831753
0.0336947380 0.8456028749 -0.3739156543 -0.0973046437 0.0349223181 -0.3876620356
0.1453481078 0.6010145777 -0.0494422078 -0.0974058144 0.0363243888 -0.3891756123
0.3359802939 0.5912594218 -0.2774876324 -0.0971639859 0.0333075963 -0.3892014477
0.4159265182 0.5980657188 -0.1536911884 -0.0967878599 0.0334371650 -0.3891981176
0.3991386247 0.5968358614 -0.1572029148 -0.0969887967 0.0333642212 -0.3891931194
0.2037712517 1.0980831116 -0.4173006261 -0.0972196481 0.0347582256 -0.3906799950
-0.3319317518 0.7281223032 -0.3686839152 -0.0974026251 0.0349186338 -0.3876654186
-0.4317335864 0.3893523576 -0.3444109979 -0.0987738472 0.0350759935 -0.3892639108
0.0914218946 0.6540727326 -0.3612901566 -0.0973123377 0.0344237256 -0.3877190374
-0.1277546495 1.1058258909 -0.4192570620 -0.0973204949 0.0347886912 -0.3906833917
-0.2095300296 0.6060985022 0.2983423880 -0.0971695365 0.0363221273 -0.3891583277
0.2151788439 0.5794379814 -0.3400445350 -0.0971616775 0.0333077780 -0.3892076582
0.1395748365 0.5666826456 0.3676545784 -0.0973750400 0.0356206954 -0.3904467959
0.0949112868 0.5979815088 -0.1754081444 -0.0973732690 0.0363262536 -0.3891810827
-0.4064653852 0.5163457995 0.3903042975 -0.0977490937 0.0349889529 -0.3877639889
-0.0203960445 0.5953832584 -0.2373048943 -0.0972745852 0.0363275977 -0.3891833093
-0.0536072548 1.1173734492 -0.3897349030 -0.0973308786 0.0349706723 -0.3876675847
0.2714317444 1.0005752493 -0.4108230847 -0.0972013175 0.0347560731 -0.3906793260
-0.2795558537 0.6129871172 0.2071427191 -0.0971547222 0.0363207953 -0.3891624177
-0.1244203752 1.2979389039 -0.4161582877 -0.0973267388 0.0349147997 -0.3892448567
-0.1186216863 1.1742190607 -0.3932554526 -0.0973549112 0.0349684230 -0.3876682522
-0.1221241596 0.5498077675 0.3884186771 -0.0973575692 0.0342460433 -0.3877984703
0.2232056680 0.7191373786 -0.3652511752 -0.0972265050 0.0348862382 -0.3876658137
0.2459367560 0.6098179148 -0.0970034437 -0.0974488708 0.0363208876 -0.3891780690
0.0360067018 0.5684957430 -0.2302837620 -0.0972636929 0.0333017914 -0.3891918177
0.1544229475 0.6016011886 -0.2150518508 -0.0974076233 0.0363242359 -0.3891831126
0.0515387785 0.5961042015 -0.3155760892 -0.0973402574 0.0363273465 -0.3891872222
0.3163372211 0.7535663627 -0.3663779168 -0.0971656872 0.0349216899 -0.3876692149
-0.0695432681 0.7099347897 -0.3665442071 -0.0973135638 0.0348858431 -0.3876599210
-0.1066802921 0.5713385874 -0.0573790003 -0.0973839479 0.0333035049 -0.3891806528
0.1457529708 0.8752855632 -0.4041128861 -0.0972450929 0.0347407518 -0.3906806429
0.1247914425 1.2411485414 -0.3959551991 -0.0972872501 0.0349957175 -0.3876692285
0.2587554692 0.6111926819 0.1024116616 -0.0974492477 0.0363208589 -0.3891690869
-0.3769386459 0.6225016963 0.2818718431 -0.0972100348 0.0363194406 -0.3891621270
-0.3418914757 1.1207105646 -0.4210478130 -0.0973971214 0.0347889047 -0.3906803840
-0.3287765463 0.9006386223 -0.4078391193 -0.0974298636 0.0347654942 -0.3906768572
-0.2523399701 0.5831047334 0.1891702361 -0.0974492083 0.0333083819 -0.3891563963
0.1565928216 0.5747032788 0.2040039596 -0.0971927380 0.0333052910 -0.3891536247
0.1837696009 0.7173278384 -0.3944783940 -0.0972523434 0.0347245721 -0.3906797907
-0.3971785394 0.4843250245 -0.3446026664 -0.0964877626 0.0347907029 -0.3904358097
-0.1445011229 0.6008229197 0.2595599843 -0.0972019805 0.0363245976 -0.3891602228
0.0912047858 0.7143512627 -0.3660562815 -0.0972934774 0.0348720082 -0.3876617767
-0.1658290215 0.6148663165 -0.3737290399 -0.0969727018 0.0346260125 -0.3889608164
0.1622028677 1.2976545367 -0.4205526232 -0.0972587810 0.0348728634 -0.3898089578
0.2253611289 0.5804401963 -0.3246852680 -0.0971597688 0.0333079566 -0.3892061143
0.4338528070 0.2630144925 -0.3437870220 -0.0985791347 0.0345279569 -0.3884318657
-0.3122061083 0.6163289900 -0.0337576923 -0.0971543196 0.0363207620 -0.3891734796
0.1067350491 0.5987052688 0.2967253367 -0.0973903720 0.0363253696 -0.3891598550
-0.1113930949 1.0331146397 -0.3852141214 -0.0973525272 0.0349400840 -0.3876653672
-0.4169737739 0.4997128847 0.3833142877 -0.0987438326 0.0350972484 -0.3888380063
-0.2582070830 1.0663979310 -0.3877314843 -0.0974019061 0.0349342034 -0.3876665766
0.0322634308 0.5956719683 -0.0719192095 -0.0973311254 0.0363275614 -0.3891761376
0.3091148584 0.5889137576 0.2023765594 -0.0971555411 0.0333083819 -0.3891536580
-0.3925030576 0.6240803155 -0.2957995682 -0.0974218427 0.0363111335 -0.3891996176
-0.3031025119 0.6154429054 -0.0475101617 -0.0971542378 0.0363207529 -0.3891739927
0.1749468858 0.7569614047 -0.3966020390 -0.0972406306 0.0347397951 -0.3906805082
-0.2283981470 0.9471224623 -0.4102181190 -0.0973719158 0.0347626107 -0.3906801192
0.3273197398 0.5903861776 -0.3267961634 -0.0971612567 0.0333078416 -0.3892063338
-0.2917344386 1.0966248732 -0.4194080824 -0.0973766006 0.0347826441 -0.3906811863
-0.2575970162 1.0246472678 -0.3853459349 -0.0973999081 0.0349325596 -0.3876663253
-0.3149185712 0.6166317423 -0.0831091374 -0.0971545527 0.0363207862 -0.3891758076
0.1655913495 0.5754461641 0.4004007316 -0.0971900619 0.0333055090 -0.3891340560
-0.0627372874 1.0215035193 -0.3843349452 -0.0973344766 0.0349483275 -0.3876655125
0.3234475646 0.5901198715 -0.1326129046 -0.0971579584 0.0333081367 -0.3891869830
-0.2804247763 1.1299053006 -0.4213526072 -0.0973650725 0.0347851765 -0.3906820445
0.2246745537 0.6076111556 -0.3096136605 -0.0974397600 0.0363216959 -0.3891875976
0.2276294869 1.0040723794 -0.4113858614 -0.0972147498 0.0347521785 -0.3906797301
-0.0750019139 0.9912799965 -0.3826750556 -0.0973390979 0.0349392182 -0.3876647859
-0.2996595440 0.6148526435 0.3610061239 -0.0971543544 0.0363207559 -0.3891555244
-0.1128548466 0.8688556964 -0.4050788047 -0.0973287020 0.0347458695 -0.3906815708
-0.1940934126 0.8634904077 -0.3758941322 -0.0973741560 0.0349218806 -0.3876643000
-0.3537574468 0.5932481004 -0.2447715165 -0.0974400900 0.0333075540 -0.3891995238
0.1437463916 0.5736867446 0.0257269796 -0.0971979057 0.0333049050 -0.3891713892
-0.0183204131 0.6450786154 -0.3852045959 -0.0972949002 0.0342128697 -0.3900701871
-0.0852242128 0.5702945195 -0.1552900166 -0.0973694561 0.0333028313 -0.3891903222
0.2269646449 0.5808206922 0.0656906911 -0.0971590468 0.0333080459 -0.3891672826
0.0864483379 0.5704456186 0.2354155806 -0.0972344427 0.0333028570 -0.3891506156
-0.0393510299 1.1754568634 -0.4229972648 -0.0973035826 0.0348149095 -0.3906838882
0.2610432294 0.6115462012 0.3116537555 -0.0974492477 0.0363208649 -0.3891596598
0.4069877409 0.6412059770 -0.3895808386 -0.0971110422 0.0347275132 -0.3906450747
-0.1457367624 0.5738002880 -0.0302428251 -0.0974070299 0.0333049353 -0.3891782052
-0.1684473250 0.6257709539 -0.3618025220 -0.0970522270 0.0347370009 -0.3876900794
-0.2625302700 0.6115426910 -0.1407382838 -0.0971550068 0.0363208331 -0.3891780614
0.2315498650 0.6085819604 0.1721976596 -0.0974464429 0.0363211223 -0.3891659218
0.2696168927 0.6120780732 -0.1773649723 -0.0974492462 0.0363208513 -0.3891816912
-0.0647076476 0.5693256098 -0.3487715438 -0.0973542285 0.0333021713 -0.3892096472
-0.0131225333 1.0603633895 -0.3863160055 -0.0973159614 0.0349674890 -0.3876667189
-0.3313581206 0.5703163693 -0.3377064013 -0.0973039353 0.0347473150 -0.3906797135
0.1175619186 0.5991905789 0.1591064055 -0.0973938428 0.0363252046 -0.3891660974
-0.1487452221 1.2880442436 -0.3998521168 -0.0973658581 0.0349859376 -0.3876703850
0.2464415137 0.6097468692 -0.2900696272 -0.0974487300 0.0363208967 -0.3891867650
-0.2326669751 0.5814711437 -0.3088013068 -0.0974446749 0.0333080020 -0.3892059039
-0.1406820063 0.5734863104 -0.1599234395 -0.0974025555 0.0333046462 -0.3891910745
-0.1845592814 0.7772109070 -0.3709313361 -0.0973675852 0.0349178982 -0.3876636386
0.2359894351 0.5818427711 0.3124872264 -0.0971572621 0.0333082291 -0.3891427203
0.1984480204 1.1774156545 -0.4220416816 -0.0972218187 0.0347769224 -0.3906804310
-0.0270436331 0.7027471642 -0.3943639786 -0.0972890438 0.0345157764 -0.3906270196
-0.4219007323 0.4440258079 0.3732291259 -0.0982216602 0.0348867423 -0.3903321611
0.1861209686 0.6841148995 -0.3637708584 -0.0972789264 0.0348326906 -0.3876634130
-0.2553643309 1.1998610129 -0.3953295552 -0.0974056570 0.0349437698 -0.3876676982
-0.4512288630 0.1778702794 0.4122260984 -0.0961494451 0.0346802231 -0.3882315980
0.2378491414 0.5817380039 -0.1862345522 -0.0971572985 0.0333081958 -0.3891923232
-0.0531306438 0.8481630141 -0.4035988996 -0.0973055776 0.0347410288 -0.3906824653
-0.0524339648 0.5689024314 -0.1479148459 -0.0973474064 0.0333019504 -0.3891915316
0.4175550734 0.6188069975 -0.3886041744 -0.0970447283 0.0347373415 -0.3906252758
0.1287252620 0.5999636740 0.3043279652 -0.0974035863 0.0363245976 -0.3891596053
-0.3247464362 0.5901723944 0.1828088750 -0.0974464217 0.0333081216 -0.3891570199
-0.1735160523 0.7556027597 -0.3985499438 -0.0973789029 0.0347389384 -0.3906781105
-0.0740950345 1.0820933948 -0.4176031392 -0.0973100960 0.0347900490 -0.3906834129
0.1670688737 0.5755467279 0.3828426053 -0.0971889645 0.0333055816 -0.3891358043
0.1786572905 0.8989520951 -0.3760216166 -0.0972555054 0.0349302255 -0.3876646679
0.0024617241 0.5949265431 -0.1912067572 -0.0972967106 0.0363279323 -0.3891813204
-0.2603735952 0.6111154923 0.2074621475 -0.0971550915 0.0363208301 -0.3891623647
-0.3824758679 0.5957449076 -0.2202537886 -0.0974743443 0.0333133831 -0.3891970898
-0.0797377745 0.5972748849 -0.1675117472 -0.0972316409 0.0363263051 -0.3891798824
0.2443480679 0.6429932981 -0.3908663037 -0.0972848615 0.0346722930 -0.3906767573
-0.1556889180 0.6636645483 -0.3639697305 -0.0973057320 0.0348228139 -0.3876613771
0.0408071144 1.2943356217 -0.4297037701 -0.0972815845 0.0348382064 -0.3906838186
0.3846313984 0.7494885795 -0.3774207220 -0.0971490217 0.0348564719 -0.3889007010
-0.2480261618 0.9264210961 -0.4090587427 -0.0973853163 0.0347619916 -0.3906792776
-0.3270967186 0.7115459286 -0.3676672584 -0.0973905778 0.0349053559 -0.3876644665
-0.1767120225 1.0293149420 -0.4149258692 -0.0973316930 0.0347670594 -0.3906828165
-0.2057991026 1.2575591722 -0.4286321867 -0.0973358586 0.0348125709 -0.3906838609
0.3460039265 0.5923605369 -0.0627646160 -0.0971650242 0.0333075025 -0.3891800852
-0.3687385504 0.5622969365 -0.3680759676 -0.0972905091 0.0345965535 -0.3886140648
-0.2017862922 1.2537228906 -0.3981441484 -0.0973856372 0.0349669850 -0.3876692482
-0.1285083318 1.1424360425 -0.3914962994 -0.0973586515 0.0349595059 -0.3876675105
0.1288680465 0.5725810082 -0.0142049054 -0.0972060916 0.0333043344 -0.3891753671
-0.4956354020 0.0280629048 0.4058801192 -0.0984751697 0.0346608466 -0.3900862623
-0.4239646600 0.4031534218 0.3992149432 -0.0977042088 0.0349912188 -0.3877260396
0.3105681078 0.5890398660 0.1749483488 -0.0971557939 0.0333083562 -0.3891563857
-0.4762393269 0.0481539409 -0.3871603749 -0.0972027843 0.0349106598 -0.3906739721
-0.3313683515 0.9374922145 -0.3806650585 -0.0974178754 0.0349344471 -0.3876671033
-0.1831714528 0.7688330581 -0.3993793506 -0.0973813217 0.0347410182 -0.3906781060
0.1218428606 1.0984238343 -0.4176899391 -0.0972505860 0.0347767484 -0.3906814996
0.2485224641 0.7849680979 -0.3977410413 -0.0972167570 0.0347473756 -0.3906797907
0.0729734803 0.7285428494 -0.3669200833 -0.0972879071 0.0348918948 -0.3876617798
-0.4157208194 0.3415604065 -0.3498870191 -0.0958394787 0.0345977568 -0.3894411404
-0.0742941685 0.5695814293 0.4112308131 -0.0973699980 0.0333028101 -0.3891336276
-0.0730931541 1.2644735180 -0.4284428280 -0.0973102731 0.0348303974 -0.3906841909
-0.2608117180 0.5839139523 0.2192269085 -0.0974492083 0.0333083804 -0.3891534068
0.3911927774 0.6239474167 0.1939891487 -0.0972005001 0.0363118616 -0.3891540713
-0.1252959913 0.9224695137 -0.3789865612 -0.0973564279 0.0349192650 -0.3876634463
0.1126554235 1.0932390691 -0.3876150089 -0.0972897719 0.0349657423 -0.3876662860
-0.2136005941 0.6065772051 0.1674413857 -0.0971652907 0.0363217610 -0.3891642068
0.2547609969 0.8020635042 -0.3987432138 -0.0972141640 0.0347484700 -0.3906797120
0.4402795799 0.3237222557 -0.3339096372 -0.0964575225 0.0348391676 -0.3879160522
0.2464830412 0.5827005394 0.0232657406 -0.0971554669 0.0333083789 -0.3891714709
0.4014340290 0.6249126769 0.3285897934 -0.0970736545 0.0363065713 -0.3891399048
-0.2880321062 0.7234348575 -0.3682269744 -0.0973866710 0.0349118647 -0.3876644120
0.0432339507 0.5687247235 0.1368601871 -0.0972620959 0.0333018081 -0.3891570835
-0.1136731369 0.6937736951 -0.3949707138 -0.0973065055 0.0346694579 -0.3906739782
-0.1980244953 0.6051361059 0.0412967497 -0.0971688841 0.0363220940 -0.3891699134
0.2895388124 0.6142422423 0.1767868985 -0.0974492477 0.0363208604 -0.3891657356
-0.3589311956 0.6210138490 -0.2084021263 -0.0971621634 0.0363214886 -0.3891836741
-0.3007386958 1.1144213118 -0.3906421003 -0.0974165448 0.0349390578 -0.3876675892
0.3398685443 0.6190020264 -0.0648290054 -0.0974475645 0.0363210269 -0.3891756199
-0.1804261463 1.2533286748 -0.3980251225 -0.0973777025 0.0349716017 -0.3876694102
0.2239324540 0.6077677524 0.0581893196 -0.0974448444 0.0363212691 -0.3891710471
0.2464750733 1.2978457784 -0.4163468850 -0.0972370008 0.0348806391 -0.3894269392
-0.0042285818 0.5504730485 0.3903691537 -0.0973064843 0.0346503917 -0.3876711161
0.3176039409 0.5895642560 -0.1073135006 -0.0971568444 0.0333082427 -0.3891844628
0.3514428023 0.5929490430 0.0381014956 -0.0971657977 0.0333074314 -0.3891700511
0.2586419030 0.5839302590 0.0989889042 -0.0971553489 0.0333083940 -0.3891639389
0.4046836996 0.5432794168 0.3770259128 -0.0958986935 0.0351757731 -0.3895440625
0.2068058222 0.5717844466 -0.3610069534 -0.0975974239 0.0340925466 -0.3882239404
-0.2241513776 0.5805267162 -0.1107095584 -0.0974442268 0.0333079384 -0.3891861868
-0.2993120067 0.5878248835 -0.0504509360 -0.0974492068 0.0333083956 -0.3891802290
-0.1535552601 0.6016953313 -0.1900895200 -0.0971874251 0.0363235623 -0.3891804455
-0.0432090750 1.2396768146 -0.3966293910 -0.0973267539 0.0349989037 -0.3876702170
0.1612642376 0.5577811470 0.3903691537 -0.0972803251 0.0345356222 -0.3877184577
0.1270651120 0.5725073757 0.1210750156 -0.0972089343 0.0333041618 -0.3891618879
0.1990731815 0.6052748702 -0.0503519904 -0.0974349026 0.0363221561 -0.3891758818
0.1813070451 0.6038215284 0.3278750866 -0.0974351751 0.0363221546 -0.3891588272
-0.3703294333 0.6348064139 -0.3929512123 -0.0973708547 0.0346032287 -0.3906605534
-0.3007942899 0.6149924250 0.3142741781 -0.0971543271 0.0363207544 -0.3891576329
-0.2251568152 0.5804511447 0.1918952412 -0.0974448066 0.0333079702 -0.3891560890
-0.1250147240 0.5721926140 0.1826991656 -0.0973980387 0.0333042753 -0.3891570759
0.3425239812 0.6196952073 -0.3592653149 -0.0972695129 0.0347464295 -0.3876655564
-0.2256243865 0.8422755530 -0.4039390607 -0.0973892322 0.0347517198 -0.3906783542
