-0.2195731111 0.8703704444 0.3258806574 0.0000000000 -0.0185185185 0.0278275833
0.0535026481 1.4652344074 -0.4721724167 0.0000000000 0.0000000000 0.0463461019
-0.3115340000 0.7975199630 0.3981979537 0.0000000000 0.0000000000 0.0463461019
-0.3542124815 0.1137365556 -0.4123880833 -0.0100353704 -0.0018265370 0.0421869537
-0.4432031481 0.0877242222 0.4946883611 0.0011634444 -0.0035007963 0.0097821944
-0.2726116852 1.2771486296 -0.3974692315 0.0000000000 -0.0106306296 0.0126835833
0.3723379444 1.1098552222 -0.2486942315 0.0000000000 -0.0163282037 0.0192194352
0.2962962963 0.8490468519 0.0470114352 -0.0166337037 0.0000000000 0.0198433981
0.3069588704 0.5673494630 -0.3585919167 -0.0116297222 0.0013087407 0.0135307130
0.2775543333 0.7378891852 -0.3238008241 -0.0096079074 0.0009089630 0.0120398241
0.2638236296 0.7743274630 -0.2131741019 0.0174340926 0.0013186481 0.0218011204
-0.2281385000 0.7718614630 -0.2623832130 0.0128484630 -0.0128484630 0.0298560833
-0.4326285556 0.1997304074 0.5021733981 -0.0127418519 0.0042691296 0.0405694352
-0.0194633519 0.9733922037 -0.3425427870 0.0049702778 0.0026275741 0.0451378981
-0.3802984815 0.3719860370 0.4494596389 0.0105841667 -0.0041222778 0.0135739167
-0.1583379074 0.7962962963 -0.2473981019 0.0000000000 0.0185185185 0.0278275833
-0.2964763704 0.6403334630 -0.3432438056 0.0129186852 0.0007139259 0.0146229352
-0.4026551111 0.9032344815 0.0971493426 0.0117647963 0.0100611852 0.0374791204
0.4090142778 0.2053151667 0.5089867500 0.0000000000 0.0034919630 0.0460138426
-0.4560680370 0.0378132778 0.5400438981 -0.0123373519 0.0042099074 0.0407496389
0.4463229630 0.1558357593 0.4818456389 0.0000000000 -0.0034796481 0.0096389537
0.2037037037 0.7846526481 -0.2172592500 0.0167947778 -0.0045072222 0.0271836944
0.4082360741 0.3617804444 0.4406566574 -0.0012012222 -0.0035933519 0.0100217685
0.4074074074 1.1046484444 -0.2298466019 0.0131317222 -0.0090960741 0.0216620648
0.2241034259 0.8083188148 -0.0407201019 -0.0082446852 0.0160318704 0.0241468426
0.0191698519 0.8934696296 0.3744473611 0.0042382593 0.0141105370 0.0388041204
-0.2592592407 0.7628545370 -0.2743756019 -0.0125792593 -0.0036808889 0.0371836944
0.1120600741 0.8888888889 0.3313685463 0.0000000000 0.0185185185 0.0278275833
-0.2158608519 0.8703703704 0.2481315833 0.0000000000 0.0185185185 0.0278275833
-0.3670671667 0.5645689815 0.4022949722 0.0082548704 -0.0040859630 0.0117809167
-0.2407950000 0.8148690741 0.1250270833 -0.0117393333 -0.0135941296 0.0296732130
-0.1267167778 1.5152994815 -0.5059904907 -0.0023006111 -0.0118612963 0.0143974537
0.3683835185 0.8849151667 -0.0114020833 0.0170302778 -0.0071837963 0.0275043056
-0.2976295741 0.8207162963 -0.0242474537 -0.0074170185 -0.0167331667 0.0290087315
0.3245157963 0.7301130000 0.4077308796 0.0000000000 0.0035459444 0.0460032500
0.0404763148 1.5400075556 -0.5277279352 0.0000000000 0.0000000000 0.0463461019
0.0840983519 0.8518518519 0.4310872130 -0.0001350000 0.0145081667 0.0376480278
-0.3825242037 0.5970280926 0.3962088981 0.0000000000 -0.0034530556 0.0096339537
-0.3703703704 1.2763157593 -0.3428859352 -0.0185185185 0.0000000000 0.0278275833
0.1871750926 0.8888888889 0.3266216204 0.0000000000 0.0185185185 0.0278275833
0.0584486667 0.7962962963 -0.2587424167 0.0000000000 0.0185185185 0.0278275833
0.4922150926 0.9444444444 0.1869945833 0.0000000000 -0.0185185185 0.0278275833
0.2320037407 1.4862427963 -0.4487631389 -0.0055274630 0.0083055556 0.0424681944
0.2857682963 1.2608135370 -0.3626155833 0.0000000000 0.0075473519 0.0446468426
-0.2939454630 0.8197428333 -0.1331060833 -0.0164674444 0.0000000000 0.0196128426
0.0432802963 1.4864544259 -0.5092094167 0.0000000000 -0.0095781481 0.0132764722
-0.3870319815 0.8739453148 0.0684396019 0.0000000000 -0.0158937963 0.0370384352
0.2222222222 0.7546360556 -0.2334547685 -0.0185185185 0.0000000000 0.0278275833
0.2951565556 0.8675015000 0.2674285833 0.0111657222 -0.0087572407 0.0166618611
-0.1505873889 0.8356079444 0.2152873611 0.0008613889 -0.0124639815 0.0411529722
-0.3148148148 0.0536103704 -0.4200177315 0.0179757778 -0.0013092593 0.0297696944
0.0000000000 0.8498591667 0.4059715648 -0.0155889630 -0.0035156111 0.0243119722
0.3523728704 0.5328690556 0.4427343241 -0.0183497963 -0.0024908704 0.0278275833
0.2581876111 0.7407407407 -0.2300302315 0.0000000000 -0.0185185185 0.0278275833
-0.1765088148 0.7962962963 -0.0079023981 0.0000000000 0.0185185185 0.0278275833
-0.3193930185 0.8703703704 0.0664491759 0.0003528148 0.0184329074 0.0274747685
0.3962363519 1.0740740741 -0.1733488796 0.0000000000 -0.0168302778 0.0206760648
-0.1600527222 0.8703703704 0.3128211574 0.0000000000 -0.0185185185 0.0278275833
0.4074074074 1.0791965000 -0.1443141759 -0.0153168519 0.0076264630 0.0345028241
-0.4151655185 0.1154058889 0.5001193796 0.0136285000 -0.0036985741 0.0159006574
-0.0369400926 1.5000000000 -0.5050791204 0.0000000000 0.0185185185 0.0278275833
-0.3451012593 1.2212580926 -0.3415786574 0.0041653333 0.0050420000 0.0439491944
-0.0283182778 0.7592592593 -0.0360434167 0.0000000000 -0.0185185185 0.0278275833
0.3740978519 0.8867415000 0.0627172870 -0.0034992037 0.0158418704 0.0228889352
0.1893287963 0.7777777778 -0.2230780463 0.0000000000 -0.0185185185 0.0278275833
0.3521358333 0.8521358333 -0.0051823796 0.0125085370 -0.0125085370 0.0229971019
0.0894217963 1.4195843519 -0.4796383426 0.0150885926 -0.0070939444 0.0230523611
-0.1312628148 0.8356788704 0.4143709722 0.0000000000 -0.0130945741 0.0147330093
0.3750322407 1.1111110370 -0.2726664352 0.0000000000 -0.0185185185 0.0278275833
0.4261790741 0.0345029815 0.5035585463 -0.0103898519 -0.0034489630 0.0135016759
0.3527945370 0.8690345185 0.3796794352 0.0000000000 0.0000000000 0.0463461019
-0.0593955185 1.4043937963 -0.4668256204 0.0119248889 0.0063189815 0.0404655463
0.4480568889 0.1005775741 0.5110646759 0.0114673519 0.0041698889 0.0411189907
-0.3305173519 0.0497984074 -0.4066571759 0.0000000000 -0.0036317778 0.0459864907
-0.3512054074 1.4317230000 -0.3980983796 0.0000000000 0.0040228704 0.0456932870
-0.3429128148 0.1390607037 -0.3891593426 -0.0095427407 -0.0016597222 0.0435115278
0.0265152407 0.8148148148 0.1020813981 0.0000000000 0.0185185185 0.0278275833
-0.2367629074 0.8703703704 0.3279118426 0.0000000000 -0.0184997222 0.0274506759
-0.3317076667 1.0621925556 -0.3240242685 -0.0088591667 -0.0028125556 0.0124134907
-0.1129854074 0.8333333333 0.4225565648 -0.0007947407 -0.0181181111 0.0257731574
-0.2008487222 0.8518518519 0.2016727315 0.0000000000 0.0178853519 0.0262989907
-0.3594249444 1.1372027963 -0.3201762315 0.0109618889 0.0125328519 0.0337708796
0.3037177963 0.2590479074 -0.3648916204 -0.0175747593 -0.0022591111 0.0311652685
0.4097272037 0.3495584074 0.4801381019 0.0107015926 0.0043142037 0.0414001204
0.3672922222 0.9352100556 -0.0285078796 -0.0165343889 0.0082672037 0.0280504167
-0.2946541296 0.8385224444 -0.1320431019 -0.0122595741 0.0075268333 0.0176279722
0.1312204444 0.8193355185 -0.2869872315 0.0000000000 -0.0014295556 0.0095410463
0.3888888889 1.0967438333 -0.2157052685 -0.0180280370 0.0007989259 0.0306832500
0.1072711481 0.8703703704 0.3654754167 -0.0001798148 -0.0180371111 0.0265688241
-0.3090472407 1.0312695000 -0.2953402130 0.0139393333 0.0104028704 0.0311574907
0.1993142778 0.7962962963 0.0147292500 0.0000000000 0.0185185185 0.0278275833
-0.2629848333 1.2703266852 -0.3806512685 0.0137924444 -0.0121263148 0.0278275833
-0.2607911852 0.8533837407 0.1790767130 0.0057977778 0.0166996296 0.0238421944
0.1867932778 0.8143311296 0.0463461019 0.0000000000 0.0003420000 0.0094507315
-0.1775057778 0.8888888889 0.3143858056 -0.0005948704 0.0184528333 0.0284224537
0.3632143519 0.8828536111 0.3241238796 0.0032002593 0.0000000000 0.0100645463
-0.3318300185 0.8374532037 0.0278275833 -0.0120315556 -0.0091183889 0.0322440833
0.3040701481 0.8462294074 0.0751091019 0.0129074815 -0.0112607778 0.0334778981
0.0179341667 1.0090303704 -0.3616456574 0.0061670741 -0.0070986481 0.0147566389
0.4027239074 0.4520752222 0.4419060833 0.0078080741 0.0039944815 0.0426712870
0.3209457778 0.8654863519 0.0414620833 -0.0031137037 0.0150751852 0.0191740093
-0.0314875000 0.7967224815 0.1268221019 -0.0037946667 -0.0170428519 0.0338344167
0.3151027593 0.8671166481 0.2873747870 0.0111481296 -0.0086969815 0.0166794537
-0.2489036852 0.8681776296 -0.2558851574 -0.0167443333 -0.0071251667 0.0296170463
0.2590094259 0.9135062593 -0.2682188611 0.0079440185 0.0000753333 0.0442429167
-0.0508712037 1.3188202407 -0.4351353796 -0.0088080370 0.0017397222 0.0367435463
-0.0789485370 0.9081079074 -0.3240243056 -0.0061197593 -0.0025743704 0.0106492315
-0.3408522407 0.8518518519 0.0588384722 0.0000000000 -0.0185185185 0.0278275833
-0.3029147222 0.9793414444 -0.2684687130 0.0000000000 0.0000000000 0.0463461019
-0.4043817593 0.2904227407 0.4919652685 -0.0016270370 0.0035998333 0.0453171204
0.1621141852 0.7902891296 -0.1943946389 0.0020359259 0.0000000000 0.0458654907
0.3673908519 0.6023105370 0.4311438981 0.0127349074 0.0043090741 0.0405624907
-0.1250703333 0.8726500000 0.3458300093 0.0044541852 -0.0175065185 0.0311308981
-0.0734854259 1.3451108519 -0.4351353796 0.0020341667 0.0038875185 0.0430080463
-0.1281374259 0.7970424259 0.0600730833 -0.0052342963 0.0174291296 0.0262505463
0.2838115000 1.4445542222 -0.4289918796 -0.0088071111 -0.0114688704 0.0392964537
-0.3083327593 0.2260075000 -0.4012404907 0.0113368704 0.0012587778 0.0134283241
-0.2777777593 0.8137308704 -0.0319392870 -0.0112315185 -0.0141157222 0.0278275833
0.4180007778 0.2810974074 0.4938303241 0.0101264444 0.0042049444 0.0416639722
0.0962632222 0.8333333333 0.1683444537 -0.0034428519 0.0179379259 0.0277348611
0.4259259259 0.9046290370 0.1355233796 0.0181083148 -0.0002600185 0.0263250278
-0.3316235741 0.7962962963 0.3250336204 0.0000000000 -0.0185185185 0.0278275833
-0.4383656852 1.0555555556 -0.0849250278 -0.0112915741 -0.0101308519 0.0176967315
0.2880983704 1.0977528889 -0.3423546019 0.0082817407 -0.0165634630 0.0278275833
0.1601257593 1.4748631296 -0.4536539352 -0.0042336296 0.0022772593 0.0453364167
0.2124931296 0.8148148148 0.0513257870 -0.0016667963 0.0167956481 0.0261360463
-0.1852584074 0.8496650370 0.4167164352 0.0000000000 0.0000000000 0.0463461019
0.0831078333 0.8193317037 0.4390411389 0.0015377963 -0.0152045000 0.0193889537
0.3767486852 0.3423721111 0.4630568796 -0.0019459444 -0.0035435185 0.0103098611
-0.0156348148 1.0938804074 -0.3894829907 -0.0064102037 -0.0076872222 0.0130424907
-0.0694883889 0.7777777778 -0.2667063611 0.0000000000 -0.0185185185 0.0278275833
-0.4218847407 0.1920487037 0.4746030278 0.0026641667 -0.0037653704 0.0100097870
-0.0291305556 0.8953500000 0.3426423981 -0.0039460741 0.0140059815 0.0177676759
0.3870010370 0.9055195556 0.0089618426 0.0145198148 -0.0107743333 0.0268563981
-0.1581583333 0.7962962963 -0.0058266389 0.0000000000 0.0185185185 0.0278275833
-0.3515294444 0.6512408148 0.3906094167 0.0095486667 -0.0039996667 0.0126476944
-0.0530562593 1.4812083704 -0.4721724167 0.0000000000 0.0000000000 0.0463461019
0.3102912593 0.2626708704 -0.4007547500 -0.0096409074 0.0017495741 0.0122840648
0.2585459259 0.7433552963 -0.3055057500 0.0000000000 0.0000000000 0.0093090648
0.1120035741 0.8703703704 0.3357452130 0.0000000000 -0.0185185185 0.0278275833
-0.3194743704 0.0715781667 -0.4212763796 0.0118400926 0.0009198889 0.0138713241
-0.1342468333 1.0486048889 -0.3444384722 -0.0064083333 -0.0161882407 0.0231050278
-0.4410964815 0.9259259259 0.2259248796 0.0000000000 -0.0166678148 0.0248331019
-0.1588923889 0.7777777037 -0.2451441389 0.0000000000 -0.0185185185 0.0278275833
-0.3807663704 0.5309743148 0.4419605833 -0.0127288333 0.0043445370 0.0405564167
0.3465458148 0.1081336111 -0.4320271759 -0.0016945741 0.0033120926 0.0099727870
-0.3148147778 0.0794553704 -0.4036830648 0.0167066111 -0.0024392407 0.0347030648
0.2814843333 0.4576091111 -0.3589519537 -0.0114199259 0.0013729074 0.0133497500
-0.4070623889 0.1454610556 0.4982041204 0.0137889074 -0.0037525185 0.0160997685
0.0962462778 1.4372435741 -0.4834900648 -0.0013858148 -0.0064472037 0.0107757315
-0.4163087963 0.4618533889 0.4256178981 -0.0174388333 0.0014584630 0.0221883241
0.2994409444 0.8284168889 0.2920032685 0.0025366296 -0.0109019259 0.0143890278
0.3598547963 1.0820770185 -0.2883355833 0.0159075370 -0.0094120185 0.0278275833
0.3379169815 0.8635188148 0.3309754722 -0.0103702963 0.0057253333 0.0414390093
0.3246747037 1.2458335000 -0.3661541389 0.0041582778 -0.0074142593 0.0162550463
-0.2920391296 0.8347579074 -0.1103163426 -0.0145279630 0.0047674630 0.0179823241
-0.1764545370 1.4715978889 -0.4721724167 -0.0029481667 -0.0007642963 0.0097346574
-0.3299743889 0.0835889815 -0.4317764352 0.0082752963 0.0019109630 0.0116108241
0.1860031852 1.4929517037 -0.4836425833 0.0049813889 -0.0096137407 0.0128727500
-0.3256992778 0.8543241296 0.3292855833 0.0074915741 -0.0167589630 0.0270821574
-0.4596465370 0.0193413704 0.5431225463 -0.0126813889 0.0042424074 0.0406006019
-0.3835820000 0.3261252593 0.4848247870 0.0000000000 0.0035339630 0.0460057315
-0.2388360370 0.8148148148 -0.1109572870 0.0071169074 0.0168077222 0.0272081204
-0.2307676296 0.8703703704 0.2642321574 0.0000000000 0.0158813704 0.0196115833
-0.3982024074 0.9584147222 -0.0376678241 -0.0151512407 -0.0094066481 0.0245324167
-0.2855232407 0.9104350000 -0.2950224722 -0.0147444444 0.0036599259 0.0181027130
-0.4514972593 0.1971039259 0.4794221204 -0.0181839444 0.0023430185 0.0264013241
-0.2952771481 0.2888594074 -0.3652981944 0.0138937963 -0.0032648333 0.0393204167
-0.2353844815 0.8703703704 0.3465393241 0.0000000000 -0.0185185185 0.0278275833
-0.1273560926 0.7951595185 0.0185634352 0.0057722963 0.0175926111 0.0278275833
-0.3333333333 1.1108196481 -0.3056210463 0.0131491667 -0.0127581296 0.0278275833
0.4610448148 0.9425262963 0.2261419907 -0.0085668148 0.0140265185 0.0315165093
-0.3350122963 0.7727348148 0.3992065463 -0.0011635370 0.0036277593 0.0455036389
-0.1666666852 0.8496037222 -0.2882792130 -0.0168007963 0.0072763519 0.0278275833
-0.3333333333 0.8441903889 0.0126133796 -0.0148221481 -0.0083222222 0.0263751944
0.3517011667 0.0948528519 -0.4027020093 0.0109688704 -0.0014779259 0.0425845278
-0.0422350556 1.2592483889 -0.4166132315 0.0000024259 0.0055901296 0.0454607315
0.1068356111 0.8817674074 0.3501292685 -0.0041618519 -0.0166474074 0.0313274907
-0.3111871111 1.1481481481 -0.3409219722 0.0000000000 0.0185185185 0.0278275833
0.0700025926 0.8759673704 0.3611609167 -0.0012102037 -0.0096817037 0.0137591019
-0.4155500556 0.3278191481 0.4814678426 -0.0127161111 0.0044184444 0.0405436944
-0.2802423889 0.8884619259 -0.2791737870 -0.0121971852 -0.0041852963 0.0403834907
0.4283713148 0.9080258889 0.2315312870 0.0020714074 -0.0113653889 0.0152078426
-0.3465395000 0.2713241667 -0.3883431389 -0.0170798889 0.0026734259 0.0237516204
0.3796929630 0.6251945556 0.3909277130 0.0000000000 -0.0034380741 0.0096310833
-0.2146814074 1.3288745185 -0.4018687500 0.0049615926 0.0031820556 0.0450716574
0.0353254630 0.7592592593 -0.0628999167 0.0000150556 -0.0185170370 0.0278275833
-0.0825122222 0.9149931481 -0.3055057500 0.0080933333 0.0018404259 0.0442062315
-0.1870376481 1.4055548704 -0.4437469907 -0.0130945741 0.0130945741 0.0278275833
-0.2760110926 0.9017721852 -0.3055057500 0.0005586667 0.0000000000 0.0093997315
0.4993703704 0.9814247593 0.1396250648 0.0076122778 0.0151484259 0.0351075278
-0.3235573889 1.0174851667 -0.3043347130 -0.0140821667 -0.0099207407 0.0212736944
0.0054553889 0.8625501667 0.4245367130 0.0000000000 0.0150985741 0.0381417315
-0.2839566852 1.0061789630 -0.3094504352 0.0122306852 0.0102245185 0.0197911759
-0.3579425185 0.1858015185 -0.3984559722 -0.0182947037 0.0022841111 0.0275652870
0.3148148148 0.8331315000 0.3211142685 -0.0130945741 -0.0022707963 0.0386513611
-0.4087440741 1.0026733333 -0.0594078056 -0.0156617037 -0.0070816852 0.0243403426
-0.1285186111 0.8911109444 -0.3238811759 -0.0114021296 0.0006956481 0.0140160648
-0.2918347593 0.8700190000 0.2219358056 -0.0165226296 -0.0058593333 0.0328584352
0.1202557407 1.4968503333 -0.4783965463 -0.0085275185 0.0076811481 0.0416710463
0.1851851852 0.7811530000 -0.0958812685 -0.0185185185 0.0000000000 0.0278275833
-0.3470433889 0.1647194630 -0.3885015463 -0.0097206481 -0.0016356296 0.0434708611
-0.2222222407 0.7579800556 -0.2492356759 0.0185185185 0.0000000000 0.0278275833
0.3953296481 0.8933022778 0.3032193056 -0.0053099815 0.0171190556 0.0321744907
-0.3206473519 0.3992217037 -0.3923280833 0.0019997963 0.0020825370 0.0146672130
0.2371048889 0.7801686111 -0.3018698796 -0.0071552963 0.0014298704 0.0115831574
-0.1696786481 0.7962962963 -0.2185602315 0.0000000000 0.0185185185 0.0278275833
0.2664010370 1.1145507593 -0.3425427870 0.0018961296 -0.0037922407 0.0112051944
-0.2629868519 0.7403312222 -0.2870691389 -0.0016326667 -0.0032422037 0.0456542870
-0.3340978704 0.8181547963 0.3796794722 -0.0089302593 0.0029767593 0.0430746019
-0.2872355000 0.4131575000 -0.3676666019 0.0114389444 0.0013671667 0.0133657685
0.2188996296 1.4629629630 -0.4560751019 0.0000000000 -0.0185185185 0.0278275833
0.2995019074 0.6845864815 -0.3320495463 0.0146972407 0.0030956296 0.0175008981
-0.2217017778 1.2989154444 -0.4007174907 0.0000000000 0.0130945741 0.0409221574
0.2962962963 0.7897396111 -0.3033303796 0.0185185185 0.0000000000 0.0278275833
-0.4008825741 0.4654486667 0.4393985648 -0.0073499815 0.0039634815 0.0428676759
0.1459919630 1.4886492963 -0.4825097870 0.0035542222 -0.0084736481 0.0123147130
-0.0719987407 0.7962962963 0.0567545463 0.0025646296 -0.0181001667 0.0278494537
-0.4237572778 0.9771441667 -0.0098453796 -0.0171022037 -0.0060665185 0.0265182870
0.3937337037 0.8788223889 0.0463461019 0.0010876296 -0.0066886852 0.0424074537
-0.1483142037 1.4689316852 -0.4779751389 -0.0059474074 -0.0074709444 0.0120881019
-0.2731229074 0.6820647593 -0.2987223981 -0.0011751296 -0.0029610370 0.0457423241
0.0838025370 0.7681164259 -0.1847332870 -0.0060008333 -0.0119912407 0.0158311204
-0.2317189815 0.8342693519 0.1669539537 0.0148735000 0.0000000000 0.0384540093
0.2057759815 0.7798500000 -0.1556448056 0.0128386852 -0.0133096481 0.0278275833
0.3928224815 0.9781225741 -0.0279764907 -0.0156684630 0.0084935926 0.0316559167
-0.2817757407 0.8333333333 -0.0537011944 0.0074700741 0.0168726667 0.0272381204
-0.3226946296 0.2992534259 -0.3689411204 -0.0085389815 -0.0018578148 0.0440978426
-0.0371226852 1.3231078333 -0.4502453981 0.0084221481 -0.0033747778 0.0118365833
-0.3710864815 0.9456583704 -0.0462464907 0.0000000000 -0.0025760000 0.0094921389
-0.0369849074 0.9969150370 -0.3425427870 0.0000000000 0.0009755556 0.0461877870
-0.1913837778 0.8342105741 0.4167164722 -0.0001688333 0.0001688333 0.0463129907
0.4192792407 0.9963037778 -0.0504289722 0.0109233148 -0.0077184444 0.0150510833
-0.3128895185 1.1281355370 -0.3240242685 0.0028885000 0.0028885000 0.0452707685
-0.2210481852 0.8105831852 -0.0073258241 0.0116647407 0.0141783148 0.0299678241
0.3779600556 0.8888888889 0.3297218796 -0.0019516667 0.0176800000 0.0321178611
-0.3383526296 0.2950813889 -0.3730710278 -0.0090797593 -0.0017928148 0.0437542685
-0.0208457593 1.2335802778 -0.4315551389 0.0009350926 -0.0044809259 0.0099432315
0.2946824074 1.2344690926 -0.3795798241 0.0051226481 -0.0021715370 0.0105573056
0.3428940926 1.0992845556 -0.3055057500 0.0000000000 0.0000000000 0.0463461019
-0.3408210185 0.2960966667 -0.3918983981 -0.0147200370 0.0033531296 0.0171783981
0.1572053148 0.8888888889 0.2968935093 0.0000000000 0.0182861296 0.0263955278
-0.1276804815 1.4389139815 -0.4536538981 0.0005209259 0.0088346852 0.0433621389
0.4165967963 0.1417765741 0.5216945463 0.0000000000 0.0034750556 0.0460171019
-0.1647372222 1.5172171481 -0.5079080833 -0.0034790556 -0.0088795000 0.0121329907
0.2222222222 0.7930848148 -0.0895568796 -0.0185185185 0.0000000000 0.0278275833
0.2230584074 0.8148148889 -0.1530586944 -0.0025180741 0.0182981852 0.0278275833
-0.3879084074 0.9479791111 -0.0462464907 0.0000000000 -0.0024939444 0.0094863056
0.2330119815 1.3398478519 -0.4046129352 -0.0014215926 0.0082115185 0.0442506204
-0.1360308889 1.5168328519 -0.4890053426 0.0001122963 0.0130340000 0.0409738796
-0.2222222222 0.7616640000 -0.2798288796 0.0137989074 -0.0113941296 0.0278275833
-0.3405336111 0.6275829815 0.4264488981 0.0183389815 -0.0025705000 0.0278275833
-0.1814275185 0.7777777778 -0.2663561204 0.0000000000 -0.0185185185 0.0278275833
-0.2369610370 0.8477536667 0.1536775278 0.0148134815 0.0036058333 0.0342765648
-0.3815653148 0.5877546296 0.4174501019 -0.0127417407 0.0042697593 0.0405693241
0.0869376111 1.0553628519 -0.3610613056 0.0007944444 -0.0007944444 0.0095606019
-0.3213010370 1.4814814815 -0.4251946759 -0.0042781296 0.0177277407 0.0278275833
-0.4814814815 0.9780392778 0.1648261389 0.0185185185 0.0000000000 0.0278275833
0.4121525370 0.9068374630 0.3061753241 -0.0041319630 0.0169730185 0.0334601019
0.3729859074 0.8967354444 -0.0270974537 0.0164356481 -0.0081592778 0.0255757870
-0.3585730741 1.0827123889 -0.3055057500 -0.0117504630 -0.0087273889 0.0168597870
-0.2962962963 0.8578628889 0.3159536759 0.0174260185 0.0000000000 0.0324555093
0.1666666667 1.4285659815 -0.4569389907 0.0168421852 0.0071010741 0.0278275833
-0.4064933704 0.1179665370 0.5217166574 0.0183332407 -0.0026127593 0.0278275833
0.2839042407 0.4827480000 -0.3275591204 0.0034593704 -0.0024950926 0.0456146574
-0.4413039259 0.2312200926 0.4667687685 0.0000000000 -0.0034995741 0.0096427870
0.3333333333 1.0547591296 -0.3237450833 0.0090087407 -0.0039169630 0.0127973981
-0.3493356296 0.2503528148 -0.3894899907 -0.0176135185 0.0024682407 0.0254138426
-0.2160215926 1.3448288519 -0.4095939352 0.0011554630 0.0088911481 0.0438901389
-0.2100185741 0.8090011481 -0.2869872315 0.0055972222 -0.0036795370 0.0107853056
-0.3156844630 1.4636592222 -0.4335694167 -0.0077895000 0.0069208519 0.0126829167
-0.1334870370 0.8539038704 -0.3055057500 0.0000000000 -0.0084275556 0.0113933981
0.3174394259 0.8518518519 -0.0078115833 -0.0088059444 0.0159916111 0.0253773056
0.2176633704 0.7962962963 0.0127134722 -0.0090427963 0.0147275000 0.0298976389
0.0389723148 0.8172392593 0.1593924907 -0.0087206296 0.0000000000 0.0440550648
0.3102070926 0.5379488519 -0.3638001944 -0.0116656667 0.0012926481 0.0135871944
-0.1846044259 1.5132052037 -0.4767677500 0.0062015370 0.0070383519 0.0436150093
-0.3133705370 0.3754720000 -0.3785594907 0.0105332222 0.0018097037 0.0128955648
-0.3580948148 0.6781010741 0.4126873056 -0.0127450556 0.0042499815 0.0405726389
-0.3541240000 1.3382718148 -0.3795798241 -0.0007185185 0.0000000000 0.0094256574
0.3759568519 0.9528242037 -0.0424369537 -0.0154074074 0.0080014630 0.0330186389
-0.0758980000 0.7886194259 -0.2499501944 0.0000000000 0.0000000000 0.0463461019
-0.2931317407 0.8703703704 0.1914767870 0.0000000000 0.0185185185 0.0278275833
-0.1436775185 1.0573552407 -0.3592616574 -0.0019740926 0.0050304815 0.0132546759
0.1343576296 1.0679608148 -0.3610613056 0.0011764815 -0.0011764815 0.0095398426
-0.2911393519 0.3479733704 -0.3536722315 0.0131497222 -0.0033856481 0.0403175833
-0.3361432037 0.8703703704 0.3431631759 0.0000000000 0.0185185185 0.0278275833
-0.2509412407 0.8064967963 -0.0824355648 -0.0112841852 -0.0145265370 0.0278275833
0.0153781111 1.1910866667 -0.4145047870 -0.0002769630 -0.0051416852 0.0105944167
0.3515112407 0.8010751852 0.3426423981 -0.0128537407 0.0000000000 0.0410219167
0.3515468148 0.5560139815 0.4409360648 0.0000000000 0.0035004815 0.0460121944
-0.1024435926 0.8148148148 0.0910591389 0.0000000000 0.0185185185 0.0278275833
-0.2658529630 0.7895964815 -0.2751685278 -0.0102926111 -0.0040454444 0.0420963241
0.0584176481 1.3145011667 -0.4536538981 -0.0018845185 -0.0004642963 0.0097206759
-0.2943436111 0.8487861852 -0.2869872315 -0.0005364444 0.0000000000 0.0462709722
0.4466597593 0.0978192407 0.5296965093 0.0127453148 0.0042484444 0.0405728981
0.4459557407 1.0000000000 0.0436537870 -0.0025619444 0.0168768333 0.0298857685
0.1401954259 1.5016307037 -0.4923217500 0.0027850000 -0.0108104630 0.0133038056
-0.0920330926 1.4779181296 -0.4906909352 0.0000000000 0.0000000000 0.0093090648
0.1817825185 0.7962962963 -0.2492864907 0.0000000000 0.0185185185 0.0278275833
-0.3713181852 0.8662312778 0.3477293241 -0.0073635185 -0.0158500185 0.0233908611
0.2206439444 0.8703703704 0.3426604537 0.0000000000 -0.0185185185 0.0278275833
-0.2556377407 0.7993055185 -0.1424606019 -0.0158850741 0.0000000000 0.0186046389
0.1261632037 0.8721035926 0.3497364907 -0.0044102778 -0.0176411111 0.0303116944
-0.4675382593 0.9600096852 0.1389386944 0.0000000000 0.0000000000 0.0093090648
-0.3192699630 0.8333333333 0.0144962870 -0.0071697963 -0.0159409630 0.0238080463
0.0768132037 1.5370370370 -0.5392556389 0.0020067037 -0.0150177037 0.0198007685
-0.2571895185 0.8888889630 0.3624924167 -0.0054307037 0.0176498889 0.0278275833
0.2604124259 0.8700109444 -0.3055057500 -0.0046001852 0.0009556481 0.0100068981
-0.3331739630 0.3414257222 -0.3649205833 -0.0084453889 -0.0018817037 0.0441850278
-0.0956072593 0.7741983148 -0.0380638796 -0.0095962963 0.0000000000 0.0120427870
0.3615060000 0.1590753889 -0.4043592130 0.0183142407 0.0023510185 0.0275025648
0.4206527778 0.4310738889 0.4435018981 0.0182995185 0.0022879259 0.0272441759
0.2816470741 0.9520569630 -0.2684687130 0.0000000000 0.0000000000 0.0463461019
-0.2102716111 0.8888888148 0.2896539537 -0.0033462593 0.0179534630 0.0265771204
-0.4641224630 0.9444445185 0.1777889352 0.0000000000 0.0183270926 0.0270166944
0.3454809630 0.8639994815 -0.0416010463 0.0134352222 -0.0123947407 0.0273073426
0.2908795741 0.8525618148 0.3056053611 0.0000000000 0.0000000000 0.0463461019
0.2090085185 0.8518519259 0.2576073981 0.0025192037 -0.0159993148 0.0328659907
-0.4241445000 0.1244542778 0.4881242500 0.0043792593 -0.0039250370 0.0102903981
0.0935856667 0.8980864815 -0.3230312130 0.0064540370 0.0000000000 0.0106785463
-0.1352639815 0.7777777778 -0.2111972500 0.0000000000 -0.0185185185 0.0278275833
0.1479288519 1.5246213333 -0.5153122685 0.0023863704 -0.0124196852 0.0143712870
0.2962962963 0.8372746296 0.0604773981 -0.0180553519 0.0000000000 0.0258655648
-0.2406139259 0.8016508519 -0.2683418981 -0.0117359259 0.0000000000 0.0419014167
0.1884505370 0.8687714444 0.2838214907 0.0017113333 -0.0155363333 0.0348953611
0.0144529630 0.8148148148 0.1216326389 -0.0002857778 0.0179756667 0.0250831019
0.3451454815 1.2347734259 -0.3425427870 0.0000000000 0.0000000000 0.0463461019
-0.2177190741 0.8518519259 0.3852449722 0.0000000000 -0.0167483704 0.0204526944
0.0000000000 1.0909022593 -0.3980051944 -0.0011566667 0.0000000000 0.0098427315
0.3538702593 0.8034869259 0.3796794352 0.0000000000 0.0000000000 0.0463461019
-0.2592592593 0.7966471111 -0.1261664537 -0.0185185185 0.0000000000 0.0278275833
0.1457233519 1.4348456852 -0.4560786759 -0.0127395185 -0.0009899259 0.0407060093
0.2403456667 0.8134902037 -0.2512747685 0.0089793704 -0.0057056667 0.0425126204
0.3647291667 1.3165004815 -0.3610613056 -0.0007012963 0.0000000000 0.0459707870
-0.3391487037 0.0533121852 -0.4409507500 0.0080590926 0.0026122593 0.0115101204
0.0000000000 1.1592865741 -0.4125535093 -0.0152017963 -0.0010488333 0.0246810648
0.0919818704 1.4121333889 -0.4536538981 -0.0039969630 0.0055546296 0.0444401019
0.0994162593 1.5057048148 -0.4963957500 0.0000000000 0.0081351852 0.0444517500
0.4364871667 0.1732990556 0.4968714537 0.0125127037 0.0042488148 0.0406688241
0.3016973704 0.5948042778 -0.3515001204 -0.0110117963 0.0014827037 0.0130728796
0.3238834074 0.5121192222 -0.3504976944 0.0179814259 0.0019185000 0.0252196574
-0.2348752963 0.9200604815 -0.2949733056 0.0146754815 0.0111661667 0.0278275833
0.2708109815 0.6335445000 -0.3074528981 0.0003054444 -0.0027247963 0.0460947315
-0.3481495556 0.8644160556 0.3204215833 -0.0130945741 0.0000000000 0.0147330093
-0.3554790000 0.0000000000 -0.4339916759 0.0000000000 -0.0185185185 0.0278275833
-0.0676663333 1.2770730556 -0.4166898056 -0.0179495741 -0.0044004444 0.0278542130
-0.3876196481 0.5478006296 0.4054390278 0.0000000000 -0.0034789074 0.0096389167
0.2898530741 0.4186945000 -0.3368196759 -0.0172161481 -0.0023578333 0.0305392685
0.2936644444 0.9880145741 -0.3074563611 0.0024424444 -0.0029823704 0.0105817685
0.2498900000 1.4986121481 -0.4707845093 0.0011899074 -0.0116517037 0.0139737870
0.0555555556 1.2754344259 -0.4456307685 -0.0122293333 -0.0011350370 0.0218529907
-0.2217114815 0.8518518519 0.4115587130 0.0000000000 0.0185185185 0.0278275833
-0.1769755185 0.7962962963 -0.2544850463 0.0000000000 0.0185185185 0.0278275833
-0.3721673704 0.8877580370 0.0666616574 0.0162268519 0.0000000000 0.0365763611
0.0372665370 0.9990844815 -0.3425427870 0.0000000000 0.0003195556 0.0462866759
-0.3970770926 0.9029240000 0.2500498056 0.0000000000 0.0000000000 0.0463461019
0.1792912222 1.3584412407 -0.4232063611 -0.0024513333 0.0074782963 0.0443761389
0.0170350741 0.8703703704 0.3416050833 0.0006056111 -0.0094029444 0.0427420278
0.1568894259 0.8503776852 0.3996721204 0.0000000000 -0.0130945741 0.0147330093
-0.2548876111 0.8402067037 0.4025696019 -0.0070004074 0.0030384074 0.0443593426
-0.0938765926 1.4862488704 -0.5092094537 0.0056138889 -0.0077459074 0.0123357500
-0.0992615926 0.8333333333 0.1702850463 0.0037265741 0.0172891667 0.0238916204
-0.0030402963 0.8333333333 0.4686774537 0.0000000000 0.0183625000 0.0287890093
-0.0748246111 1.4054027222 -0.4804293611 -0.0004800370 -0.0072828704 0.0110481019
-0.4501467778 0.9259259259 0.1830110648 0.0090624259 -0.0147647407 0.0278275833
0.4717127407 0.0092048148 0.5077749167 0.0000000000 -0.0030792778 0.0095672500
-0.3234976296 0.8630845741 0.2957696389 -0.0130682222 -0.0003205000 0.0147593611
0.1368921111 0.7793731667 -0.2684687130 0.0000000000 -0.0010382963 0.0096931574
0.0902587037 1.4030867593 -0.4721724167 -0.0033102407 -0.0033102407 0.0099151759
0.3818016481 0.6014336481 0.3953828426 0.0000000000 -0.0034512593 0.0096336204
0.0490745000 0.8793856296 0.3646454352 -0.0031105926 -0.0135861852 0.0157623611
0.2078322222 0.7777777778 -0.0223218241 0.0027067222 -0.0174833704 0.0274409167
0.2407407407 0.7772786111 -0.2543556204 0.0185185185 0.0000000000 0.0278275833
-0.3585091296 0.8518519259 0.3597335463 0.0000000000 -0.0185185185 0.0278275833
-0.3010050370 0.8319367963 0.3796793981 0.0005118519 -0.0005118519 0.0095113056
-0.3152301667 0.3130875000 -0.3614766574 -0.0077027778 -0.0019990370 0.0444434722
0.2251232963 0.8333333333 0.1055790833 -0.0008573889 0.0178569074 0.0234501574
0.3187829074 0.4287408889 -0.3493871944 0.0086545741 -0.0018940741 0.0440625093
0.1498295741 1.5389460741 -0.5260465463 0.0105284815 0.0000000000 0.0126293241
0.4575954074 0.0365170741 0.5217414167 0.0122507222 0.0042180370 0.0407842500
0.0298046667 0.7962962963 0.1051856944 0.0000000000 -0.0185185185 0.0278275833
-0.0464856481 0.8792521111 0.3611609167 0.0011269815 -0.0069363704 0.0124538611
-0.0063538889 0.7777777778 0.0463226759 0.0000000000 -0.0165659444 0.0360988426
0.4033974630 0.3296369630 0.4841223796 0.0045417778 0.0038163333 0.0440625648
-0.4328156852 0.2709707778 0.4588186204 0.0000000000 -0.0035136296 0.0096455093
0.2808445556 1.0004227222 -0.3072504722 -0.0015590926 -0.0039651296 0.0108068056
-0.4125872037 1.0813005926 -0.1244140463 0.0122897407 0.0114125556 0.0354359537
0.0969005000 0.7793063333 -0.2684687130 0.0000000000 -0.0009948148 0.0096770648
-0.0015570370 0.8463500741 0.4407367315 0.0000000000 0.0130945741 0.0409221574
0.3389213333 0.0515407963 -0.4063087315 0.0030890000 -0.0029992222 0.0451404907
0.3326932407 0.1185088704 -0.4299520833 -0.0067616667 0.0023361111 0.0108399537
-0.3180581111 1.0435236481 -0.2878170648 0.0122884815 0.0069120926 0.0394044722
0.4509455000 0.2012421111 0.4810102685 0.0181845185 0.0022369259 0.0263306944
-0.0128384074 0.7962962963 0.1287899722 -0.0023807037 -0.0178451667 0.0306162130
-0.2117450000 0.8148148148 0.0606961019 0.0000000000 0.0184607037 0.0273579352
0.0049589630 0.7777777778 0.0326358426 0.0000000000 -0.0182717778 0.0293480833
0.3031296111 1.2709384444 -0.3669009352 0.0000000000 0.0066209815 0.0450789537
0.0132472407 1.4629629630 -0.4865356759 0.0000000000 -0.0185185185 0.0278275833
0.3230093148 0.8888888889 0.2286711759 -0.0028855926 0.0179902037 0.0278275833
-0.4334960926 0.2587034074 0.4797905833 -0.0067307407 0.0039135185 0.0431347130
0.2222222222 0.7938293148 -0.0507508796 0.0103225185 -0.0151325741 0.0266807315
-0.3350057222 0.8720426852 -0.0252090093 0.0137225741 0.0122760185 0.0278275833
-0.2359248333 0.8349809259 0.3981979537 0.0042828704 -0.0007061111 0.0101630648
-0.2769835370 0.6277644630 -0.3082235833 -0.0004263333 -0.0027160000 0.0460763241
-0.0389354444 0.7962962963 0.0697319537 0.0000000000 0.0185185185 0.0278275833
0.1971911296 0.8333333333 0.4024059167 -0.0036199259 -0.0098892037 0.0159371389
-0.1025741481 0.8030005556 0.0548830648 0.0029977778 0.0140760000 0.0178094907
-0.3991479444 0.5294053889 0.4088881574 0.0000000000 -0.0034694259 0.0096370463
0.1402774074 0.7777777778 0.0252752685 0.0000000000 -0.0185185185 0.0278275833
0.3194569815 0.3422470370 -0.3860968796 -0.0087462593 0.0020567593 0.0117129167
-0.3646957963 1.2263370000 -0.3425427870 0.0012852778 0.0066538704 0.0447596204
-0.3997650556 0.5981758333 0.4099934907 -0.0169570000 0.0010958519 0.0208589352
0.2692828704 0.8337008148 -0.1195267685 -0.0105650926 0.0145505741 0.0309899352
-0.2296894630 0.7962962222 -0.0263635463 -0.0112372778 -0.0144020185 0.0278275833
0.3299915926 0.7996380370 0.3214843426 0.0000000000 -0.0091502222 0.0118901019
-0.1183818333 1.4895282407 -0.4729484167 0.0093099259 0.0073720741 0.0413641204
0.1688758519 1.4091154074 -0.4368433426 0.0000000000 0.0084653148 0.0442845093
-0.1870889074 0.7777777778 -0.0311897870 0.0000000000 -0.0185185185 0.0278275833
-0.2777777778 0.9263212407 -0.2911804722 -0.0136123889 0.0038506296 0.0165470648
-0.3308551852 0.7485525370 0.4040429907 0.0000000000 0.0035791481 0.0459967685
-0.4928226852 0.9557856852 0.1768818796 -0.0135568333 -0.0102567593 0.0210491759
-0.3198958519 0.3322625741 -0.3978142870 0.0122243519 0.0010998519 0.0140271574
-0.2962962963 0.6817833148 -0.3285545833 -0.0168078704 0.0017882963 0.0233691944
-0.0034558519 0.7962962222 0.0471041944 -0.0001786852 0.0184751667 0.0276488981
-0.1534909444 1.0584309815 -0.3425427870 -0.0063862037 -0.0127724259 0.0185658056
0.1871769074 0.8549685926 0.3981979537 0.0000000000 0.0000000000 0.0463461019
0.0925925926 1.5411207407 -0.5410939722 -0.0051525185 -0.0078549444 0.0173898611
0.3303309259 0.3254142778 -0.3670554722 0.0085606667 -0.0018594259 0.0441205463
-0.0203881667 0.8148148148 0.1314837685 0.0026077222 0.0175523148 0.0234883426
0.2242103704 0.8828585556 -0.2869872315 0.0000000000 -0.0019745556 0.0096294907
0.3754886296 0.3604711296 0.4594370463 -0.0020310000 -0.0035734815 0.0104089352
0.2015511296 0.8703703704 0.3693853056 0.0000000000 -0.0185185185 0.0278275833
-0.0207661481 1.2389520741 -0.4157225648 -0.0010259259 0.0077808519 0.0443890278
0.2449514444 0.7429394259 -0.2129131574 -0.0028071296 -0.0014035741 0.0449425278
-0.2962962963 0.8372310370 0.0985810833 -0.0035581111 -0.0030835185 0.0285392130
-0.2632930370 0.5876415000 -0.3317469167 0.0184266111 -0.0018426667 0.0278275833
0.2244295926 0.8829513889 0.3144563426 0.0043170000 0.0176068704 0.0241059537
-0.1947168704 0.7962962963 -0.1868061389 0.0000000000 0.0185185185 0.0278275833
-0.2952624074 1.2655166296 -0.3641899537 0.0000000000 0.0062658889 0.0452260463
-0.0443305556 1.0285942593 -0.3610613056 0.0000000000 0.0000000000 0.0093090648
0.3129743333 0.4003351296 -0.3550683426 0.0084513704 -0.0019076481 0.0441788611
0.3710513704 0.5030338519 0.4287866759 -0.0122287778 -0.0041750741 0.0146369537
-0.2701124630 0.8438252963 -0.1171326574 0.0109380926 0.0140771111 0.0304513611
-0.2955918519 0.8197210185 -0.0043032685 -0.0073603889 -0.0164112407 0.0318403056
0.2315159815 0.7962962963 -0.2292374167 -0.0114459444 -0.0109504630 0.0354476389
-0.2534011481 0.7779035185 -0.2370382500 -0.0095528519 0.0122246111 0.0183158796
-0.1236356667 0.8391823148 0.1666439722 -0.0030424259 0.0126982037 0.0162602500
0.4678055741 0.0820555556 0.5104746019 0.0183151852 0.0027301852 0.0278275833
0.4137407222 0.2062790556 0.4717569722 -0.0075738704 -0.0039960000 0.0119548981
-0.2297787407 0.7592592593 -0.2942432500 0.0000000000 -0.0185185185 0.0278275833
0.4219368889 0.3861110556 0.4357905648 0.0000000000 -0.0035270556 0.0096480648
-0.3027472963 1.0131159815 -0.2869872315 0.0044242037 0.0022738704 0.0441053241
-0.3536748519 0.0811567222 -0.4022085093 -0.0104627037 -0.0015562037 0.0429808981
-0.2898033148 1.1123379630 -0.3240242685 0.0000000000 0.0000000000 0.0463461019
0.0784177407 0.7962962963 0.0585101759 -0.0020094444 -0.0180938519 0.0288231944
-0.2037037037 0.8520990926 0.2403795648 0.0185185185 0.0000000000 0.0278275833
-0.0797607778 1.3850164074 -0.4523630833 -0.0009225000 0.0035940741 0.0459040648
0.0000000000 0.8788500185 0.3736789907 0.0057959630 -0.0135494444 0.0202785833
-0.3617083148 0.8888888889 0.2471927685 -0.0050844630 -0.0171165741 0.0246646574
-0.4002961111 0.1798073148 0.4935216574 0.0137721667 -0.0038080370 0.0160988056
0.2803370556 0.8031545556 -0.0436872130 0.0139800370 -0.0099295741 0.0230673056
-0.2070255000 0.7962962963 0.0672649167 0.0000000000 -0.0184330926 0.0285214907
-0.0690559815 0.8850790741 0.3173736759 0.0081149815 0.0000000000 0.0112844722
-0.2063221296 0.8888888889 0.3790497685 0.0000000000 0.0131513148 0.0405766019
0.3366030926 0.7962962963 0.3863541019 0.0000000000 -0.0185185185 0.0278275833
0.2840643333 1.4954639074 -0.4505106574 0.0100682407 -0.0005686481 0.0124409167
0.1629180000 0.8148148148 0.0486665648 -0.0042437222 0.0055617778 0.0114913796
-0.4005353704 1.1185595185 -0.2568221944 -0.0171953519 0.0000000000 0.0210713796
0.1191784815 0.7770214815 -0.1751197870 0.0032219630 -0.0166790370 0.0217996574
-0.4106474259 0.0965753889 0.5084916574 0.0140686852 -0.0036467963 0.0163845093
0.3685481852 0.5445910556 0.4430778611 0.0000000000 0.0034906111 0.0460141389
-0.0185185185 0.7785072407 0.0147675648 -0.0185185185 0.0000000000 0.0278275833
0.3953874815 0.9013974259 0.2296032500 0.0081657407 -0.0160139259 0.0306553426
-0.1482520556 0.8496809444 0.4233332500 -0.0002412222 0.0153995185 0.0366646574
-0.2470874630 1.4566161481 -0.4451558056 0.0009621296 -0.0147495556 0.0177814537
-0.0765147778 1.5370370370 -0.5110254537 0.0000000000 -0.0185185185 0.0278275833
0.2222222222 0.7985844074 -0.2575247870 0.0145933333 -0.0092128889 0.0247352685
-0.1023727593 0.8333333333 0.1513242315 0.0014455556 0.0180302407 0.0257994537
0.3043552037 0.1850982963 -0.3857642685 -0.0151998333 -0.0030527778 0.0375701204
-0.2962962963 0.8411633519 0.3096681389 0.0148559074 0.0000000000 0.0337538241
0.2324124444 0.8064864815 0.0894426019 0.0116706296 -0.0142427407 0.0281462685
-0.0431617963 1.2578847037 -0.4346771944 0.0017322222 -0.0056311296 0.0103393241
0.0368837222 0.7777777778 -0.0720034167 0.0000000000 0.0185185185 0.0278275833
-0.0334052222 1.1882801852 -0.3980983426 0.0000000000 0.0015124074 0.0461963426
0.4119820370 0.0836633519 0.5322597315 -0.0183161296 -0.0027240370 0.0278275833
0.2047382222 0.8703703704 0.2337637500 -0.0068206852 0.0169083704 0.0278275833
0.3477862407 0.8703703704 0.0052028796 -0.0142637037 0.0113812407 0.0292062130
0.2223340741 0.7792894630 -0.2484384907 0.0106727593 0.0106727593 0.0171091574
0.3414008519 0.6288467778 0.4087614167 -0.0007067963 -0.0035084630 0.0099378611
-0.3584217407 0.0597432037 -0.4147409167 -0.0117735000 -0.0014107963 0.0419354722
0.2646951111 1.3039430741 -0.4109683611 0.0157474074 0.0096879444 0.0278275833
-0.0043399815 1.0466134815 -0.3795798241 0.0000000000 0.0000000000 0.0093090648
-0.2820316111 0.3392884630 -0.3650959907 0.0132590370 -0.0033678889 0.0401710833
0.3020759815 0.8452539074 -0.1209102870 0.0154083333 0.0000000000 0.0175553611
0.1965416667 1.3291388704 -0.4225278056 -0.0161167222 -0.0090515556 0.0278275833
-0.2809843889 0.8297015926 -0.1356324537 -0.0151607407 0.0019742963 0.0176227130
-0.2608920926 0.6236555926 -0.3269885278 0.0184266111 -0.0018426667 0.0278275833
0.4286160000 0.2579474444 0.4614233056 0.0000000000 -0.0035130000 0.0096453796
0.4400822037 0.1438279074 0.5199835833 0.0127424444 0.0042652778 0.0405700278
0.2599549815 0.7937464630 -0.3062014722 -0.0105280185 0.0015015741 0.0132242315
0.3066476481 0.7962962963 0.3312138426 0.0000000000 0.0000000000 0.0278275833
0.3216976667 0.8518518519 0.0712966759 0.0000000000 -0.0185185185 0.0278275833
-0.1851851852 0.7937444074 -0.0266020278 0.0185185185 0.0000000000 0.0278275833
-0.2175575000 0.8363482778 0.3981979537 0.0000000000 0.0000000000 0.0093090648
0.2783945926 0.8148147407 -0.0558268981 0.0072522963 -0.0169554444 0.0267409167
0.0015459074 0.8965755741 0.3719927130 -0.0010349074 0.0131311667 0.0406555833
0.1823968148 0.8888888889 0.2953096019 0.0029465185 0.0179204444 0.0248810648
-0.2456640370 0.8333333333 -0.1973053426 0.0060799630 0.0170832407 0.0278275833
0.0904069815 0.7777777778 0.0042646204 -0.0042263519 0.0179982407 0.0278275833
0.2407407407 0.7899442593 -0.2643126574 0.0172340741 0.0054410185 0.0278275833
0.3148148148 0.8329305370 -0.0422357315 0.0142692963 0.0000000000 0.0175690463
-0.0574032037 0.8042084074 0.0678968426 0.0044908333 0.0067497778 0.0115870463
0.2587655741 0.8426280556 0.2037890278 0.0000000000 -0.0152960185 0.0373814537
0.1500114074 0.7777777778 0.0430376204 0.0006911111 -0.0134747593 0.0402880648
-0.2914715556 0.3266013148 -0.3590393056 0.0134187407 -0.0033419630 0.0399570648
0.1254165556 0.7962962963 0.0565884722 0.0000000000 -0.0185185185 0.0278275833
-0.3020346667 0.3350241296 -0.3496120648 -0.0056374074 -0.0023742407 0.0451944907
0.2924318333 0.6794185556 -0.3016412870 0.0101781296 -0.0016977963 0.0431127130
0.3137106296 0.8346129444 0.3796794722 0.0000000000 0.0000000000 0.0093090648
-0.0210186296 1.0047678148 -0.3425427870 0.0000000000 0.0000000000 0.0350954537
0.0558696852 0.7592592593 -0.0844994352 0.0001813704 -0.0183857407 0.0280089537
0.4674689630 0.9444443704 0.1680387130 0.0000000000 0.0161938148 0.0222152685
-0.2222222222 0.7933247963 -0.0428646204 0.0185185185 0.0000000000 0.0278275833
0.0609729444 1.5370370370 -0.5331446944 0.0009429259 -0.0168735185 0.0240558796
0.0483475556 0.8093391667 0.0749900648 -0.0058744815 0.0072250000 0.0121468611
0.2226378148 0.7755803704 -0.2874028241 -0.0128339815 0.0020363333 0.0149936019
-0.1128117593 1.5231910926 -0.4953635463 0.0072497222 0.0103597037 0.0406878981
-0.0741638889 1.3033337037 -0.4386541204 -0.0109139630 -0.0081293889 0.0171379537
0.3713340370 0.6850122593 0.3797118611 0.0006685556 -0.0033192593 0.0099007315
0.3976859074 0.5189113333 0.4108557870 0.0000000000 -0.0034800185 0.0096390833
0.4614547037 1.0370370370 0.0270153981 0.0000000000 0.0133324444 0.0403478611
0.0629804444 1.2630154630 -0.4177304722 0.0177296481 -0.0049491667 0.0282342315
0.1929478519 0.8607752778 0.3796794352 0.0000000000 0.0000000000 0.0093090648
0.2645111111 0.8703703704 0.3204975648 -0.0008900370 -0.0183776111 0.0276792500
-0.2777777778 0.8573638704 -0.2868826019 -0.0082826296 -0.0009449815 0.0430946019
0.3994706111 0.9074593333 0.1944942500 -0.0056402963 0.0084604444 0.0140762870
0.1351136111 0.7962962963 -0.2458893796 0.0000000000 0.0185185185 0.0278275833
-0.2156882222 0.7962962963 0.0435193056 -0.0028119444 -0.0176084074 0.0289816204
0.3262467222 0.8532692222 0.3184546019 -0.0059748519 -0.0161796667 0.0286645093
-0.1050844074 1.4439780556 -0.4902245833 0.0000897593 -0.0081629259 0.0112324907
-0.2475740370 0.9074115000 -0.2869872315 0.0045416111 0.0050100370 0.0427803241
-0.3033807593 0.4754993704 -0.3611371759 0.0103908333 0.0017014815 0.0127796389
-0.0703810370 0.9659666111 -0.3455465463 0.0000000000 -0.0090623704 0.0118267685
0.2972590926 0.7967210000 0.3056053611 0.0000000000 -0.0160032593 0.0190608611
0.0252916481 1.1324149259 -0.4051996204 0.0039749815 -0.0053676481 0.0109267685
-0.2382717037 1.0950883148 -0.3425427870 -0.0001927963 -0.0003855926 0.0093867870
0.1942572963 1.5141471667 -0.4738641019 -0.0062623704 0.0067543148 0.0437430833
0.0385638333 0.7775780000 -0.1403658796 -0.0130945741 0.0000000000 0.0147330093
0.1488241667 0.8333333333 0.1599188241 0.0056422963 -0.0176029074 0.0278275833
-0.2947027778 0.8518519259 0.1601547130 0.0000000000 -0.0185185185 0.0278275833
0.2706490926 0.8511822222 -0.3055057500 -0.0037767963 0.0007687037 0.0099506574
0.4366347037 1.0375090741 -0.0725747685 0.0142180185 -0.0092338519 0.0205823056
-0.2068798148 0.7962962963 -0.1532820833 0.0033258519 0.0172785185 0.0278275833
0.2479208889 0.8333333333 0.1779462315 0.0000000000 -0.0184173889 0.0284507130
-0.0409104074 0.9760523889 -0.3371136944 0.0004121111 0.0113999630 0.0419900833
0.3675437593 1.2349505926 -0.3425427870 0.0000000000 0.0023750926 0.0458310648
-0.4814814815 0.9613315370 0.1967690093 0.0178522593 0.0016084815 0.0278275833
0.2556139630 0.8703703704 0.2425707685 0.0021046111 0.0169778333 0.0257229722
-0.3548513333 1.0972210926 -0.3240242685 0.0000000000 0.0000000000 0.0093090648
-0.2478428519 0.8703703704 0.2511809907 0.0000000000 0.0183285370 0.0272001204
0.2702975185 0.8379969444 0.3981979537 0.0023588889 0.0010992222 0.0457820278
0.2592592593 0.8300042407 -0.1072719167 -0.0116349630 0.0139024074 0.0274819167
0.2666647037 0.7918315556 -0.2018098426 0.0172891667 0.0000793704 0.0212126204
0.2783688519 0.5130104815 -0.3235240833 0.0028264259 -0.0025411852 0.0457110093
0.3069263333 0.8278319815 -0.1136347685 0.0158011481 0.0000000000 0.0183140648
-0.4128461481 0.3391459444 0.4451835463 0.0002702407 -0.0035381481 0.0096822130
0.2054697593 0.7777777778 -0.0385807685 0.0011578519 -0.0180757037 0.0276621759
0.2308916111 1.1111111111 -0.3339465833 -0.0046663889 0.0150094444 0.0336329722
0.3442180370 1.0773249815 -0.2875131019 -0.0134027593 0.0066217407 0.0341753056
-0.2199397222 0.8518518519 0.2401847500 0.0000000000 -0.0185185185 0.0278275833
-0.4259002407 0.8893898148 0.1203945093 0.0004480556 0.0000000000 0.0280516019
-0.2778492593 0.6838609815 -0.3240957315 0.0082412963 0.0017357407 0.0114309352
-0.2164700741 0.8703703704 0.3424168426 0.0000000000 -0.0185185185 0.0278275833
-0.1356860185 1.4414055370 -0.4846345648 -0.0117277593 0.0050876481 0.0201524722
0.0925925926 1.5299807037 -0.5149838426 -0.0151613333 -0.0081049815 0.0278275833
0.2282851111 0.8023591852 -0.0639642130 -0.0103375556 0.0150449074 0.0278516019
-0.2407782963 0.8703703704 0.2778583611 0.0029627593 -0.0178577037 0.0307903426
0.4074074074 1.0798550370 -0.1835062685 0.0167977593 -0.0053772963 0.0224502870
-0.2434549259 0.7714843704 -0.1943946389 0.0000000000 0.0000000000 0.0463461019
0.1328326296 0.7777777778 -0.1881043056 0.0022969074 -0.0179704444 0.0266791389
-0.1337154630 0.7962962963 -0.2005049907 0.0064544815 0.0169948148 0.0278275833
0.2192120000 0.8888888889 0.3636663981 0.0028196667 0.0175848704 0.0318937685
-0.0701465556 0.8333333333 0.1825823611 0.0023070370 0.0181441296 0.0278275833
-0.2202560370 0.8116020556 -0.1228136759 0.0124576852 0.0130829259 0.0243161944
-0.3622011667 0.8313621296 0.3426423981 -0.0032440926 -0.0032440926 0.0102626759
-0.3058723519 0.4092099259 -0.3718118981 0.0082560556 0.0021849630 0.0120744167
-0.2240452593 0.8003360556 0.0874228241 0.0000000000 -0.0140704630 0.0393431204
-0.2777080185 0.8703703704 0.2319927130 0.0000000000 0.0185185185 0.0278275833
-0.4182328148 0.1491763333 0.4857952315 0.0128322778 -0.0037292222 0.0150090648
0.2407407407 0.7590380000 -0.2237531019 -0.0185185185 0.0000000000 0.0278275833
0.0748127037 0.8158578519 0.4535073241 0.0036613519 0.0000000000 0.0459786389
-0.2273661667 0.7421254815 -0.2499501944 0.0000000000 -0.0026581852 0.0104101204
0.3265113889 0.8839301296 0.2987834537 -0.0136222963 0.0013378889 0.0401119907
0.3377752037 0.8911098148 0.2419057870 -0.0061361296 0.0174260000 0.0281550463
0.4124386481 1.0050311667 -0.0173829722 -0.0157152778 0.0094170370 0.0291722315
0.4154789444 0.8888888889 0.3082199537 0.0056967407 -0.0170902407 0.0237623796
0.3338074444 0.0822342778 -0.4356094907 -0.0076055556 0.0023162593 0.0112236204
0.4109283704 0.8888888889 0.0882906759 0.0036810370 -0.0175974259 0.0267082315
-0.0575252407 1.3835566481 -0.4582773796 0.0121298333 0.0062477963 0.0403231759
