-0.0168827553 0.2626232632 0.5527922790 0.2230496927 0.0003800938 -0.1214908192
0.0302628071 0.3902449631 0.5143675615 0.2229585879 0.0004564292 -0.1215137960
-0.4416843775 0.4954049446 0.4046213730 0.2216052938 -0.0000037091 -0.1231320437
-0.1398410463 0.4551707272 0.2045219628 0.2231499891 0.0014775665 -0.1230591778
0.4501841066 0.3037989234 0.5501679805 0.2229627869 0.0001846098 -0.1214534065
0.2703357308 0.7895095667 -0.3864903691 0.2222271008 0.0002946339 -0.1217043589
-0.3709704979 0.7947186305 -0.3102334584 0.2240903657 0.0002215014 -0.1219186133
-0.3886420276 0.4816053373 0.1695662876 0.2232504388 0.0014644052 -0.1230661002
0.3047417815 0.4023340863 0.5290383588 0.2229363347 0.0003294394 -0.1214800671
0.1047806299 0.6451454212 -0.4506386626 0.2233802578 0.0001606741 -0.1243396164
-0.4675802879 0.4682129252 0.5223676460 0.2227235708 0.0004246330 -0.1215722142
0.2576874743 0.2488349485 0.5572835604 0.2230160382 0.0002414600 -0.1214603795
-0.0294587325 1.0611703742 -0.5297006578 0.2231279697 0.0005845730 -0.1215653260
-0.3769936797 0.4551776332 -0.1146570619 0.2232749077 0.0014639957 -0.1230211590
-0.2648494887 1.0726234630 -0.4617231794 0.2237630780 0.0003594547 -0.1216918736
0.0263695726 0.4356155853 0.0778343441 0.2229287244 0.0014821690 -0.1230366045
0.4154438442 0.3358710138 0.5449493291 0.2229930926 0.0002148575 -0.1214565319
-0.0813179398 0.4195553423 0.5085520900 0.2231284968 0.0004615112 -0.1215181544
-0.3300427630 0.8749149661 -0.3626587229 0.2239446874 0.0002552095 -0.1217908478
-0.1485659576 0.8693361050 -0.4632763025 0.2234105188 0.0003076448 -0.1215269857
-0.1052456939 0.6076811864 -0.4220477022 0.2234176958 0.0003448923 -0.1215370275
-0.4376086089 0.7766169139 -0.2355007915 0.2240183307 0.0002020237 -0.1218670625
-0.1547602231 0.4540978231 0.1773255822 0.2231617120 0.0014769739 -0.1230544562
0.2461295149 0.6228168899 -0.3690630170 0.2223831664 0.0002016023 -0.1215991562
-0.4572796698 0.5095233643 0.3508154345 0.2226190382 0.0013980447 -0.1231048188
0.4475245009 0.8801883742 -0.2476661979 0.2243936091 -0.0001429177 -0.1234667795
-0.3121466646 0.7418551354 -0.3493328366 0.2238409559 0.0002380204 -0.1217107185
-0.4823720952 0.3988889440 0.5339568745 0.2215570977 0.0001912865 -0.1229388587
0.3604676684 0.4991331824 0.4899139891 0.2227744352 0.0014046961 -0.1225287808
0.1909231553 0.4636100429 0.4982154364 0.2228710508 0.0009946226 -0.1219010133
-0.2101007435 0.4401769810 -0.0873801662 0.2231399249 0.0014809629 -0.1230261785
-0.0698180934 0.4241139654 -0.1599632593 0.2231361220 0.0014815005 -0.1230230650
0.3603724584 0.3686972868 0.5387955051 0.2229595915 0.0002667672 -0.1214660005
0.3374426758 0.4727989044 0.1492935897 0.2228233356 0.0014692266 -0.1230696500
-0.3389024978 0.4587046141 -0.0038877810 0.2231967230 0.0014731873 -0.1230537206
0.3856557237 1.0069198427 -0.3437437967 0.2219497319 0.0002728006 -0.1219320382
0.3216813773 0.4783249192 0.2368742185 0.2228108265 0.0014691328 -0.1230514379
-0.3826613778 1.0941271526 -0.3802253507 0.2239537570 0.0005661510 -0.1219183066
0.1668893573 0.6889002586 -0.4179807038 0.2224769901 0.0002813371 -0.1215721561
0.4105842768 0.7328915231 -0.2365425679 0.2217472391 0.0001244153 -0.1221674990
0.1696981166 0.4757476511 0.4253158985 0.2228871529 0.0014800785 -0.1229531845
0.2023321769 0.4781970941 0.4160645553 0.2228837862 0.0014805564 -0.1229952042
-0.3963486099 0.8180947558 -0.2842743397 0.2242252756 0.0002160606 -0.1220835921
0.4530274987 0.3327377780 0.5469778989 0.2229301360 0.0002024064 -0.1214573955
-0.3573302067 0.4961543996 0.4955667362 0.2232529061 0.0013028496 -0.1223318152
-0.3187891592 0.6466367893 -0.3529198676 0.2237293863 -0.0004125676 -0.1217513326
0.0946618088 0.4298140628 -0.3122196646 0.2229487084 0.0014589167 -0.1226452180
-0.1039051665 0.4301454186 -0.1067196063 0.2231297088 0.0014825234 -0.1230143141
0.1705690923 0.7090444046 -0.4209176352 0.2224695302 0.0002888327 -0.1215769805
-0.1805652059 0.3789319689 0.5276521413 0.2231067528 0.0003740262 -0.1214910187
0.3793596014 0.4631730839 -0.0235956039 0.2227578864 0.0014607214 -0.1230476871
0.2707676331 0.4738967553 0.2705960610 0.2228442889 0.0014737680 -0.1230478688
-0.2852150677 0.3100668499 0.5468939697 0.2230489958 0.0002783278 -0.1214672631
0.3570801224 0.5002350774 0.4314558629 0.2227788278 0.0014670154 -0.1229988567
-0.4591643734 0.4871472101 0.4021134939 0.2220901600 -0.0011578101 -0.1228827590
0.3157704576 0.4694551872 -0.3454893379 0.2231018361 0.0003219735 -0.1214886274
-0.0314061218 0.4200691875 -0.1736462031 0.2231250914 0.0014832069 -0.1230081630
0.4279208279 0.9492009047 -0.2660894443 0.2217332752 0.0002059339 -0.1222091525
-0.3573296156 0.4842635344 0.2487743303 0.2232356992 0.0014677093 -0.1230577543
0.2443480604 0.2742473909 0.5528860237 0.2230101909 0.0002510894 -0.1214620070
0.2023379677 1.0978607538 -0.5317817583 0.2234752042 -0.0010568868 -0.1237642917
-0.1886222286 0.8170966027 -0.4382511756 0.2235684620 0.0003125913 -0.1215816783
0.0308125507 0.2795566052 0.5495540295 0.2229837015 0.0003788073 -0.1214904187
-0.0246173756 0.4273483077 -0.0453280821 0.2231050211 0.0014831130 -0.1230249039
-0.4169109475 0.4859734274 0.1613298428 0.2232976567 0.0014566877 -0.1230636671
0.2908021884 0.4372722657 0.5190638253 0.2229085156 0.0004356069 -0.1215108210
0.4271297255 0.4916220409 0.4550558303 0.2232078667 -0.0013956474 -0.1232937080
0.4186559423 0.5071779803 0.3831068226 0.2227397131 0.0014579801 -0.1230413723
-0.4838959981 0.1806272327 0.5503743269 0.2215744729 0.0001538872 -0.1227595974
0.0069933779 0.4431284987 0.1797468964 0.2229954542 0.0014827601 -0.1230569756
0.2489427502 1.0948813798 -0.4766038699 0.2223358547 0.0004694148 -0.1216943185
0.2076132564 1.0154996163 -0.4786072413 0.2224101412 0.0002923676 -0.1216032212
-0.3325675914 0.2940964668 -0.3541499272 0.2232392549 0.0005444085 -0.1242454279
-0.4036555849 0.8885649358 -0.2930938818 0.2242265085 0.0002280441 -0.1220879370
0.1553791727 0.4263593791 -0.2649314972 0.2229274588 0.0014834823 -0.1228500917
-0.2397033980 0.4351719452 -0.1898787746 0.2231349010 0.0014809361 -0.1230332795
-0.4141393299 1.0163756247 -0.3109839810 0.2242726751 0.0001989847 -0.1221500196
0.0434627429 0.8294426940 -0.4734572509 0.2229121235 0.0001975657 -0.1214580685
0.0669707703 0.4291320881 -0.0725895740 0.2229017451 0.0014816270 -0.1230185875
0.1701698319 0.4683116686 0.3250154963 0.2228924240 0.0014781174 -0.1230559035
-0.2414839979 0.3068004270 0.5469821694 0.2230529134 0.0003066695 -0.1214729392
-0.1802928342 0.4431809831 -0.0059879526 0.2231659408 0.0014780623 -0.1230352420
0.0013737776 0.4200480109 -0.1472453695 0.2230132597 0.0014863159 -0.1230147459
0.2545755952 0.4804186494 0.3703913435 0.2228400348 0.0014739869 -0.1230380041
0.3537015298 0.4384880815 -0.1076606575 0.2216092560 -0.0003477154 -0.1226876606
-0.1658331078 0.4507464256 0.1246253103 0.2231671052 0.0014774250 -0.1230421614
0.4225569240 0.8689683981 -0.2525325016 0.2217408885 0.0002007462 -0.1221945155
0.0900648676 0.4655742683 0.4708697383 0.2229001728 0.0013974253 -0.1225408641
0.2084879977 0.4339547223 -0.1774786206 0.2228958517 0.0014802795 -0.1230306931
-0.3414017883 0.7452908254 -0.3268095449 0.2239903731 0.0001848510 -0.1218158541
0.3623676850 0.9557798277 -0.3535654228 0.2220419683 0.0002743254 -0.1218412417
-0.0936947031 0.5195132122 -0.3945617502 0.2232885797 0.0005997444 -0.1215939432
-0.0574820455 0.6115615142 -0.4340447632 0.2232577692 0.0003675624 -0.1215071298
-0.4335913209 0.3593635138 0.5418010975 0.2230602884 0.0002162735 -0.1214570382
0.3852194125 0.8435174441 -0.3022667946 0.2218689638 0.0002221908 -0.1220128897
0.0539743874 0.9816638306 -0.5012502252 0.2229593011 0.0003670561 -0.1214881196
0.1067510124 0.4226594964 -0.2379565956 0.2229173737 0.0014846527 -0.1229711061
-0.3704684218 0.4579506147 -0.0603906888 0.2232402957 0.0014677465 -0.1230489453
-0.3288407622 0.0495527907 -0.4399320315 0.2243692087 -0.0001727618 -0.1224523933
-0.2491483654 0.5495425560 -0.3600121118 0.2234749987 0.0001424874 -0.1215193560
-0.1262404236 0.8925032931 -0.4741491781 0.2233119616 0.0003038389 -0.1215025407
0.4704827057 0.3684904849 0.5421868451 0.2229982103 0.0002465777 -0.1214623167
-0.3055671519 0.8568759575 -0.3783275378 0.2239030355 0.0002584928 -0.1217596576
-0.0417851480 0.4602732317 0.3495447280 0.2231233076 0.0014807902 -0.1230422731
0.3283392995 0.4744566316 0.1766309732 0.2228186869 0.0014692400 -0.1230632860
0.0894300482 0.7730688025 -0.4585999631 0.2227151207 0.0002336800 -0.1214916263
-0.4669272580 0.4936480661 0.4783160351 0.2219767350 -0.0010256892 -0.1230781313
0.3172700048 0.6060836687 -0.3679701647 0.2226444078 0.0000490880 -0.1243267708
-0.4150001148 1.1368374409 -0.4080377729 0.2224512437 0.0012355972 -0.1235010356
0.3574815924 0.7568551517 -0.3128120429 0.2220012143 0.0002063002 -0.1218643361
0.2998223054 0.6413224842 -0.3692972181 0.2236816577 -0.0010484710 -0.1236474926
-0.4335874584 0.4905105583 0.4182423071 0.2233147237 -0.0013897509 -0.1227378371
0.3211901962 0.2791492059 0.5526469595 0.2230117231 0.0002309164 -0.1214586880
-0.1893684568 0.9068991293 -0.4594244192 0.2235316821 0.0003280621 -0.1215712002
-0.3862881474 0.6768712986 -0.3033417207 0.2218719656 -0.0007225427 -0.1234640338
0.1422275119 0.2510610036 0.5568169732 0.2230155796 0.0002856269 -0.1214683174
-0.4573433322 0.3853623920 0.5097197365 0.2230981523 -0.0002301778 -0.1243366161
0.3330191366 0.4587245176 0.0020582196 0.2228483732 0.0014737874 -0.1230537876
0.3016313557 0.4493869268 -0.0683488891 0.2228744576 0.0014774891 -0.1230433512
0.4238579184 0.9859272720 -0.2821703726 0.2217360120 0.0001910245 -0.1222008274
0.2002015358 0.4316284706 -0.1961829628 0.2229035364 0.0014819218 -0.1230156169
-0.1065256709 0.4436547026 0.5019719400 0.2231344364 0.0006571798 -0.1216011664
0.2561082445 0.4845539931 0.4367049615 0.2228216426 0.0014736876 -0.1229483109
0.0653014676 0.4198628858 -0.2355004282 0.2229036779 0.0014834659 -0.1229760452
-0.3344032651 0.4398495786 -0.2593446386 0.2232782475 0.0014658972 -0.1229555073
-0.3023730246 0.4473483151 -0.3345757455 0.2232411355 0.0012093624 -0.1221028375
0.4494590073 1.1306603065 -0.3711328233 0.2241850977 0.0003102446 -0.1237336271
0.3881415760 0.4727881806 0.0787070350 0.2227631605 0.0014608465 -0.1230597183
0.1658785939 0.4816963096 -0.3630247487 0.2227917657 0.0005882806 -0.1215817393
-0.3768231409 0.2564777999 0.5562166094 0.2230219391 0.0002142961 -0.1214561403
0.0291250822 0.7781049198 -0.4683720366 0.2229280722 0.0001955436 -0.1214567552
-0.3481709258 0.4804825858 0.2188987591 0.2232319275 0.0014680577 -0.1230596900
-0.3797575723 0.4442723806 -0.2124981444 0.2220033167 0.0009888572 -0.1232066325
0.3371244426 0.4522503356 -0.0833391733 0.2228475900 0.0014743592 -0.1230459465
-0.1401817842 1.0799360739 -0.5155673347 0.2234192950 0.0004827488 -0.1215800985
-0.4488917470 1.0941831362 -0.3110568231 0.2218398136 -0.0005168873 -0.1236161416
0.1499841307 0.4625133743 0.2814115697 0.2228963415 0.0014781308 -0.1230598449
-0.3070709249 0.4695032642 0.1565159997 0.2231983356 0.0014726364 -0.1230581251
0.3194466890 0.4740743385 0.1890095545 0.2228216903 0.0014700813 -0.1230580744
-0.4786814369 0.3771864738 0.5230601182 0.2218692035 0.0000105481 -0.1238480765
0.0895639723 0.7909837591 -0.4618261263 0.2227362586 0.0002362515 -0.1214878204
0.3310624664 0.3791790767 -0.3164261336 0.2220998474 0.0004692644 -0.1239746657
0.4277112326 0.5033483189 0.3156740892 0.2227369391 0.0014553833 -0.1230661791
0.1382882523 0.8720689161 -0.4667990115 0.2226665091 0.0003067678 -0.1215167830
-0.2842809866 0.6339258993 -0.3814356452 0.2233544071 -0.0010715923 -0.1220908853
-0.4657709696 0.2503165234 0.5440527813 0.2238790268 0.0001116813 -0.1217443402
-0.1430423967 0.4539497773 0.1884482473 0.2231548105 0.0014773149 -0.1230575086
0.0910663605 0.6225342469 -0.4293938946 0.2226588006 0.0003342608 -0.1215253224
-0.4384561252 0.4298988110 0.5306370588 0.2231090787 0.0002900850 -0.1214719371
0.3837320990 0.4521371429 -0.0044121669 0.2244818579 0.0000170804 -0.1231423998
-0.2999295346 1.0188842319 -0.4213291247 0.2239424629 0.0002848496 -0.1217963005
0.2795133965 0.3660185042 0.5358951079 0.2229672911 0.0002953054 -0.1214713058
-0.0294608230 1.0106023680 -0.5101880494 0.2230438260 0.0004509273 -0.1215108299
0.1644276285 0.4328550995 -0.1368034507 0.2228903677 0.0014800814 -0.1230277970
0.3740714254 0.4298608667 0.5265379784 0.2229340149 0.0003520023 -0.1214860306
0.0743862372 0.2678689073 0.5533508837 0.2230080095 0.0003433467 -0.1214809054
0.2968480223 0.4661006540 0.1289276013 0.2228505785 0.0014736996 -0.1230584690
-0.2231474414 0.6465827608 -0.4059210480 0.2232684409 0.0012319432 -0.1221815359
0.2422304540 0.4684160464 0.2351898411 0.2228516669 0.0014748163 -0.1230466195
0.3876391708 0.6798862062 -0.2741203379 0.2222580780 -0.0008192461 -0.1220241198
0.4682585372 0.3109890026 0.5198550409 0.2237743631 -0.0000714603 -0.1242111063
-0.3134678573 0.4751097985 0.2183343383 0.2232190774 0.0014706486 -0.1230499981
-0.3292145575 0.0292905159 -0.4523574390 0.2243821944 0.0002141755 -0.1234409408
0.2920957407 1.0543822415 -0.4361834122 0.2221612108 0.0003575875 -0.1217676520
0.2054506999 0.4451028122 -0.0145731908 0.2228843908 0.0014788158 -0.1230380161
0.3639599883 0.2850603311 0.5519844327 0.2230124556 0.0002210815 -0.1214571677
0.4729246740 0.2565397127 0.5256243442 0.2237348673 -0.0000644799 -0.1242334429
0.1518587866 0.4255609388 -0.2479123394 0.2229067944 0.0014840005 -0.1229635048
0.0371970663 0.2498308978 0.5567284548 0.2229885556 0.0003550920 -0.1214840844
-0.2377115902 1.1149964888 -0.5175859074 0.2228029958 0.0012133381 -0.1237138159
-0.4432074182 0.4751164320 0.5009186670 0.2244055836 -0.0001982908 -0.1233914671
-0.0645867184 0.4355082995 0.0292117497 0.2231363811 0.0014810374 -0.1230299888
-0.3763999046 1.0132396625 -0.3567871547 0.2240338491 0.0002819237 -0.1218767544
-0.0382677086 0.7360813784 -0.4616313436 0.2231810095 0.0002394499 -0.1214696664
-0.0594550397 0.4282455375 -0.3138692007 0.2230955704 0.0014698594 -0.1227077413
0.4858980979 0.3408112496 0.5458873635 0.2237836501 0.0002656132 -0.1216932152
-0.1389898253 0.4265764954 -0.2154267046 0.2231408079 0.0014820067 -0.1230078875
0.2082056838 0.5777640362 -0.3781852619 0.2224705606 0.0002798585 -0.1215746011
0.2693806666 0.4638446088 0.1423125162 0.2228365491 0.0014720408 -0.1230578124
-0.1291694946 0.8558739866 -0.4657560304 0.2233479076 0.0003000449 -0.1215088674
0.1663676159 1.0205535450 -0.4943270189 0.2226139488 0.0003224798 -0.1215351662
-0.3264229009 0.3444239556 -0.3274913841 0.2244239877 0.0001550173 -0.1233087886
0.1935208631 0.7276447890 -0.4150329116 0.2224099863 0.0002835914 -0.1216023591
0.0649708519 0.3502578535 0.5295447516 0.2229327671 0.0004172847 -0.1215031005
-0.0506495627 0.9465064443 -0.4930644453 0.2230810749 0.0002986602 -0.1214723615
-0.4457196139 0.9890466020 -0.2983308688 0.2218074426 -0.0002213868 -0.1237275996
-0.1543528462 1.0852343827 -0.5133804941 0.2234521946 0.0005237501 -0.1216059104
0.1745072053 0.6104638465 -0.3994325299 0.2224999222 0.0002951952 -0.1215661673
0.3857397885 0.4451603845 -0.1805029283 0.2242345401 0.0007881274 -0.1232340659
-0.4094820080 0.7612281957 -0.2482759470 0.2242934854 0.0001798063 -0.1221794766
0.0779216578 0.3247266971 0.5369077564 0.2229642238 0.0003919508 -0.1214946564
-0.1076066409 0.4573058547 0.2573626478 0.2231318113 0.0014785180 -0.1230660034
-0.4141784997 1.0973499982 -0.3469056378 0.2241621254 0.0006252570 -0.1222095396
-0.2036157931 0.2721863087 0.5529853121 0.2230331826 0.0002769773 -0.1214668284
-0.1850329030 0.5053686635 -0.3682318812 0.2233222848 0.0004576799 -0.1215461849
0.4218825149 0.4889461217 0.3593789407 0.2216838775 -0.0005114077 -0.1226808722
-0.1806159185 1.1042588223 -0.5129166348 0.2234791515 0.0008024144 -0.1217630823
0.4174040032 0.4903217971 0.3303696979 0.2216305160 0.0003631594 -0.1227673254
0.3378321727 0.4301462360 -0.2194528640 0.2216085145 0.0004336146 -0.1227725220
-0.0975228665 0.4307640495 -0.0861547553 0.2231297461 0.0014825070 -0.1230146536
0.4424906335 0.7544139801 -0.2212073899 0.2240840613 -0.0002476126 -0.1239268180
-0.3977562304 0.4321356346 -0.0800555911 0.2220706078 -0.0011419597 -0.1229782801
-0.4471350502 0.9466420406 -0.2800438098 0.2215719788 0.0000909797 -0.1226291189
0.1393011062 0.4454278947 0.0870350670 0.2228777066 0.0014783304 -0.1230359255
-0.3247089176 1.0065679491 -0.3976987801 0.2239095514 0.0002924495 -0.1217722099
-0.3335839207 0.4714599002 0.1440392215 0.2232084415 0.0014704610 -0.1230678006
-0.3486262442 0.4334711411 -0.1401940402 0.2243219805 -0.0006097431 -0.1226762861
-0.0211412650 0.4373829598 0.1042204246 0.2230906999 0.0014823537 -0.1230430846
-0.3250108268 0.7024130418 -0.3336718137 0.2239294683 0.0001220984 -0.1217591052
0.3962098331 0.4424430695 -0.1304654531 0.2244690138 -0.0001180989 -0.1231902877
0.2028678390 0.7915757622 -0.4257938453 0.2223968250 0.0003055304 -0.1216134358
-0.0084256042 0.8421595817 -0.4771739251 0.2230468427 0.0002104798 -0.1214563577
-0.3729630785 0.3770393139 0.5378121646 0.2230825223 0.0002736598 -0.1214673972
-0.1091213417 0.6469918187 -0.4300601708 0.2234226229 0.0003221567 -0.1215329119
-0.0584360525 0.6695730477 -0.4471792974 0.2232813700 0.0002725653 -0.1214897635
0.2755163649 0.4398706644 -0.1714570455 0.2228913444 0.0014797300 -0.1230344603
0.4728467647 0.4445801967 0.5216100105 0.2244580100 0.0001264493 -0.1231775879
0.3365512293 1.0442610246 -0.3975902227 0.2221155237 0.0003418696 -0.1217975736
-0.3113038282 1.1132937311 -0.4787169810 0.2222242374 -0.0005487847 -0.1240603833
0.3377206939 1.1064490698 -0.4230282939 0.2221801063 0.0005553989 -0.1218328779
0.4027237641 0.3893866768 0.5366178441 0.2229669070 0.0002601098 -0.1214648122
0.1211490628 0.4467518584 0.1293704224 0.2228917971 0.0014787071 -0.1230478063
-0.0085794899 1.0958074635 -0.5862246857 0.2228919966 0.0011517543 -0.1238391618
-0.3512558583 0.8558479037 -0.3416367503 0.2239846583 0.0002351779 -0.1218208065
-0.2867324279 0.9707669389 -0.4193123017 0.2238908138 0.0002848928 -0.1217567719
-0.1523345922 0.4490986956 0.1201116953 0.2231689411 0.0014773044 -0.1230412874
-0.1245127177 0.4454259411 0.1094186275 0.2231507112 0.0014789930 -0.1230413097
0.0643629224 0.6067594640 -0.4314296891 0.2227557676 0.0003769267 -0.1215144810
-0.2732434553 0.4689934170 -0.3479092883 0.2231109950 0.0002811137 -0.1214704035
0.2039562258 0.4294027788 -0.2746597880 0.2229441058 0.0014866747 -0.1228999227
0.3938061159 0.4326512979 -0.1180880987 0.2241318494 -0.0009504096 -0.1230460150
0.2904663344 1.1132393839 -0.4911995767 0.2237895421 -0.0003879111 -0.1241435576
-0.2496570751 0.9285565914 -0.4348591313 0.2237968471 0.0003128534 -0.1216996715
0.3507539415 0.4752210376 0.1544442175 0.2228145564 0.0014679267 -0.1230712968
-0.4138235611 0.8682353461 -0.2704803459 0.2242807708 0.0002227641 -0.1221695658
-0.0610411070 0.4327489052 -0.0087672966 0.2231380622 0.0014811907 -0.1230257720
-0.2380957014 0.6451591439 -0.3995141869 0.2233690024 0.0010261791 -0.1219458264
-0.3861681827 0.8998103605 -0.3182032343 0.2241335945 0.0002360073 -0.1219703041
-0.3609901469 1.0901120013 -0.3966197890 0.2239148195 0.0005086665 -0.1218548169
-0.3071538997 0.4405649993 -0.1974123360 0.2231565273 0.0014791687 -0.1230316744
0.0027166234 0.4452458594 0.4934684615 0.2230134458 0.0008885846 -0.1217857837
0.1682756880 0.4272073049 -0.2509107309 0.2229167960 0.0014852498 -0.1229287588
0.2758297811 0.4942205290 -0.3504192355 0.2228674191 0.0001203399 -0.1214540155
-0.0562035441 0.4436657913 0.1509021946 0.2231353268 0.0014791895 -0.1230553064
-0.4943551134 0.2934296457 0.5414343898 0.2216573002 0.0001251717 -0.1234815236
0.2953251350 0.8541420549 -0.3845324377 0.2221695135 0.0002687073 -0.1217374506
-0.0615208034 0.4294027788 -0.0584274059 0.2231398177 0.0014813918 -0.1230203207
-0.3413129513 0.2111324893 -0.3766823525 0.2216570620 -0.0001732919 -0.1224609432
0.0969047120 0.2846050589 0.5488090267 0.2230020386 0.0003837017 -0.1214913240
-0.3993038084 0.4791935661 0.1312728944 0.2232787374 0.0014598995 -0.1230669400
-0.2998881835 0.5819368671 -0.3438070958 0.2233657638 -0.0000606114 -0.1214904976
0.1168744554 0.4475836539 0.1443588528 0.2228952858 0.0014786118 -0.1230527453
-0.1088918890 0.9999043240 -0.5012584266 0.2232171387 0.0003612579 -0.1214989477
0.0644656980 0.5018038767 -0.3915215548 0.2228340014 0.0006920047 -0.1216250158
0.1086937441 0.6934190300 -0.4401318351 0.2226332835 0.0002857430 -0.1215209671
0.0005488450 0.4268494583 0.5019325871 0.2230185040 0.0005080411 -0.1215309836
0.3358402160 0.2569147142 -0.3693161672 0.2231361815 0.0005500757 -0.1242888145
-0.4681749712 0.4871067672 0.4979806441 0.2218245125 -0.0005249591 -0.1236125754
-0.2926986730 0.7172127557 -0.3581371328 0.2238229851 0.0001608155 -0.1216869837
0.1056326907 0.4358777782 -0.0101353379 0.2229052651 0.0014813560 -0.1230271180
-0.3691706780 1.1091510719 -0.4019057613 0.2238476311 0.0006946893 -0.1219056084
-0.3191523693 0.4745266103 -0.3685850240 0.2228149897 -0.0000516208 -0.1243782457
0.1929506545 0.4045189719 0.5213773535 0.2229195507 0.0004124201 -0.1215025258
-0.1611428878 0.9657624495 -0.4830533314 0.2233841366 0.0003315434 -0.1215251289
0.3785289436 1.0336254175 -0.3582669115 0.2219871670 0.0002983370 -0.1219000990
0.0938781827 0.4572191990 0.2663647018 0.2229071919 0.0014784152 -0.1230663250
0.0054557509 0.4299732419 0.0056967464 0.2230001728 0.0014850398 -0.1230290239
0.2894379858 0.7057842058 -0.3577481139 0.2222268596 0.0001341445 -0.1216775330
0.4039330923 0.4740513453 0.0499638149 0.2227405231 0.0014559715 -0.1230565810
-0.0222984840 0.4286700454 -0.3269199427 0.2230929929 0.0014353711 -0.1225548548
0.3392464952 0.7494450259 -0.3274074549 0.2220468969 0.0001881373 -0.1218186460
-0.0361862463 0.4309173664 0.5015163045 0.2230925284 0.0005496617 -0.1215499997
-0.4660061714 0.4976079603 0.3496831400 0.2215518087 -0.0001836360 -0.1230194750
0.1058473070 0.3380690101 0.5351925923 0.2229513067 0.0003635421 -0.1214875270
0.1381452497 1.0712527862 -0.5131400212 0.2226419986 0.0004093588 -0.1215493684
-0.4094170279 1.1353910602 -0.3925867786 0.2235999768 0.0011951484 -0.1222673696
-0.4040983153 0.9278722521 -0.3025178780 0.2242102604 0.0002357050 -0.1220670761
0.1358116021 0.4334527370 0.5080526033 0.2229060528 0.0005034400 -0.1215332916
-0.1080514156 0.4518281446 0.1992952231 0.2231381247 0.0014782916 -0.1230628869
0.1558862414 0.6420516738 -0.4130061375 0.2225036730 0.0002896740 -0.1215637492
-0.2622211909 0.4467560396 -0.0512574803 0.2231506115 0.0014789260 -0.1230427317
0.2994665389 0.7395766405 -0.3555458248 0.2222093072 0.0002291936 -0.1217024500
-0.0311342950 0.4646199189 0.4479821928 0.2231464125 0.0014777750 -0.1228238063
-0.1382753813 0.4692199855 0.4770626860 0.2231736523 0.0013956340 -0.1225206374
-0.4299554640 0.8207782183 -0.2305288146 0.2242357448 0.0002255783 -0.1221068444
0.1629746127 0.4473280944 0.0782458112 0.2228701991 0.0014777586 -0.1230341178
0.4684004706 0.5135814122 0.4765840587 0.2241870275 0.0008932705 -0.1228834499
-0.2817487504 0.2655768268 0.5546400851 0.2230268171 0.0002389630 -0.1214599655
-0.4497792521 0.2685130539 0.5546359039 0.2230396121 0.0001943613 -0.1214535688
0.2839796105 0.9563820097 -0.4162604950 0.2221587033 0.0002916053 -0.1217508978
0.3876451461 0.4473075998 -0.1667237650 0.2241628118 0.0008648513 -0.1232299205
-0.0544491194 0.8154550075 -0.4708472886 0.2231687044 0.0002058341 -0.1214628348
0.4045707974 0.4474552838 -0.0891639541 0.2244824848 -0.0000158966 -0.1231980141
0.2230066962 0.5711086364 -0.3709255449 0.2224857618 0.0002189612 -0.1215581207
-0.3524242791 0.4486147065 -0.1553454973 0.2232433482 0.0014690032 -0.1230240120
0.2385090745 1.0997536365 -0.5085482260 0.2230631890 -0.0014592964 -0.1228046979
-0.2921222554 0.4893325498 0.4329720422 0.2232428777 0.0014702212 -0.1229730076
0.4265861404 0.7098119897 -0.2104353125 0.2218958329 -0.0002686210 -0.1220646728
0.3689861307 1.1126062113 -0.4027383951 0.2222063113 0.0006917500 -0.1218931394
0.3950058787 0.5076091232 0.4690735977 0.2227625247 0.0014657110 -0.1228881983
-0.4584694012 0.3806418619 0.5246032441 0.2231880049 0.0002151657 -0.1214887480
0.4702318277 0.4651463060 0.5151509151 0.2244416935 0.0000258581 -0.1232286281
-0.3095416339 0.5063017917 -0.3479127651 0.2230791184 -0.0000260814 -0.1214435254
-0.3428945650 1.0664148823 -0.4020858654 0.2239341870 0.0004376841 -0.1218391213
0.2411119328 0.4783410050 0.4909263190 0.2228064131 0.0013580634 -0.1223686279
-0.3245421044 1.0365831607 -0.4065495868 0.2239095618 0.0003420795 -0.1217858224
0.4483776755 1.0031570704 -0.2678378027 0.2242531095 0.0001670038 -0.1222965511
0.3838482801 0.4254113013 -0.1371377561 0.2240006845 -0.0011156489 -0.1230224604
0.1895722674 0.4762425934 0.3989491319 0.2228877738 0.0014803107 -0.1230195554
0.4350251151 1.0401272726 -0.3146491698 0.2222178570 -0.0003469203 -0.1240991436
-0.0059310845 0.2871211855 0.5468760659 0.2230308091 0.0003767227 -0.1214894508
-0.4455702950 0.5000772161 0.4331417635 0.2216109833 0.0003477675 -0.1231689160
0.0460635717 0.4630695698 0.3749898645 0.2229055704 0.0014808721 -0.1230298980
0.4053334881 0.5089158204 0.4551443040 0.2227573251 0.0014644245 -0.1229285980
0.3773475953 1.1110523154 -0.4150025791 0.2228006075 -0.0013861490 -0.1224979658
-0.3070937811 0.4364845046 -0.2770066595 0.2231590467 0.0014820573 -0.1229085694
0.0587711218 1.0663242733 -0.5280008990 0.2228239744 0.0005310090 -0.1215533961
-0.2859431674 0.4830275441 0.3529307061 0.2232254876 0.0014695884 -0.1230511491
0.1766678484 0.6671803148 -0.4097568456 0.2224648949 0.0002650533 -0.1215736600
0.0526329294 1.0172300947 -0.5116821885 0.2229519008 0.0004417714 -0.1215098040
-0.2696308641 0.4713674286 0.2388898146 0.2231936050 0.0014743443 -0.1230442133
0.3859622220 0.4060057047 0.5327526923 0.2229478656 0.0002991098 -0.1214728365
-0.0420910551 0.8674435855 -0.4789079012 0.2231046846 0.0002234743 -0.1214600653
0.4049100925 0.4629298847 -0.0504298839 0.2236725837 0.0012808660 -0.1231829677
-0.0585162786 0.4260751012 -0.1153940345 0.2231478300 0.0014809168 -0.1230171432
-0.4095570762 0.9987877534 -0.3134934622 0.2242469093 0.0002050390 -0.1221126828
0.2653208035 0.7724749828 -0.3854724496 0.2222329079 0.0002878932 -0.1216991876
-0.1676522863 0.4668276160 0.3095303979 0.2231469336 0.0014780921 -0.1230565616
-0.4156248804 1.1092705809 -0.3556020794 0.2240962786 0.0006993693 -0.1221757794
-0.3829519720 0.4314847414 -0.2063548580 0.2216998084 -0.0005856316 -0.1231644236
0.2606764866 0.4801258753 0.3551279057 0.2228368603 0.0014728553 -0.1230484823
0.1550717944 0.4327178683 -0.1262533735 0.2228925476 0.0014803494 -0.1230266356
-0.0696121104 0.4285401758 -0.0869893635 0.2231394395 0.0014815898 -0.1230175169
-0.2826623845 0.4430692437 -0.1339425479 0.2231475054 0.0014799608 -0.1230324889
0.4182130080 0.5026239016 0.4496410099 0.2229140994 0.0009820911 -0.1239473231
0.0015576087 1.0345547740 -0.5184671408 0.2230160025 0.0005382857 -0.1215414990
-0.4494766625 0.4760582843 0.5195793054 0.2231394365 0.0004899958 -0.1215293264
0.0759826874 0.9016944268 -0.4823137367 0.2228919296 0.0002661939 -0.1214705553
-0.2344803838 0.4727067514 0.3046162003 0.2231746589 0.0014760581 -0.1230497107
0.4836358942 0.3569764154 0.5333176134 0.2243898895 0.0001098067 -0.1234607610
0.3397920696 0.8203960607 -0.3427397814 0.2220701194 0.0002309164 -0.1218066982
0.3162803317 0.9199359208 -0.3824444536 0.2221002197 0.0002493592 -0.1217855305
-0.1103275236 0.9333927666 -0.4849546211 0.2232391924 0.0003021087 -0.1214887584
0.3812176206 0.5036466381 0.4218028681 0.2227705504 0.0014649859 -0.1230223026
-0.3654906973 0.4495930021 -0.1872234111 0.2232380265 0.0014677852 -0.1230180693
0.3135377214 0.4930171195 0.4309521518 0.2227899998 0.0014690970 -0.1229888565
0.3590607745 0.9704900227 -0.3601886959 0.2220536466 0.0002725817 -0.1218301664
-0.3211711221 0.9053120628 -0.3773773248 0.2239412627 0.0002539885 -0.1217878176
-0.2236172091 0.7367823037 -0.4027814511 0.2236918499 0.0003005854 -0.1216358557
-0.0176571123 0.6465320944 -0.4632690317 0.2229726724 0.0006412683 -0.1242538750
-0.2898055913 0.6550451605 -0.3534276005 0.2236608265 0.0001160352 -0.1215930841
0.1267052940 0.4673077903 0.4788329700 0.2228616135 0.0013811534 -0.1224795826
-0.1491637083 0.4279666215 -0.2040149670 0.2231368873 0.0014824311 -0.1230060010
-0.0558710314 0.7671960311 -0.4639475534 0.2232259685 0.0002146833 -0.1214708353
0.0615996194 1.0284408002 -0.5145134259 0.2229041856 0.0004362442 -0.1215113973
-0.2501601965 0.3315065599 0.5415631232 0.2230562383 0.0002953010 -0.1214706834
-0.2935012482 0.4133366289 0.5253658321 0.2231154993 0.0003614083 -0.1214885946
0.4296288120 1.0507510660 -0.2894413480 0.2217861528 0.0002335579 -0.1221380852
0.3870149263 0.5014596158 0.3877932724 0.2227660551 0.0014623295 -0.1230470632
-0.4608567259 0.2871456782 0.5294043845 0.2243199242 -0.0002174811 -0.1235619433
0.4331710388 0.4869610844 0.3887215821 0.2232708159 -0.0014558479 -0.1228088075
-0.2638357041 1.1159246630 -0.4802845310 0.2236471813 0.0009459024 -0.1219814270
0.0694814680 0.4326522062 -0.0198865073 0.2229054602 0.0014815838 -0.1230239420
-0.4266781803 1.0151170953 -0.2888529587 0.2242952424 0.0001976714 -0.1221875634
-0.3881780313 0.4595011916 -0.0844513038 0.2232226138 0.0014674576 -0.1230543757
-0.3307025635 0.4488439090 -0.1109106091 0.2231860900 0.0014757752 -0.1230367132
0.0538955476 0.4665565173 0.4321145287 0.2228888310 0.0014780117 -0.1228835705
-0.1173020768 0.5121486618 -0.3860766982 0.2233113585 0.0006013034 -0.1215993543
-0.2124224523 0.4108839591 -0.2904190421 0.2229944342 -0.0009481969 -0.1240559520
0.3848040039 0.8930542175 -0.3159105626 0.2219065076 0.0002403537 -0.1219712720
-0.0549171375 0.4747766709 -0.3773307025 0.2231959472 0.0007858671 -0.1216776983
-0.3283450486 0.5828417757 -0.3451846562 0.2220043307 -0.0000623059 -0.1219675912
0.1566992337 0.5545755360 -0.3911376253 0.2226050326 0.0004280770 -0.1215657072
-0.0071958171 0.6900231917 -0.4560031338 0.2230549102 0.0002408793 -0.1214619653
-0.2193577672 0.4640915335 0.2210923241 0.2231825417 0.0014747553 -0.1230552081
-0.3969274799 0.4620902288 -0.0726765542 0.2229816169 0.0014490327 -0.1230958758
0.2946532587 0.6663074422 -0.3508578532 0.2223281640 0.0000758529 -0.1216159418
-0.3147644203 0.3306127832 0.5437998574 0.2230661626 0.0002786271 -0.1214677426
0.1042343631 0.4959267873 -0.3808309409 0.2227561085 0.0006382248 -0.1216105337
0.1383824571 0.4189152622 -0.2841232265 0.2230111855 0.0014392440 -0.1227465344
0.1180065459 0.4315036443 -0.3161414700 0.2229626320 0.0014501971 -0.1225982131
0.1591179869 0.2827063139 0.5501943359 0.2229976177 0.0003280233 -0.1214775135
0.0750515813 1.0872437756 -0.5348373812 0.2227314387 0.0007374387 -0.1216702056
-0.4512983842 0.8790040047 -0.2402168457 0.2215427422 -0.0000172471 -0.1229960395
0.4410928062 1.0980769603 -0.3248666762 0.2230984144 0.0007846252 -0.1217053059
-0.4462754461 1.0010319847 -0.2644120176 0.2228180690 0.0003287783 -0.1216652353
0.0759758826 0.5761612012 -0.4203007762 0.2227271816 0.0004619608 -0.1215449431
-0.4194834434 1.1228335779 -0.3636761884 0.2239795629 0.0008648513 -0.1221956680
0.3222775035 0.4497205994 -0.0899998979 0.2228623595 0.0014763753 -0.1230412338
0.2903987588 0.4700722741 0.1854930711 0.2228417963 0.0014733392 -0.1230503837
0.0306080434 0.4531373865 0.2792702151 0.2229268632 0.0014799876 -0.1230638667
-0.1190202174 1.0629748295 -0.5160271499 0.2233469576 0.0004294097 -0.1215430401
0.4269562788 0.4628307319 0.0420336287 0.2244771869 -0.0000304889 -0.1231562475
-0.3334073381 0.7748838014 -0.3393066808 0.2239556391 0.0002284834 -0.1217944571
-0.1849738297 0.3633530810 0.5316509804 0.2230997590 0.0003641600 -0.1214880660
0.1034151319 1.0993473957 -0.5660594091 0.2232585271 0.0006676222 -0.1242194984
-0.2459986805 0.7257564045 -0.3877135674 0.2237394341 0.0002679211 -0.1216541750
-0.2474294759 0.4315872549 -0.2719480165 0.2231164090 0.0014847465 -0.1229476037
0.4039520414 1.0282172321 -0.3261832113 0.2217979412 0.0002232376 -0.1221096974
-0.3886500250 0.4273490344 -0.1344239387 0.2220222405 -0.0011002362 -0.1230245197
-0.4036145524 0.4671892343 0.1392085661 0.2215754988 -0.0000380947 -0.1231335953
0.4295209127 0.3145043738 0.5481335500 0.2229822050 0.0002034681 -0.1214553377
0.4680137477 0.2989826056 0.5515523815 0.2229667179 0.0001608096 -0.1214504642
-0.0065600313 0.4157784825 -0.2356516783 0.2230391535 0.0014882635 -0.1229429937
0.3012606500 0.4362058611 -0.2759146827 0.2228932355 0.0014834183 -0.1229155171
-0.0503090288 0.4659446107 0.4240425103 0.2231531636 0.0014784227 -0.1229142023
-0.3852678186 1.0464222812 -0.3564665004 0.2240788647 0.0003181602 -0.1219326725
0.2106770451 0.2791330517 0.5518713293 0.2230022426 0.0002838371 -0.1214682533
0.3499125480 0.6895419274 -0.3089662496 0.2220298285 0.0000527882 -0.1218239737
0.4023868544 1.1349266544 -0.4211957322 0.2236322197 0.0011409278 -0.1236512583
-0.2354774469 1.1157448091 -0.4983531679 0.2234585839 0.0012007083 -0.1222337330
0.4063333103 0.4392014564 -0.0362422404 0.2240052378 -0.0011109958 -0.1229752753
0.2068664549 0.4741756712 0.3531419140 0.2228766122 0.0014774414 -0.1230459897
0.1714436132 0.4499481671 0.1051642081 0.2228721214 0.0014776469 -0.1230383436
0.4612479486 0.2836896990 0.5320969360 0.2215609512 -0.0001594590 -0.1231074305
0.2954146138 0.4622178262 0.0864922085 0.2228586429 0.0014746719 -0.1230578213
0.3970411729 0.5008106300 0.4990679528 0.2227942286 0.0011591443 -0.1221142567
0.4151781521 0.4941535044 0.2497537175 0.2227385695 0.0014554712 -0.1230693492
0.3058653222 0.6419243028 -0.3556314351 0.2226895857 -0.0010401355 -0.1220090600
0.3487972817 0.9558025470 -0.3656007884 0.2220752625 0.0002754778 -0.1218123922
-0.1087874651 0.4682689997 0.3775983497 0.2231233597 0.0014821258 -0.1230251689
0.4199741138 0.4607799878 0.0022998852 0.2243913234 0.0003047636 -0.1231917022
0.3664730937 0.5011449384 0.4208533370 0.2227766255 0.0014660550 -0.1230210816
-0.3166300394 0.4676837224 0.1276668011 0.2231927086 0.0014727317 -0.1230648271
-0.0908294553 0.4414858581 0.0897865309 0.2231278401 0.0014811550 -0.1230373520
0.4839587522 0.3014908480 0.5301956924 0.2240204242 -0.0000092750 -0.1240239458
0.2584373849 0.7848470661 -0.3931105525 0.2222492616 0.0002953144 -0.1216904397
0.3317346718 0.1260529125 -0.4072752534 0.2221260777 -0.0004145747 -0.1218675122
-0.3303796608 0.4407462172 -0.2267161934 0.2232097265 0.0014736430 -0.1230170285
0.0519243133 0.6809790585 -0.4504051420 0.2227820336 0.0002632576 -0.1214836362
-0.0843188300 0.4688434176 0.4546883960 0.2231324620 0.0014784703 -0.1228023304
0.3325193551 0.4961721217 0.4760371322 0.2227733467 0.0014412020 -0.1227435251
0.4452921741 0.2627879858 0.5554165774 0.2230045520 0.0001972113 -0.1214539038
0.3286321660 0.1916722506 -0.3832471896 0.2216927713 -0.0002400693 -0.1223570419
0.3755044021 0.3294308452 0.5452947247 0.2229994551 0.0002253088 -0.1214579316
0.1573826751 0.4519150727 0.1474537587 0.2228748999 0.0014771987 -0.1230475442
0.3575030400 0.8530073988 -0.3338531462 0.2220437134 0.0002431426 -0.1218322094
-0.2778187554 0.4833845271 0.3716833621 0.2232199381 0.0014710819 -0.1230407365
0.3639362118 0.4655284636 0.0384295247 0.2228066096 0.0014681724 -0.1230551366
-0.0329582666 0.4421405245 0.1550446037 0.2231180931 0.0014804239 -0.1230552617
-0.4343236449 1.0308160834 -0.2802116460 0.2241713989 0.0002489319 -0.1220347468
0.1033766784 0.4631691306 0.4560106325 0.2229477435 0.0014841598 -0.1229526350
0.0397733786 0.4479616750 0.2120398301 0.2229147218 0.0014794307 -0.1230608574
0.1356318271 0.4555735149 0.2124515683 0.2228934201 0.0014777601 -0.1230603556
0.4612789392 0.5010802769 0.3288962336 0.2242636159 0.0007168189 -0.1231028816
0.2514141978 0.5202764807 -0.3563850027 0.2227151222 0.0000875282 -0.1214753455
-0.0515901866 0.4431058688 -0.3526360216 0.2231187215 0.0011106623 -0.1219466007
0.2378604267 0.4375833993 -0.1632142100 0.2229029438 0.0014808617 -0.1230318024
-0.3266213868 0.4904633002 0.3667804795 0.2232364556 0.0014682230 -0.1230501440
0.0364987885 0.4402639091 0.4979360663 0.2229388407 0.0007037365 -0.1216551220
0.0491212048 0.8723621012 -0.4792183528 0.2229340863 0.0002299098 -0.1214611791
-0.0975741002 0.4446946625 0.1250783088 0.2231315671 0.0014800710 -0.1230473000
0.2473537510 0.4700526431 0.2496094880 0.2228527911 0.0014749637 -0.1230464126
-0.1476669098 0.4326490257 -0.1153585738 0.2231450679 0.0014806860 -0.1230242785
0.0047214719 1.0886394453 -0.5881461514 0.2231707845 -0.0004442759 -0.1243247427
0.4522160848 0.4908057416 0.2342668009 0.2243395612 0.0005530358 -0.1231382306
0.3116913254 0.5051231013 -0.3477693992 0.2230194569 -0.0000224974 -0.1214414766
0.0842471463 0.4341794727 -0.0139701006 0.2229117736 0.0014820156 -0.1230246582
0.3800967647 0.4591553419 -0.0697449222 0.2227341219 0.0014564450 -0.1230429893
-0.3069286951 0.4054151563 0.5283265742 0.2231061751 0.0003342563 -0.1214812598
-0.0306531438 0.4554858587 0.3066534034 0.2231100882 0.0014800933 -0.1230647556
0.3351344529 0.2390389735 -0.3608244132 0.2231691794 -0.0005473061 -0.1215592554
0.1834716261 0.8589036175 -0.4500663129 0.2225108232 0.0003254489 -0.1215689145
0.3879214370 0.4522282969 0.0523870946 0.2237629663 -0.0012581854 -0.1229014609
-0.0861822215 0.6364869448 -0.4530473218 0.2228534552 -0.0010933213 -0.1238997316
-0.0027767643 0.4630805661 0.4112384220 0.2230271372 0.0014840645 -0.1229584645
-0.4095146351 0.4401949295 -0.0107134128 0.2220780946 -0.0011500077 -0.1229523983
0.2140320310 1.0707424848 -0.4873557147 0.2224184156 0.0003395080 -0.1216120987
0.0287205687 0.3768581407 0.5184371954 0.2229601618 0.0004557174 -0.1215134670
-0.3166208597 0.4637260989 0.0824190516 0.2231835855 0.0014740852 -0.1230613086
0.1913273710 0.4401688912 -0.0633415647 0.2228834110 0.0014792476 -0.1230307646
-0.2172435424 1.1138025762 -0.5231417753 0.2229798107 0.0013913397 -0.1234049650
-0.1210306556 0.4687038681 0.4719747677 0.2231724448 0.0014153603 -0.1226082684
0.3621103536 0.4240994253 -0.2601351841 0.2238412284 -0.0011681066 -0.1233438800
-0.4672056275 0.4418969605 0.5299527196 0.2229669427 0.0003410477 -0.1214828188
-0.0654455720 0.7313163627 -0.4570355042 0.2232700029 0.0002465926 -0.1214831300
0.0813520202 0.6373979419 -0.4519420870 0.2231781164 -0.0012685608 -0.1236793335
0.0369871300 0.2635408045 0.5535551394 0.2229825296 0.0003485969 -0.1214825210
-0.4229956564 0.7101219872 -0.2180575740 0.2242382418 -0.0001229427 -0.1221033735
-0.3766805464 0.4677772394 0.0462091636 0.2232527766 0.0014650648 -0.1230548627
-0.1716837048 1.0267374053 -0.4942714001 0.2234434630 0.0003068437 -0.1215368161
-0.0302218878 0.2872853409 0.5473170690 0.2230524295 0.0004084147 -0.1214982345
-0.1000242014 0.4391661952 0.0452166688 0.2231345794 0.0014810493 -0.1230314272
0.3045730936 0.4748662807 0.2283816455 0.2228227222 0.0014712144 -0.1230462502
-0.1437146259 0.4282647591 -0.1815516063 0.2231371226 0.0014823700 -0.1230069792
-0.0322686562 0.4604091451 -0.3700207956 0.2231195151 0.0009090018 -0.1217550402
0.2752204714 0.5657434832 -0.3503538236 0.2225527596 0.0000346209 -0.1215170212
0.3752459347 0.4556027783 -0.1092641760 0.2227505382 0.0014612947 -0.1230215343
0.2793838798 0.4824745753 0.4944789748 0.2227919757 0.0012604070 -0.1222566398
-0.4210734179 0.4046568403 0.5344770361 0.2230811107 0.0002674670 -0.1214662566
0.1720962620 0.4381121941 0.5092925930 0.2229087464 0.0005217876 -0.1215397524
0.0181518045 0.4547992472 0.3062063118 0.2229622419 0.0014810299 -0.1230659528
0.1143668265 0.4862858340 -0.3748241859 0.2227816375 0.0006887839 -0.1216320498
-0.3389212191 1.0773499447 -0.4099836404 0.2239155834 0.0004679273 -0.1218365483
-0.0009683558 0.4462765487 0.2175426909 0.2230220895 0.0014830892 -0.1230614470
-0.1937236432 1.0865139055 -0.5000017377 0.2235247121 0.0004190849 -0.1215949200
0.1014500205 0.4511053175 0.1957537691 0.2229045385 0.0014785463 -0.1230624060
0.2450124991 0.8577731411 -0.4184677380 0.2222547591 0.0002964341 -0.1216876180
-0.1640888158 0.4342914384 -0.3210369464 0.2230657159 0.0014312942 -0.1225281361
0.0973553251 0.8034623554 -0.4620211130 0.2227243421 0.0002498640 -0.1214923454
0.0329780435 0.7202918260 -0.4593907930 0.2228742611 0.0002457811 -0.1214690380
-0.1461293751 0.6333242177 -0.4147661057 0.2234933566 0.0003238392 -0.1215557086
0.1341190456 0.4099298836 0.5154655925 0.2229116723 0.0004492909 -0.1215142427
0.1741588839 0.4632090732 0.2636485228 0.2228832309 0.0014772345 -0.1230568222
-0.2328917733 0.4817534293 0.4430975758 0.2231878977 0.0014767237 -0.1229115474
0.0878956583 0.8797998556 -0.4771455476 0.2228414062 0.0002540317 -0.1214746888
0.0495469739 0.4512485464 0.2389885118 0.2229074897 0.0014786803 -0.1230631936
-0.1989882811 0.4764745684 0.3925798265 0.2231551217 0.0014798372 -0.1230222520
-0.4668837701 0.4562132749 0.5047413300 0.2218839581 -0.0001136260 -0.1238796687
0.4457919334 0.7393878794 -0.1970358977 0.2240015615 0.0000758484 -0.1219021658
0.3120377766 0.4588453444 -0.3546166737 0.2220500998 0.0002845221 -0.1219137726
0.2289588151 0.4673636816 0.2438375937 0.2228545630 0.0014748357 -0.1230504448
0.3329493172 0.6522017908 -0.3488640011 0.2236354032 -0.0012435277 -0.1234202362
0.3427741685 1.0119313303 -0.3844244015 0.2221069113 0.0002935246 -0.1217908493
-0.3004130250 0.4215613269 -0.2918715918 0.2230163271 0.0003284730 -0.1243062612
-0.0291983785 0.4583552205 0.3402719357 0.2231068139 0.0014815957 -0.1230474742
0.3357920258 0.1634225627 -0.4060463523 0.2229077429 0.0005330742 -0.1243041960
-0.4692959061 0.5103362553 0.4216300571 0.2217598644 0.0006842812 -0.1230357498
0.3895990334 0.4965258780 0.3287243309 0.2227643398 0.0014604936 -0.1230635718
-0.3249842436 0.4950824499 0.4502342399 0.2232563606 0.0014686086 -0.1229363438
0.3745624590 0.4599358798 0.0126484657 0.2221496561 0.0011681066 -0.1229302553
-0.2909893250 0.4824674861 0.3396214505 0.2232299725 0.0014687724 -0.1230538442
0.3134495500 1.1030819038 -0.4391611736 0.2221868842 0.0005064240 -0.1218044647
0.2779347087 0.4467263220 -0.0802837290 0.2228824387 0.0014788783 -0.1230350961
0.2378330528 1.1078733671 -0.5201029200 0.2236343877 -0.0001331111 -0.1242089339
-0.3357532656 0.0642135462 -0.4283782458 0.2228878453 -0.0005089896 -0.1215609901
-0.0397876596 0.6466517851 -0.4448972364 0.2231952057 0.0003229980 -0.1214875702
0.1497042380 0.4409408867 0.0037421429 0.2228713277 0.0014779477 -0.1230329773
-0.0965613162 0.7039733434 -0.4454963063 0.2233627709 0.0002800908 -0.1215086515
0.4298462469 1.1231882887 -0.3460867252 0.2220710114 0.0009716875 -0.1223266707
0.1329675072 0.4260637416 -0.2153951451 0.2228953990 0.0014817312 -0.1230073232
-0.1435078924 0.4104350956 0.5162715775 0.2231259967 0.0004478734 -0.1215136442
-0.4156956782 0.7874690923 -0.2442645093 0.2242947704 0.0002067409 -0.1221886638
-0.3226272290 0.4377309001 -0.2812989771 0.2232264495 0.0014738336 -0.1228934277
-0.4242331000 0.4946949319 0.2400648689 0.2232974229 0.0014561025 -0.1230706074
-0.0568173819 0.4662863254 0.4113870590 0.2231555029 0.0014789081 -0.1229617194
-0.3838062142 0.4859102191 0.5087508469 0.2231686210 0.0007360107 -0.1216591646
0.4775521636 0.3675273890 0.5238559244 0.2241526359 0.0000157179 -0.1238740998
-0.0025327700 0.4210169005 -0.2833425307 0.2230254189 0.0014781547 -0.1227560997
0.1128589409 0.7304423987 -0.4461362032 0.2226195608 0.0002475069 -0.1215179936
-0.4156235180 0.5034369743 0.3504526354 0.2233100631 0.0014547147 -0.1230580551
-0.4424646429 0.9031176342 -0.2626652613 0.2227623549 0.0003631207 -0.1215133598
0.1920136922 0.4119429589 -0.2918348417 0.2230451616 -0.0004279743 -0.1242771139
-0.4400122457 0.5138461945 0.4922805467 0.2232951656 0.0013968937 -0.1225056536
-0.2934183643 1.0635124854 -0.4394925278 0.2238553784 0.0003863834 -0.1217595340
-0.4206370039 0.4794186798 0.2590785832 0.2216207303 -0.0001500798 -0.1231146864
0.3901813684 0.4880033611 0.2335349773 0.2227791152 0.0014630815 -0.1230620084
0.3510133292 1.0252402211 -0.3804917486 0.2220758387 0.0002884724 -0.1218153404
0.1832234849 0.4356997870 -0.1269221959 0.2228791033 0.0014790615 -0.1230278476
0.4870762657 0.2811646889 0.5331642950 0.2240304422 0.0000076743 -0.1240165857
-0.3934557560 0.5068388103 0.4639039315 0.2232679600 0.0014672566 -0.1228989623
-0.3304726789 0.7600494606 -0.3392543557 0.2239519374 0.0002102296 -0.1217876866
0.3028150894 0.4591413005 -0.3435732565 0.2228907518 0.0005470545 -0.1215672171
0.3052126898 0.6528610924 -0.3464292351 0.2224673413 0.0000077905 -0.1215517850
0.1151719702 0.4643587250 0.3259893384 0.2229175941 0.0014795528 -0.1230619205
0.3027581588 1.1075416481 -0.4491248016 0.2222298093 0.0005379865 -0.1217888108
-0.4285514335 0.9223392866 -0.2584709366 0.2242950429 0.0002241548 -0.1221942669
-0.3268122385 0.2016138623 -0.3849462218 0.2244567741 0.0000668802 -0.1231125586
-0.0967118159 0.4487800649 0.1747572212 0.2231306216 0.0014791359 -0.1230598419
0.4218353016 0.2560657207 0.5562755010 0.2230165415 0.0002080334 -0.1214552439
0.2772349150 0.5087967194 -0.3513901249 0.2228019758 0.0000513305 -0.1214588949
-0.3420432770 0.4606650232 0.0143704807 0.2231947009 0.0014734300 -0.1230532530
0.3916922306 0.7483877995 -0.2701139450 0.2218122000 0.0001994224 -0.1220829801
0.3277917373 0.3921257134 -0.3023279361 0.2216276482 -0.0001265356 -0.1226448592
-0.0653654144 0.3824808069 0.5191042220 0.2231229517 0.0004562684 -0.1215160266
0.3291733091 0.3154194612 -0.3323387388 0.2218765026 -0.0003619250 -0.1220783449
0.1679096965 0.9772996939 -0.4836613294 0.2226294821 0.0003260772 -0.1215315867
-0.1138722028 0.4403114858 0.0481693568 0.2231443309 0.0014802646 -0.1230316208
0.0440608807 0.4248115732 -0.1152315959 0.2229028559 0.0014816985 -0.1230179994
-0.4594873222 0.4864804559 0.5165436768 0.2230809737 0.0005710498 -0.1215599805
0.4469967275 0.4611418339 0.5090241746 0.2219403184 0.0000587040 -0.1219585797
-0.0833664132 0.6201625999 -0.4308723114 0.2233567345 0.0003446898 -0.1215213200
0.4235760035 0.4095588146 0.5337324427 0.2229543323 0.0002699268 -0.1214669579
-0.0932404776 0.9974066238 -0.5027469314 0.2231818865 0.0003767287 -0.1214986946
0.2259941346 0.9267870340 -0.4475651359 0.2223262268 0.0003308956 -0.1216559052
-0.4706293667 0.5090087463 0.4404058433 0.2216658814 0.0003955348 -0.1230126092
-0.0411627439 0.4358928187 0.0663205024 0.2231264003 0.0014815034 -0.1230336950
0.3374502310 1.0930763796 -0.4165971218 0.2221726032 0.0005259032 -0.1218248164
-0.1536991581 0.4386041375 -0.0338969770 0.2231663086 0.0014781770 -0.1230328909
-0.3167997145 0.4729051449 0.1809063415 0.2232128013 0.0014708719 -0.1230571676
-0.4514992778 0.5038619825 0.4750171683 0.2216007047 0.0000884127 -0.1231686360
0.4288428675 1.1367762771 -0.3914160410 0.2236717424 0.0012071215 -0.1234383217
-0.1763342562 0.6477312318 -0.4215022305 0.2231949823 0.0013397070 -0.1223115856
0.4461198108 1.0124641693 -0.2849736286 0.2242989649 -0.0001913431 -0.1236384127
0.0103672445 0.6350075721 -0.4446854597 0.2229673224 0.0003412874 -0.1214825761
-0.0321628937 0.3008601978 0.5429138071 0.2230487070 0.0004429120 -0.1215083910
0.3622886754 0.4958192737 0.3660968668 0.2227870039 0.0014650395 -0.1230568907
0.4565443693 0.5159215683 0.4094321025 0.2232474534 0.0014244820 -0.1230598895
0.3087022043 0.9527053912 -0.3958918710 0.2221016506 0.0002670933 -0.1217884892
0.2396883933 0.4781028044 0.3604322599 0.2228551676 0.0014753866 -0.1230425426
-0.3333415390 0.3073863177 -0.3327184425 0.2231166503 -0.0005741172 -0.1215786258
-0.2584432873 0.5242168377 -0.3554092979 0.2233347865 0.0000790289 -0.1214776966
-0.3410937444 0.4465518285 -0.1652863540 0.2232197490 0.0014718889 -0.1230276317
0.1600155457 0.6373338253 -0.4257421783 0.2230293365 -0.0014797449 -0.1229154471
0.1587993219 0.4084698710 -0.2796063625 0.2230587979 -0.0007527918 -0.1216767721
0.2630642804 0.8401063837 -0.4027099729 0.2222262789 0.0002859500 -0.1217026957
-0.0603160986 0.4197741858 -0.2543010138 0.2231195345 0.0014769679 -0.1227701708
-0.1921214440 1.0985381855 -0.5246281894 0.2233934295 -0.0008691322 -0.1218580138
