-0.2206577102 0.5644745577 -0.6222375691 0.0070597085 0.4413815287 0.7409363449
-0.4026314772 0.3687877481 -0.2565536124 0.0070497111 0.4401505582 0.7420241069
0.4434463132 0.0212226260 -0.7338326660 0.0071042465 0.4411919531 0.7409343193
-0.1838733259 0.3827220250 -0.5563944547 0.0070590937 0.4401504583 0.7420240937
0.0939660191 0.5877350842 -0.6167861916 0.0070672411 0.4414332777 0.7409431573
-0.3754603611 0.3096128497 -0.6996603708 0.0070678889 0.4412994781 0.7409287178
0.2759719674 0.3822004789 -0.3542308502 0.0070601520 0.4401504572 0.7420246822
-0.4493555692 0.6157690007 0.2611324567 0.0070601839 0.4423462285 0.7420276915
-0.0761876450 0.6153513455 -0.2823077396 0.0070611369 0.4423462307 0.7420249709
0.2550212333 0.9111080429 -0.6402350486 0.0070530015 0.4413413065 0.7431190512
0.2914132095 0.6161233319 -0.6916118299 0.0070671127 0.4412474042 0.7409274399
-0.0806520027 0.3753750750 -0.6209389204 0.0070585546 0.4423461198 0.7420135507
0.3769647968 0.3555482618 0.3119885373 0.0072393592 0.4417922145 0.7428748019
0.4962377031 0.4108191974 -0.2474173018 0.0081537032 0.4411518923 0.7420316505
-0.2799349076 0.2941313766 0.3050929323 0.0070570329 0.4404371015 0.7427189129
-0.4973430632 0.5899201213 0.1386559807 0.0059676757 0.4413529727 0.7420202621
-0.4069769589 0.6157270855 -0.4726676426 0.0070602915 0.4423462307 0.7420249544
-0.0004115663 0.7705532411 -0.6279741405 0.0070529861 0.4413297918 0.7431199691
-0.2744292187 0.6155730475 0.0278311619 0.0070606307 0.4423462296 0.7420264937
0.4070452750 0.6223084487 -0.6908682898 0.0070670929 0.4412470188 0.7409274377
-0.4113300128 1.1056779350 -0.6618783951 0.0068859491 0.4413431509 0.7430744946
-0.1095688220 0.8307121862 -0.6953432004 0.0070669963 0.4412418104 0.7409274333
-0.4958719989 0.4788812441 -0.4705084540 0.0059628626 0.4412268166 0.7420068107
0.1845175566 0.6150575749 -0.4196219170 0.0070618022 0.4423462285 0.7420239466
0.3349220063 0.8892398786 -0.6929304481 0.0070669458 0.4412414349 0.7409274355
0.4988551380 0.3158142174 -0.6898536273 0.0079044322 0.4413355788 0.7413708812
0.4993619329 0.5269215377 -0.3053946099 0.0081577149 0.4412660726 0.7420303934
0.4529325492 0.6147531492 -0.3200509841 0.0070624884 0.4423462274 0.7420237621
-0.3755709953 1.0517139745 -0.6575631009 0.0070535329 0.4413514158 0.7431182520
0.4981427570 0.5419640302 -0.1717208046 0.0081573185 0.4412829197 0.7420325869
-0.3919092128 0.4003391446 -0.6167534910 0.0072555903 0.4415558129 0.7430501785
0.4728521701 0.0705938715 -0.6832569190 0.0073252799 0.4409520635 0.7425627888
-0.4289804159 0.3770275773 -0.2552861229 0.0076603245 0.4415644939 0.7426229937
-0.2361120699 0.6155309314 -0.1198407811 0.0070607284 0.4423462296 0.7420258821
0.4989138387 0.1665793476 -0.7010435865 0.0079311833 0.4412034458 0.7417520063
0.2895887011 0.6149367567 -0.1791560730 0.0070620712 0.4423462285 0.7420246020
0.2346026070 0.6149964115 0.1292246929 0.0070619306 0.4423462296 0.7420258262
-0.3053947274 0.7724356784 -0.6299727728 0.0070530904 0.4413292330 0.7431200086
0.3814230897 0.5860516818 -0.6165113178 0.0070760747 0.4414056954 0.7409393794
-0.1496966425 0.5794312437 -0.6944484866 0.0070671686 0.4412497734 0.7409274498
0.2567214213 0.9999169086 -0.6489977809 0.0070529971 0.4413480102 0.7431185078
0.3768384167 1.0439195342 -0.6525809255 0.0070530059 0.4413517584 0.7431182103
0.4185931324 0.6147940423 -0.5699037546 0.0070624005 0.4423462263 0.7420229299
0.4278382009 0.6147807238 -0.2231357144 0.0070624236 0.4423462274 0.7420241629
0.1153628700 0.5238135084 -0.6242339233 0.0070686168 0.4412819657 0.7409292833
-0.2544708665 0.8187146592 -0.6341972025 0.0070531168 0.4413329779 0.7431197111
0.1360221281 0.6151075310 0.1761398975 0.0070616792 0.4423462296 0.7420261961
0.2219201736 0.3822587569 0.0632503732 0.0070591288 0.4401504572 0.7420258942
0.2873883011 0.4178032010 -0.6146437557 0.0070695379 0.4411025609 0.7409373099
-0.2238408416 0.9581860477 -0.6972268454 0.0070668195 0.4412406972 0.7409274388
-0.4178318021 0.3753750750 -0.4439144273 0.0070521858 0.4423460978 0.7420130533
0.0906854480 0.4765011407 -0.6232975292 0.0070680008 0.4411782317 0.7409304953
-0.4962355260 0.4780045093 -0.4211127498 0.0059631502 0.4412190051 0.7420110760
0.2620412927 0.6149680158 -0.1933113482 0.0070620009 0.4423462285 0.7420246064
-0.1834284310 0.6231041561 -0.6946580931 0.0070671357 0.4412467608 0.7409274388
0.3384508735 1.1748577336 -0.6925046674 0.0070661893 0.4415884992 0.7410079491
0.2523908994 0.6574589180 -0.6918534673 0.0070670457 0.4412445507 0.7409274289
-0.2706958874 0.3687877481 -0.2994062840 0.0070522022 0.4401505473 0.7420232538
0.2436819098 0.2941313766 0.2512500589 0.0070616013 0.4403749841 0.7417073805
-0.2195387814 0.8712997934 -0.6964520780 0.0070669172 0.4412414448 0.7409274344
-0.1460998435 1.1653221782 -0.6956562708 0.0070667174 0.4415232485 0.7409944001
-0.3203116687 1.1943993857 -0.6670047759 0.0070542751 0.4416567319 0.7429803375
0.0910347278 0.6778349594 -0.6182323964 0.0070529982 0.4413231266 0.7431205158
-0.3882782892 0.5076095022 -0.6959642469 0.0070668184 0.4412546403 0.7409274641
0.1440575361 0.3823470754 0.0281097883 0.0070589521 0.4401504572 0.7420257921
0.4446271925 0.2941313766 0.0139517662 0.0065288161 0.4406241003 0.7421645421
-0.2180252486 0.3701273985 0.2219330233 0.0069951395 0.4419223592 0.7412128424
-0.4813601320 0.7122805528 -0.6470930949 0.0062694423 0.4413166227 0.7422126856
-0.4995446016 0.5223563313 0.1142932440 0.0059623389 0.4412598004 0.7420275290
-0.0875568717 1.0788322185 -0.6973148960 0.0070667317 0.4412396772 0.7409274454
-0.4722929082 0.5248198521 0.3074801554 0.0069933983 0.4412558162 0.7431209638
-0.1297210513 0.3753750750 -0.2480294357 0.0070576280 0.4423461670 0.7420221241
-0.1573325544 0.3753750750 -0.3823935754 0.0070571065 0.4423461439 0.7420183759
0.3431598505 0.3687877481 -0.3358695746 0.0070661663 0.4401505231 0.7420225259
-0.1422932710 0.6154281054 -0.5231801314 0.0070609678 0.4423462296 0.7420242353
0.4344857689 0.5139885718 -0.6907100128 0.0070723254 0.4412545305 0.7409292185
0.1228318283 0.3687877481 -0.5729159778 0.0070575149 0.4401505319 0.7420178028
-0.1637911221 0.8919369213 -0.6408248691 0.0070531519 0.4413389142 0.7431192379
-0.1006667106 0.2940491053 -0.6222724138 0.0073148873 0.4405205816 0.7425312212
-0.3559731543 0.2937128673 -0.6487791948 0.0074744312 0.4404802539 0.7424214270
-0.4457679671 0.5178883967 0.3100094386 0.0070010802 0.4412528552 0.7431214128
0.0443731639 0.2941313766 0.2719635449 0.0070595383 0.4402842711 0.7420957605
-0.3865089969 0.6157030297 -0.3629053299 0.0070603442 0.4423462307 0.7420253101
-0.4994883140 0.4803161198 0.1714131632 0.0059625387 0.4412318021 0.7420328867
0.4250182958 0.4427009901 -0.6907913619 0.0070673915 0.4412593623 0.7409274860
0.1445398558 0.5624177351 -0.6208408175 0.0070686673 0.4413779178 0.7409363141
0.4069868092 0.9923895350 -0.6472816604 0.0070700704 0.4413486250 0.7431120972
-0.0408114621 0.5891988288 -0.6937499774 0.0070671818 0.4412491388 0.7409274476
0.4526395152 0.2845951845 0.3121922141 0.0067691964 0.4412130084 0.7428064310
-0.0220321371 0.6152901152 -0.2855850522 0.0070612752 0.4423462296 0.7420248490
0.1532483096 0.3261988528 0.2237939509 0.0070773197 0.4409803561 0.7413369751
0.3115652873 0.6149081600 0.2742052551 0.0070621271 0.4423462285 0.7420261939
0.4950600406 0.6060524860 -0.4168730430 0.0081402277 0.4414378548 0.7420316395
0.3577141672 0.2941221631 -0.6139502046 0.0067788622 0.4403185515 0.7424105502
-0.2279683410 0.6155186691 0.2504541506 0.0070607493 0.4423462285 0.7420272040
-0.3493663948 0.3687877481 -0.3747244436 0.0070492489 0.4401505681 0.7420217530
-0.4941039801 0.3728299690 0.1324587180 0.0063522603 0.4419665591 0.7420733241
-0.4485802660 0.6157703236 -0.0059354560 0.0070601861 0.4423462296 0.7420267253
-0.0799802469 0.5057872851 -0.6137651238 0.0069595032 0.4413380765 0.7431021218
-0.4376333189 0.2348614000 0.2257597497 0.0076312898 0.4411381577 0.7412301528
0.2854943711 0.3241018410 0.2244761772 0.0070764205 0.4409740433 0.7412952839
0.0584860968 0.6151972569 -0.0690418918 0.0070614805 0.4423462296 0.7420254682
-0.0511255615 0.3825695525 -0.2190105261 0.0070588302 0.4401504583 0.7420250741
-0.2927330002 0.3687877481 -0.1489632875 0.0070538710 0.4401505297 0.7420262510
-0.3923482603 0.5901468330 0.3091094967 0.0070493697 0.4413342921 0.7431197275
0.1812907864 0.6150592667 -0.1804132435 0.0070617945 0.4423462285 0.7420248172
-0.4542836011 0.3364201181 0.3067345370 0.0070224791 0.4412283832 0.7428033218
-0.1357332672 0.3687877481 -0.3950813368 0.0070539973 0.4401505418 0.7420213468
0.3983368881 0.2993540838 -0.6951242135 0.0070670984 0.4413135058 0.7409294205
0.4607744325 0.6147440192 -0.2892572542 0.0070625081 0.4423462274 0.7420238576
0.4463320553 0.6147625307 -0.5536831054 0.0070624708 0.4423462263 0.7420229321
-0.1043434348 0.6153814496 -0.0685178754 0.0070610655 0.4423462296 0.7420258009
-0.0656892608 0.3825880003 -0.5073742731 0.0070593714 0.4401504583 0.7420242364
0.4998085525 0.4648071303 -0.4257183299 0.0081576995 0.4412294515 0.7420271919
-0.1973037393 0.9908271363 -0.6506427364 0.0070533144 0.4413467597 0.7431186165
0.4590295989 0.2941313766 -0.4727267452 0.0071499175 0.4404150218 0.7423088342
-0.4992562260 0.5330266459 0.0561874776 0.0059624553 0.4412686757 0.7420234997
0.1428486968 0.8502390959 -0.6349351137 0.0070529949 0.4413363144 0.7431194487
-0.4485143961 1.1943993857 -0.6680344475 0.0065772373 0.4415877109 0.7429266684
0.2719389852 1.1868420255 -0.6926413676 0.0070661718 0.4416920136 0.7410353403
-0.4450317653 0.3808645141 -0.2829104921 0.0071844077 0.4417389417 0.7426584192
-0.3439703673 0.8526339581 -0.6379979957 0.0070532310 0.4413355821 0.7431195069
0.0835419992 0.5866261066 0.3108319827 0.0070559054 0.4413374386 0.7431192302
0.0870294036 1.0868063798 -0.6760169175 0.0070392000 0.4423445619 0.7420254024
0.3578392079 0.8049981308 -0.6290980274 0.0070530158 0.4413336729 0.7431196770
0.4323443387 0.3214372398 -0.0036113570 0.0062513074 0.4410576683 0.7423638779
0.4948877249 0.4300603324 0.1776034577 0.0081562185 0.4411941379 0.7420359893
-0.2032071808 0.3315295373 0.2215329409 0.0068873544 0.4415727215 0.7410933725
0.2428210526 0.6149915029 -0.4029427866 0.0070619515 0.4423462274 0.7420238895
-0.1719726776 1.0040004156 -0.6517848504 0.0070533144 0.4413478378 0.7431185308
0.1417938297 0.6151031416 -0.0845722066 0.0070616935 0.4423462296 0.7420252432
0.2745373716 0.3822033443 -0.5359409331 0.0070605187 0.4401504572 0.7420241552
-0.1435734751 0.5699269914 0.3117569851 0.0070537283 0.4413430203 0.7431189469
0.0052317363 0.6152577165 -0.0949528215 0.0070613455 0.4423462296 0.7420254825
-0.4999242457 0.5077051260 0.1592242228 0.0059622379 0.4412507362 0.7420307096
0.4448240339 0.3342194591 0.2253980978 0.0070804652 0.4411895477 0.7412490222
-0.1098743784 0.2933930130 -0.6708810214 0.0070347601 0.4402073871 0.7421536324
0.4567106929 0.7172779735 -0.6197423939 0.0074081375 0.4413346720 0.7429798940
-0.3223265520 0.6156264542 0.1213452838 0.0070605089 0.4423462296 0.7420269284
-0.1011404196 0.6153757702 0.1825049526 0.0070610732 0.4423462296 0.7420267012
-0.4636105874 0.4297076557 0.3074362640 0.0070158863 0.4412252828 0.7431218015
0.4473320082 0.2941313766 -0.1224435065 0.0066849807 0.4405107972 0.7422117886
0.3966827522 0.4197081166 -0.6115527294 0.0068310031 0.4413298797 0.7430911276
0.4942948567 0.5923999348 -0.6471568887 0.0079070528 0.4414203325 0.7419958143
0.1277052634 0.6151173812 0.1241272613 0.0070616583 0.4423462296 0.7420260249
0.3354033368 0.6148811048 0.2848819199 0.0070621886 0.4423462285 0.7420261841
0.4330267660 0.3471480279 -0.1076060061 0.0064145215 0.4413309611 0.7424824311
-0.4998062415 0.5126763785 0.0734841698 0.0059623235 0.4412569591 0.7420249105
-0.4235474324 0.6347620614 -0.6172204150 0.0070529861 0.4413181279 0.7431208924
-0.4989421511 0.5382542695 -0.0126778431 0.0059625332 0.4412739050 0.7420203466
-0.4228110956 0.3829892091 -0.1047984313 0.0070574205 0.4401504605 0.7420254035
0.3498808617 0.6148665303 0.0669351724 0.0070622249 0.4423462285 0.7420253683
-0.4917773000 0.4105189086 -0.4542248158 0.0059643557 0.4411806493 0.7420159781
-0.4282374456 0.2609619163 -0.6288117619 0.0076730260 0.4407405664 0.7427248689
0.2090608179 0.3687877481 -0.2214847953 0.0070646644 0.4401505209 0.7420248051
-0.1132521983 0.6153947516 -0.4610289865 0.0070610424 0.4423462296 0.7420244011
0.3535092382 0.9302917639 -0.6931198172 0.0070669326 0.4412410704 0.7409274377
-0.4975045910 0.5040110541 -0.3568381999 0.0059623180 0.4412513049 0.7420132004
0.1996969579 0.3753750750 -0.1095057318 0.0070638497 0.4423461516 0.7420303670
-0.4898661826 0.3292668355 -0.5138994146 0.0062175791 0.4408998107 0.7421892182
-0.4013894851 0.3829651445 -0.1286291096 0.0070575369 0.4401504605 0.7420253343
0.4102630162 0.6147967057 0.2528895194 0.0070623797 0.4423462285 0.7420259173
-0.4568636441 0.1785363505 0.2308240779 0.0073881416 0.4411443696 0.7411561179
0.3153379702 0.3691426063 -0.6930666114 0.0070674376 0.4412797710 0.7409281425
-0.1276001340 0.7565721920 -0.6274018763 0.0070529752 0.4413282823 0.7431200844
0.0023021873 0.6152614515 -0.1455625415 0.0070613378 0.4423462307 0.7420253058
0.2477298518 0.6149873155 -0.5704271012 0.0070619636 0.4423462274 0.7420232747
-0.3652980974 0.7477694219 -0.6964050379 0.0070670062 0.4412424889 0.7409274289
-0.0502147571 0.4963107028 -0.6938164501 0.0070671214 0.4412555230 0.7409274695
-0.0471352147 0.6153165842 -0.0510131861 0.0070612115 0.4423462296 0.7420257471
0.1495353990 0.3867757540 -0.6934670616 0.0070674651 0.4412707189 0.7409277912
-0.3091031146 0.4986583987 -0.6954612716 0.0070668788 0.4412552804 0.7409274662
-0.3917490595 0.3808645141 0.2829115648 0.0069999296 0.4420202842 0.7423694585
0.0315872425 0.3528780241 0.3096834362 0.0071752601 0.4417712097 0.7428827517
-0.4583678788 0.4558116611 -0.6962077607 0.0066112839 0.4412656554 0.7411708043
-0.3170102323 0.4450384108 -0.6223383519 0.0070568254 0.4411497920 0.7409323167
0.0995842174 0.9498572380 -0.6450027933 0.0070530366 0.4413438229 0.7431188426
0.4341381227 0.2941313766 -0.1506048922 0.0063448946 0.4406060005 0.7422256802
-0.4035395930 0.6157238358 -0.5473782925 0.0070603003 0.4423462318 0.7420246778
-0.4959023204 0.5131972703 -0.4647184100 0.0059624081 0.4412531307 0.7420074936
-0.4128149489 0.3829756063 0.2307601841 0.0070567771 0.4401504627 0.7420263773
0.0406086087 0.5470017565 0.3153416053 0.0070553027 0.4413396267 0.7431193180
-0.0222279235 0.6152892951 -0.1601732820 0.0070612752 0.4423462296 0.7420253025
0.3201197184 0.6148988620 0.2289296121 0.0070621491 0.4423462285 0.7420260128
0.1031595988 0.6302336924 -0.6928170670 0.0070671028 0.4412463699 0.7409274355
-0.4998713078 0.4883110365 0.0605045811 0.0059626090 0.4412332381 0.7420241233
0.3928910725 0.6148186855 -0.0311393658 0.0070623346 0.4423462285 0.7420249270
0.0008097461 0.6152617535 0.0231124016 0.0070613334 0.4423462296 0.7420259184
-0.0715683282 0.3467583337 0.3089949771 0.0071712517 0.4417182619 0.7429004750
-0.4952976246 0.3253031751 0.2686477009 0.0067371666 0.4415209605 0.7420052462
-0.3316236527 0.2981973942 -0.6176021023 0.0076456918 0.4407331842 0.7426960219
-0.2445377254 0.2938828379 -0.6354919646 0.0074157107 0.4405098607 0.7424832501
-0.4245748260 0.6157465017 -0.4106523931 0.0070602476 0.4423462307 0.7420252146
-0.0640801053 0.5758372761 -0.6939020887 0.0070672060 0.4412500490 0.7409274509
0.4984201779 0.2066072560 -0.6614248730 0.0079919712 0.4414304506 0.7421835542
-0.2277813499 0.2931838753 -0.6871091757 0.0071062370 0.4401898988 0.7420870378
0.4553276793 0.4000045731 0.3132745888 0.0070676726 0.4411885156 0.7431211888
0.3402634545 0.6148778375 0.0147505894 0.0070622007 0.4423462285 0.7420251993
0.3447082105 0.5290853242 0.3170977636 0.0070717842 0.4412984021 0.7431215500
-0.4581981091 0.3830288034 -0.0416462938 0.0070571812 0.4401504616 0.7420255868
0.3927352746 1.1418147544 -0.6590895833 0.0070527171 0.4413570809 0.7430997976
0.4234581753 0.6147869894 -0.3820394967 0.0070624126 0.4423462274 0.7420235985
-0.1013050204 0.4291095715 -0.6941410461 0.0070669579 0.4412601309 0.7409274849
-0.0006120505 0.3687877481 -0.4940949500 0.0070557473 0.4401505374 0.7420193739
0.4311032172 0.3136156608 0.3123498544 0.0073698475 0.4414241048 0.7429956959
0.2267656488 0.7401716210 -0.6235275071 0.0070530070 0.4413283141 0.7431201041
-0.0285063849 0.6127948402 0.3080893404 0.0070560712 0.4420121127 0.7427705827
-0.4861169868 0.0035181464 -0.7179320555 0.0062622709 0.4410821073 0.7421113132
-0.4943460194 0.3154632699 0.1693507371 0.0061031847 0.4411519044 0.7420903984
-0.3668249816 0.3786150847 0.2212115288 0.0070037195 0.4419984253 0.7412385341
0.4916971224 0.6110626378 0.0524653546 0.0081423686 0.4414309765 0.7420316691
0.1322240906 0.7480475454 -0.6931695384 0.0070670040 0.4412426393 0.7409274278
-0.4990661860 0.5546501075 0.0846061807 0.0059635444 0.4412944201 0.7420214192
0.4867146462 0.3692171715 0.2249201170 0.0078863214 0.4414929753 0.7421052704
-0.3108888907 0.6156139405 0.0716245817 0.0070605374 0.4423462296 0.7420267264
-0.4986169523 0.4987661498 -0.2265192378 0.0059622719 0.4412473910 0.7420168257
-0.1333626958 0.3998721997 -0.6151133597 0.0071030751 0.4414793604 0.7430630085
0.0253976178 0.4271431259 -0.6138436590 0.0069802873 0.4413997910 0.7430803661
-0.0904159604 1.1676917770 -0.6951742025 0.0070665890 0.4415435473 0.7410002200
-0.1030781399 0.8338918658 -0.6348343309 0.0070530257 0.4413343547 0.7431195980
-0.1365467318 0.6154208681 -0.4324730474 0.0070609831 0.4423462296 0.7420245515
0.0965543884 0.7062623732 -0.6210056621 0.0070529971 0.4413252905 0.7431203413
0.0903455573 0.3824074131 0.0889962575 0.0070586589 0.4401504583 0.7420259689
-0.0851215611 0.3914346497 0.3092605375 0.0070523241 0.4411200129 0.7431155380
-0.4710496754 0.0501386087 -0.6958917424 0.0064948858 0.4408723942 0.7426012456
-0.1574203371 0.6154453939 -0.5447757670 0.0070609294 0.4423462296 0.7420241881
-0.4844938431 0.6495212615 -0.6652956247 0.0063810382 0.4412964446 0.7417512192
-0.4292783080 0.3564641857 -0.2101479508 0.0078130100 0.4413633016 0.7424907421
-0.4907243433 0.3569964351 -0.3825938005 0.0060094130 0.4413461185 0.7420952116
-0.0310460212 0.3753750750 -0.4886585828 0.0070594922 0.4423461461 0.7420175667
0.0150287459 0.6152498589 -0.4879409078 0.0070613696 0.4423462285 0.7420240443
-0.0195888822 0.5430026222 0.3156009329 0.0070547537 0.4413367799 0.7431195662
0.4109860511 1.1600777932 -0.6598391541 0.0071913145 0.4414639548 0.7430381852
-0.1221131992 0.4825595305 -0.6942733230 0.0070670292 0.4412564464 0.7409274728
-0.4312270183 0.2942158086 0.0869717590 0.0076969270 0.4404093095 0.7421743232
0.4372818180 0.1317520328 -0.6890269958 0.0064635905 0.4406516672 0.7425099925
-0.4543194845 0.4025700252 0.3074482244 0.0070347381 0.4411866657 0.7431207991
-0.4649286028 0.2941313766 -0.2867910941 0.0069766160 0.4403719638 0.7422189106
-0.1180972881 1.0413036738 -0.6551187196 0.0070533265 0.4413508713 0.7431182893
0.0259718746 0.3454282898 -0.6957834545 0.0070676934 0.4412870818 0.7409283413
0.4359761000 0.3808645141 0.0054176043 0.0065926187 0.4419634400 0.7422759261
0.4954086924 0.5592486688 0.1337098567 0.0081572571 0.4412844985 0.7420358773
0.4969029430 0.3051998215 -0.4725285303 0.0080423895 0.4409201578 0.7422365514
-0.3360776232 0.3687877481 -0.4290272716 0.0070487735 0.4401505736 0.7420206705
-0.4910331572 0.4172263774 -0.5578016592 0.0059638913 0.4411937361 0.7420080437
0.2380835800 0.6149977356 -0.5107453991 0.0070619394 0.4423462274 0.7420235096
0.3101825404 0.3753750750 -0.5484988287 0.0070659379 0.4423461856 0.7420210405
0.3409987857 0.3753750750 -0.0718059770 0.0070665187 0.4423461264 0.7420333621
-0.0690760679 0.6153427183 -0.2105280966 0.0070611555 0.4423462307 0.7420252157
-0.4548020215 1.0922686132 -0.6636399484 0.0064826444 0.4413613583 0.7428748371
-0.3711780694 0.7107260941 -0.6243280056 0.0070530531 0.4413242409 0.7431204060
-0.4452426783 0.7231477264 -0.6965921290 0.0068165406 0.4412554857 0.7410013783
0.3886957588 0.5059515554 -0.6910110207 0.0070672894 0.4412550048 0.7409274684
-0.3870054727 0.9697838953 -0.6496469708 0.0070534264 0.4413448735 0.7431187713
-0.0171367673 0.8554525227 -0.6949360498 0.0070669820 0.4412416194 0.7409274344
0.0610357337 0.3687877481 -0.5457642953 0.0070564511 0.4401505363 0.7420183440
0.1061577570 0.3206788738 0.3098166177 0.0070344582 0.4408212107 0.7426344040
-0.1729449561 1.1943993857 -0.6769254362 0.0070591980 0.4418037204 0.7421994220
0.4575443279 0.2840881217 -0.6963994091 0.0073309702 0.4413163515 0.7410579623
-0.4285149993 0.1034191703 0.3069462888 0.0076427330 0.4410997064 0.7428851781
0.0911201654 0.6151584916 0.1572645227 0.0070615639 0.4423462296 0.7420262192
0.3858450635 0.4952189796 0.3174227274 0.0070858042 0.4412458671 0.7431227226
-0.4657045756 0.9250250313 -0.6937978223 0.0062281716 0.4412991026 0.7414367621
0.1331269386 0.6116076776 -0.6926286354 0.0070671313 0.4412476600 0.7409274410
0.0036282601 0.7130557056 -0.6937317503 0.0070670237 0.4412429116 0.7409274267
0.4342169599 0.3892256313 -0.6116041929 0.0067957049 0.4413317099 0.7430863924
-0.4289954263 0.0010459226 -0.7418300113 0.0070348117 0.4411688876 0.7409554207
0.0547844780 0.6152004727 0.0474991941 0.0070614717 0.4423462296 0.7420258964
0.1015876584 0.3687877481 -0.5491883593 0.0070573590 0.4401505319 0.7420182760
0.4154735611 0.2758025337 0.3026268062 0.0061204402 0.4411730684 0.7423776498
0.0589635748 0.7153493656 -0.6933938874 0.0070670193 0.4412429094 0.7409274267
0.2506874441 0.7923198178 -0.6285271049 0.0070530070 0.4413323324 0.7431197791
-0.3227601386 0.3828749410 0.0555360096 0.0070574150 0.4401504605 0.7420258690
0.3092177341 0.3738983807 0.2282137804 0.0070671599 0.4418538938 0.7420403512
-0.4923766019 0.3032403641 -0.1311317229 0.0061598709 0.4407859246 0.7421579855
-0.4764003382 0.6158065089 -0.5794286560 0.0070601147 0.4423462318 0.7420247096
-0.4318848869 0.0436609092 0.2870914652 0.0076697751 0.4410755430 0.7423779704
0.2970067481 1.0070454063 -0.6494459420 0.0070530004 0.4413486920 0.7431184540
-0.4957130851 0.3334761879 0.3014695138 0.0066190010 0.4416030298 0.7426891755
-0.4326771425 0.6157566538 -0.5327692274 0.0070602267 0.4423462318 0.7420247897
0.1493815948 0.6150965576 -0.3264916935 0.0070617132 0.4423462285 0.7420243539
0.4942198721 0.5338808026 0.2683048118 0.0081570188 0.4412646948 0.7420560488
0.4183909641 0.2299828049 0.2555017601 0.0062669226 0.4411241300 0.7415833763
0.3655869758 0.5330360779 -0.6911534826 0.0070672455 0.4412531362 0.7409274619
-0.3280368883 0.6156384992 -0.5575072189 0.0070604935 0.4423462307 0.7420244878
-0.2063045398 0.6155005089 -0.5204425152 0.0070608042 0.4423462307 0.7420243758
-0.1271789019 0.2939369473 -0.6307413744 0.0072951242 0.4404764443 0.7424735580
-0.0269401326 0.6152933155 0.0024060519 0.0070612631 0.4423462296 0.7420258997
-0.4209686630 0.8592902379 -0.6392191807 0.0068999944 0.4413390844 0.7430521624
-0.0116418564 1.1808775546 -0.6943624462 0.0070663968 0.4416534997 0.7410286750
0.4934257402 0.3173173126 0.0573945921 0.0078707962 0.4407871279 0.7421220363
0.2725307818 0.5891995326 0.3118562945 0.0070561305 0.4413154117 0.7431209583
-0.4365304049 0.6157572401 -0.0726124403 0.0070602168 0.4423462296 0.7420264596
0.4033846656 0.6148076451 -0.1329434662 0.0070623621 0.4423462274 0.7420245383
-0.4125397732 0.3116139204 0.3071512381 0.0070426978 0.4407820567 0.7427980618
0.0939438725 0.2941313766 0.2983544317 0.0070571921 0.4403309225 0.7424723064
-0.3508940826 0.3118305205 0.2204653087 0.0068162135 0.4413934046 0.7410317810
0.3754185469 0.6148364592 0.2116439097 0.0070622907 0.4423462285 0.7420258382
-0.1436872240 0.3753750750 -0.5233893362 0.0070573645 0.4423461253 0.7420150625
-0.2804582203 0.5124252674 -0.6149771963 0.0070711298 0.4413899287 0.7430943323
0.4700948863 0.2941313766 -0.3365263366 0.0073571581 0.4404441861 0.7422541517
0.3718474626 0.3285086375 -0.6942127459 0.0070672301 0.4412995198 0.7409288924
-0.4434797856 0.2941313766 -0.3177062459 0.0074219720 0.4405088693 0.7423785588
-0.4878941861 0.3808645141 -0.3712246583 0.0061872401 0.4417084029 0.7421311652
0.4987377375 0.2570110891 -0.6832708578 0.0079549943 0.4413484834 0.7416766100
0.1945770448 0.6150446758 -0.2345866755 0.0070618285 0.4423462285 0.7420245943
-0.2791406407 0.4128689046 -0.6952708298 0.0070667602 0.4412611925 0.7409274871
0.1467325825 0.2941313766 0.2249399185 0.0070641791 0.4404098124 0.7413504451
-0.0349442717 0.5305405843 -0.6250921850 0.0070649410 0.4413083369 0.7409301001
0.4976149222 0.3333482994 -0.5810338075 0.0080174180 0.4412933211 0.7421934132
-0.4727365120 0.8411725089 -0.6380797477 0.0063866736 0.4413487161 0.7428619237
-0.1705497766 0.5347979562 -0.6945810324 0.0070670720 0.4412528376 0.7409274597
0.0383213032 0.6152242782 -0.5819161920 0.0070614289 0.4423462285 0.7420236578
0.1100910126 0.4326407640 0.3152002149 0.0070555080 0.4411676975 0.7431199164
0.4994681436 0.4463846913 -0.3943600431 0.0081574668 0.4412161846 0.7420279264
-0.2889725467 1.0032244768 -0.6980652716 0.0070667482 0.4412403008 0.7409274410
0.4965312059 0.3581642397 -0.4158776804 0.0080179911 0.4415367250 0.7421488631
-0.4910915231 0.3890814468 -0.4815634554 0.0060195630 0.4410374254 0.7420180487
-0.1607020731 0.3826901445 0.2715269084 0.0070574952 0.4401504605 0.7420264970
0.3718968489 0.3770511731 -0.6924144726 0.0070673992 0.4412768111 0.7409280470
0.4952875054 0.6066534127 -0.4647911824 0.0081394186 0.4414429204 0.7420315999
-0.0384719290 0.3825542611 -0.0760033349 0.0070585821 0.4401504583 0.7420254891
0.1708564627 0.3808645141 0.2764424431 0.0070883568 0.4420196936 0.7421902360
-0.4129467239 0.3687877481 -0.1604003109 0.0070508661 0.4401505473 0.7420260238
-0.4066931396 0.3829688883 0.2006379938 0.0070568573 0.4401504616 0.7420262895
-0.2062088995 0.6154987336 -0.3188078182 0.0070608053 0.4423462307 0.7420251026
0.0390204437 0.3824664367 -0.0519962184 0.0070587797 0.4401504583 0.7420255594
-0.1465684933 0.3753750750 0.2010542580 0.0070573085 0.4423461560 0.7420330645
0.2750493596 0.6149550497 -0.4031848259 0.0070620338 0.4423462274 0.7420238225
-0.2779130221 0.4732991828 -0.6952630567 0.0070668645 0.4412570348 0.7409274728
-0.1725333151 0.4311887459 0.3132143137 0.0070492797 0.4411680488 0.7431199219
-0.4944035136 0.3900430582 0.0919101770 0.0059640230 0.4411858423 0.7420195133
-0.0208611080 1.0250292830 -0.6529934382 0.0070532310 0.4413496812 0.7431183804
-0.2934404560 0.4231874976 0.3115684195 0.0070460134 0.4411619501 0.7431195618
0.1434922336 0.3823474355 0.0691107118 0.0070588675 0.4401504583 0.7420259107
0.3238102134 0.3753750706 0.1725885817 0.0070661937 0.4423460934 0.7420391984
-0.1136672559 0.3841510742 0.3058278957 0.0070550842 0.4403336727 0.7426033162
-0.2594245792 1.1384071071 -0.6671697533 0.0071637422 0.4401577735 0.7420268406
0.0760995725 0.5514204882 0.3149235318 0.0070556595 0.4413419312 0.7431191083
-0.3634936595 1.1751933853 -0.6967955698 0.0070668854 0.4416127988 0.7410188127
0.4343879350 0.3199811013 -0.6941312629 0.0070671280 0.4413043274 0.7409290878
-0.2611632305 0.5655425346 -0.6143486446 0.0070035515 0.4413213008 0.7431135717
0.4960256516 0.4519841761 0.1500867726 0.0081575337 0.4412221758 0.7420369456
-0.0145269947 0.3753750750 -0.5151019717 0.0070598040 0.4423461439 0.7420171484
-0.3966307869 0.4792601504 -0.6960173188 0.0070667613 0.4412565880 0.7409274706
-0.4307887744 0.3261608999 0.0200949525 0.0078520893 0.4409089231 0.7422360761
-0.4891851957 0.2179177995 -0.6826232752 0.0061084480 0.4412649791 0.7419213457
0.3048846827 0.3054091690 0.2244307445 0.0070688352 0.4406487029 0.7412834004
-0.4980753796 0.5673371311 -0.0240733883 0.0059642119 0.4413096588 0.7420200227
-0.1191228130 0.3191053085 -0.6159855591 0.0074055311 0.4408751225 0.7427878712
0.2955498213 1.0474797626 -0.6534221667 0.0070530268 0.4413518210 0.7431182037
0.2425562300 0.8881388080 -0.6380451697 0.0070530015 0.4413395301 0.7431191951
-0.3238313225 0.3338723575 -0.6984339588 0.0070676473 0.4412904007 0.7409284247
-0.0935116440 0.3826182394 -0.3274468504 0.0070589158 0.4401504583 0.7420247590
0.3893594902 0.3687877481 -0.1376344170 0.0070701417 0.4401505571 0.7420264761
0.2798430364 0.3821931834 0.0711675760 0.0070592979 0.4401504572 0.7420259173
0.2510714435 0.3392519671 -0.6133756634 0.0069682610 0.4409253432 0.7428170355
-0.3683332379 0.3677754823 -0.6974608426 0.0070671983 0.4412776795 0.7409280152
-0.2686932841 0.5628911004 0.3125189532 0.0070516972 0.4413304220 0.7431200328
0.4923526459 0.5760716850 0.3066342910 0.0081547736 0.4412566967 0.7421078823
0.0319847273 0.3992149173 -0.6140677401 0.0070059164 0.4414308908 0.7430710900
-0.4613571836 0.2941313766 0.1646491313 0.0069291455 0.4405645684 0.7420983021
-0.2464827006 1.1943993857 -0.6728574072 0.0070571219 0.4417353922 0.7425297457
-0.4309682604 0.3218509415 0.0474886072 0.0078295233 0.4408330349 0.7422141183
-0.2311098921 0.3113097122 0.3081109853 0.0070426572 0.4407345862 0.7427418938
-0.4264977040 0.6003460856 -0.6150688656 0.0070646007 0.4413293428 0.7431172364
0.4339183980 0.3537860904 -0.2434964271 0.0065033582 0.4412955992 0.7426456585
-0.1016966337 0.3687877481 -0.4340511272 0.0070542344 0.4401505429 0.7420205706
0.4354622018 0.3338487869 -0.4791901041 0.0066269343 0.4408583138 0.7426605184
-0.4983476404 0.5036511610 -0.2559899261 0.0059622829 0.4412510722 0.7420163316
-0.4987768377 0.5579568874 0.0453526039 0.0059637211 0.4412988611 0.7420206013
0.1868972405 0.5748954289 0.3123907639 0.0070565521 0.4413413823 0.7431191105
-0.2414741397 0.6155400450 -0.4922570067 0.0070607142 0.4423462307 0.7420245482
-0.2850552566 0.3687877481 -0.1971720476 0.0070533506 0.4401505352 0.7420252904
0.4844195951 0.7595496022 -0.6659275272 0.0078761923 0.4413180137 0.7420035533
0.4986330682 0.4573284008 -0.2345785676 0.0081574459 0.4412194157 0.7420308611
0.0304905789 0.5904922680 -0.6163368239 0.0070654109 0.4414384268 0.7409440334
-0.4857765768 0.6013444642 -0.6669789096 0.0063151331 0.4412939744 0.7417936690
0.4763576183 0.0337836385 0.3124705726 0.0074627157 0.4410298643 0.7428664086
-0.3907153663 0.6157053583 -0.0653442265 0.0070603343 0.4423462296 0.7420263927
-0.4726334181 0.6158003278 -0.3489274977 0.0070601246 0.4423462307 0.7420255352
0.1361436928 1.0221148948 -0.6518373854 0.0070531102 0.4413496230 0.7431183815
-0.2142786494 0.6155086179 -0.4120384227 0.0070607844 0.4423462307 0.7420247832
0.3310198264 0.7869725409 -0.6274879178 0.0070530136 0.4413322171 0.7431197934
-0.0037307513 0.3825137578 0.1000042857 0.0070583383 0.4401504594 0.7420259996
0.2002086615 0.3687877481 -0.4630810937 0.0070609403 0.4401505066 0.7420199920
0.0905811223 0.6151601330 0.0300662046 0.0070615628 0.4423462296 0.7420257603
0.4585522559 0.9459917134 -0.6928854171 0.0076333757 0.4412793779 0.7411537069
-0.3112943000 0.9140167693 -0.6974556167 0.0070668404 0.4412410649 0.7409274366
0.0653168111 0.3824387029 -0.3457192707 0.0070594615 0.4401504583 0.7420247063
-0.2033107611 1.1494044133 -0.6628797896 0.0070537448 0.4413715928 0.7431093426
0.4651725513 1.0140395490 -0.6514619967 0.0077907184 0.4413720386 0.7427816330
-0.1929492604 0.6154839407 -0.3458830427 0.0070608382 0.4423462307 0.7420249786
0.4938528262 0.4016344886 -0.0354387790 0.0081460004 0.4411009569 0.7420322719
0.3325920764 0.2936705843 -0.6475297303 0.0067263217 0.4402593359 0.7422401262
0.2699370186 0.3822049901 -0.0169406692 0.0070594450 0.4401504572 0.7420256615
-0.1273467701 0.9847754513 -0.6496645271 0.0070532540 0.4413463546 0.7431186472
0.4219190277 0.9454458523 -0.6424209070 0.0072014008 0.4413501028 0.7430629448
0.3109500035 0.3821586735 -0.0283579252 0.0070595998 0.4401504572 0.7420256285
0.2983747514 0.2930335053 -0.6948941017 0.0067013865 0.4402387219 0.7420351560
0.4611327677 0.5744217704 -0.6902988406 0.0074010594 0.4412575827 0.7410553943
-0.3068447188 0.4953957352 -0.6153072862 0.0071047493 0.4414179478 0.7430871488
-0.2683066881 0.4830545199 -0.6244706026 0.0070511318 0.4412002993 0.7409292481
-0.0776315717 0.7984476259 -0.6948955761 0.0070670040 0.4412421123 0.7409274311
-0.4757356011 0.7728116369 -0.6861965037 0.0063398476 0.4412911231 0.7414324551
-0.3828148163 1.1943993188 -0.6790887791 0.0070592134 0.4416871060 0.7422154665
0.4986501217 0.3807930229 -0.6719904359 0.0078289315 0.4414205641 0.7414268515
0.0109323058 1.0868063798 -0.6665465625 0.0070289292 0.4423432016 0.7420251466
-0.4969849969 0.5477385029 -0.2986417018 0.0059628889 0.4412828001 0.7420175382
0.0145988284 0.3687877481 0.1825848953 0.0070659511 0.4401505505 0.7420328570
0.3075926812 0.5097117663 -0.6915307476 0.0070672883 0.4412547194 0.7409274684
0.0824404675 1.1703625175 -0.6940406652 0.0070663880 0.4415612090 0.7410038562
-0.2614873742 0.6155634311 -0.5842502751 0.0070606637 0.4423462307 0.7420242573
0.2348602099 0.6955516519 -0.6921158768 0.0070670116 0.4412431487 0.7409274245
-0.4900682499 0.3262640278 -0.4830957005 0.0062177131 0.4408786346 0.7421887911
-0.1449118278 0.7309598569 -0.6948198548 0.0070670292 0.4412426986 0.7409274278
-0.0425398702 0.3030248948 -0.6977891912 0.0070676254 0.4413060237 0.7409290285
0.4682394537 0.2607630987 0.3123933768 0.0070588928 0.4412191171 0.7429401812
-0.4744438878 0.2941313766 -0.5474427550 0.0067659532 0.4404275180 0.7423400329
0.4564366909 1.1330729961 -0.6805060348 0.0075975615 0.4413119940 0.7417481572
-0.3592975421 0.5446139219 0.3128027397 0.0070356790 0.4412874277 0.7431221692
0.0638994456 0.9566002619 -0.6952150779 0.0070669161 0.4412407488 0.7409274388
0.4985015610 0.5583117884 -0.3149222582 0.0081567960 0.4412941171 0.7420303341
0.3970948619 1.1143220592 -0.6934265880 0.0070753545 0.4412617404 0.7409301978
0.3252322954 0.3753750750 -0.1346315763 0.0070662212 0.4423461373 0.7420315681
-0.0877474222 0.4462157385 -0.6216393058 0.0070649795 0.4411292253 0.7409342753
-0.3418247816 0.6156533591 -0.4686288306 0.0070604584 0.4423462307 0.7420248370
-0.3437274574 0.6156543307 -0.3238021901 0.0070604540 0.4423462307 0.7420253639
0.4206392418 0.1946712776 0.2905342592 0.0061611960 0.4411244001 0.7420946725
0.4984461111 0.3112417474 -0.6601625436 0.0079532904 0.4415264038 0.7417552605
0.3716085403 1.1588135875 -0.6926372132 0.0070662508 0.4414522129 0.7409725093
-0.1506141902 0.3753750750 -0.3520453267 0.0070572328 0.4423461483 0.7420192300
-0.3737353290 0.6156852220 0.0474038393 0.0070603771 0.4423462296 0.7420267659
0.4860512826 0.2941313766 0.1987663772 0.0075379506 0.4403887856 0.7420869620
0.2166458690 0.6150154094 0.2898268033 0.0070618845 0.4423462285 0.7420264432
-0.4990661860 0.5586272445 0.1481262688 0.0059637453 0.4412955926 0.7420247195
-0.0979029262 0.2941313766 0.3078481729 0.0070565872 0.4403988401 0.7426893830
0.3001621029 0.3753750750 -0.0802459226 0.0070657480 0.4423461329 0.7420325573
-0.0904265309 1.0091913938 -0.6518375194 0.0070532606 0.4413483418 0.7431184891
-0.4263282363 0.2195923221 -0.6853257788 0.0076328422 0.4406138998 0.7422411725
0.1560774446 0.6324214107 -0.6133321069 0.0070530059 0.4413199350 0.7431207793
-0.4406759294 0.9111191338 -0.6444399106 0.0066563072 0.4413486096 0.7429628086
0.4712205166 0.2135674925 -0.7062056157 0.0073805036 0.4413220309 0.7410589987
-0.1770515824 1.1714946474 -0.6640394599 0.0070535241 0.4414904996 0.7430853680
0.4339683530 0.9695786111 -0.6445674973 0.0073664770 0.4413582041 0.7430006517
0.4103285513 0.8224622806 -0.6304894179 0.0070530191 0.4413351781 0.7431195585
-0.1078424000 0.5057421838 -0.6255225208 0.0070627903 0.4412392018 0.7409282578
0.4380445898 0.9974950087 -0.6472265783 0.0074411466 0.4413631468 0.7429723712
-0.4406584741 0.6157652141 -0.4733563685 0.0070602058 0.4423462307 0.7420250203
0.0788798284 0.3448093292 -0.6144006438 0.0071889771 0.4410827067 0.7429234757
-0.1011179710 0.3826243492 0.0377520220 0.0070581550 0.4401504594 0.7420258185
0.4324553066 0.6147722305 0.1755109439 0.0070624357 0.4423462285 0.7420255923
0.4984279180 0.4692993930 -0.1662564939 0.0081575458 0.4412267957 0.7420321511
-0.4461803459 0.2941313766 -0.1934946866 0.0073716382 0.4404406356 0.7422742826
0.1791073235 0.6150630028 -0.3350107101 0.0070617890 0.4423462285 0.7420242639
0.1793571523 0.7701169404 -0.6267873973 0.0070530015 0.4413304023 0.7431199317
0.3460543033 0.3821227231 -0.5770073248 0.0070608305 0.4401504572 0.7420240366
0.4978534097 0.4069229033 -0.6449987729 0.0078768357 0.4416102572 0.7417127437
0.2108452369 0.5964483127 -0.6110516304 0.0070356724 0.4413193806 0.7431185737
0.2224333176 0.9643208242 -0.6942170353 0.0070669315 0.4412407191 0.7409274399
-0.4913097404 0.3417593464 -0.2934412092 0.0060397630 0.4411976127 0.7421081161
-0.1711028079 0.6154582929 -0.2297009946 0.0070608942 0.4423462307 0.7420253541
0.4923141145 0.6081836971 0.0000792730 0.0081433600 0.4414226457 0.7420317416
0.3516232492 0.4213711904 0.3151781012 0.0070615057 0.4411619171 0.7431196595
-0.3973382428 0.6157165656 -0.5173037780 0.0070603167 0.4423462318 0.7420247744
-0.4950585332 0.3656531071 0.2502809632 0.0069500141 0.4418810435 0.7417424426
-0.2618361095 1.0734420889 -0.6984788558 0.0070666801 0.4412397003 0.7409274443
0.4390961742 0.1530294061 -0.6576246167 0.0065649827 0.4406319403 0.7425833226
0.0225953536 0.6152377306 -0.0529346907 0.0070613894 0.4423462296 0.7420255989
-0.0145893975 1.0387897357 -0.6964648102 0.0070667998 0.4412400318 0.7409274432
-0.1547229596 0.7677956213 -0.6286832377 0.0070529730 0.4413290310 0.7431200218
-0.4966333303 0.4665786305 0.2860941264 0.0059634313 0.4412333237 0.7420684989
0.4969546074 0.5688630272 -0.1926421877 0.0081556091 0.4413150428 0.7420320270
0.2508488874 0.3879862357 -0.6927784696 0.0070675474 0.4412702973 0.7409277769
0.1474166512 0.6150948493 0.1521934919 0.0070617078 0.4423462296 0.7420260864
-0.1922667332 0.3891877366 -0.6139565032 0.0070674091 0.4411078714 0.7409364470
0.2133868505 0.6150224787 -0.1221619981 0.0070618768 0.4423462285 0.7420249621
-0.4066851645 0.6157213062 0.1906356484 0.0070602926 0.4423462285 0.7420273500
0.3235782934 0.3753750750 -0.2958960446 0.0070661904 0.4423461615 0.7420275268
-0.0720886172 0.3753750750 0.0150471739 0.0070587160 0.4423461725 0.7420295151
-0.4975995440 0.4694540645 -0.2799225948 0.0059634807 0.4412056976 0.7420177248
0.4405358115 0.1969424562 0.2350152701 0.0066986637 0.4411061389 0.7412259940
-0.0688264642 0.3825911458 -0.4483398857 0.0070592419 0.4401504583 0.7420244077
0.1527861932 0.3753750750 -0.2235648447 0.0070629637 0.4423461747 0.7420268439
-0.0793457149 0.5978427521 -0.6939953663 0.0070671708 0.4412485317 0.7409274454
0.2653966047 0.3808645141 0.2418546545 0.0070736857 0.4420228138 0.7415589691
-0.3492836042 0.5706076258 -0.6215720284 0.0070524262 0.4413814003 0.7409364777
-0.2859575766 0.2991406907 -0.6172996199 0.0075899620 0.4407207122 0.7426872245
-0.4298073494 0.7918287040 -0.6971416087 0.0069245662 0.4412493749 0.7409694659
-0.2698888224 0.5968770412 0.3089376509 0.0070510099 0.4413284393 0.7431200064
-0.4743885378 0.1550012017 -0.7206921872 0.0066853650 0.4413242651 0.7410674173
-0.4969312553 0.5676936987 -0.2088550638 0.0059640856 0.4413080185 0.7420184451
-0.0844932783 0.7272010788 -0.6944037246 0.0070670259 0.4412427535 0.7409274267
0.4998563304 0.5135281814 -0.4405250741 0.0081578554 0.4412572193 0.7420269877
-0.2371373357 1.0868063798 -0.6609501760 0.0070643976 0.4423442116 0.7420257416
0.1792864911 0.6150608411 -0.0962349865 0.0070617890 0.4423462296 0.7420251246
0.3432776868 0.5980746557 -0.6912828116 0.0070671390 0.4412486612 0.7409274443
-0.4757491370 0.0030509874 -0.7420252783 0.0068548207 0.4413064497 0.7409554470
-0.1359864972 0.5496725300 -0.6241279145 0.0070623917 0.4413549379 0.7409334651
-0.4168871322 0.4167528693 0.3087851027 0.0070331616 0.4411875462 0.7431204236
0.4322995087 0.3511710171 0.0032253133 0.0063856273 0.4414971912 0.7423463929
-0.0451790827 1.0608551103 -0.6566178612 0.0070532990 0.4413525104 0.7431181576
-0.0603414470 0.6153312761 -0.0184496611 0.0070611775 0.4423462296 0.7420258920
-0.3417930197 0.7132652276 -0.6959504432 0.0070670490 0.4412427908 0.7409274267
0.2270791704 0.4061469382 -0.6922568653 0.0070673081 0.4412634827 0.7409275574
0.4995730808 0.5184384462 -0.3527346564 0.0081578082 0.4412604482 0.7420290979
0.0069759913 0.3687877481 0.0058154415 0.0070631998 0.4401505253 0.7420293350
0.1788633575 0.4805966597 -0.6229887483 0.0070718808 0.4411867217 0.7409300298
-0.1724373070 0.6565891822 -0.6178095646 0.0070529763 0.4413205806 0.7431207058
0.2250857817 0.5109074968 0.3179008751 0.0070596426 0.4412749809 0.7431221067
-0.2418538003 0.6155397430 -0.4045143000 0.0070607142 0.4423462307 0.7420248655
-0.2220454822 1.0774193182 -0.6982368165 0.0070666889 0.4412396717 0.7409274443
0.2943596275 0.3753750750 -0.1633004936 0.0070656382 0.4423461461 0.7420304043
-0.1313546908 1.1384071071 -0.6641092845 0.0071410444 0.4401568414 0.7420266254
0.1132172514 0.6151355403 -0.0925775939 0.0070616210 0.4423462296 0.7420252717
-0.0685868041 0.6153431706 -0.3323896237 0.0070611566 0.4423462296 0.7420247755
0.4401404873 0.2516760064 -0.7009697415 0.0070802906 0.4413030835 0.7409313594
0.4713644871 0.2941313766 -0.0865512054 0.0073138069 0.4403272248 0.7421919135
0.0236942295 0.6152354689 0.0716554741 0.0070613927 0.4423462296 0.7420260468
0.2165130224 0.7087661931 -0.6204899545 0.0070530081 0.4413259086 0.7431202984
-0.2135948157 0.7223022979 -0.6951955114 0.0070670369 0.4412427535 0.7409274267
-0.4928338436 0.6137767339 0.1247174155 0.0064269914 0.4420669961 0.7420217464
0.4054079916 0.6148026025 0.2033517880 0.0070623676 0.4423462285 0.7420257482
-0.4416893852 0.6157655160 -0.3709832888 0.0070602036 0.4423462307 0.7420253925
0.1483449538 0.8757402610 -0.6374195669 0.0070529938 0.4413382577 0.7431192917
-0.3958330024 0.2941313766 0.2899052726 0.0070584822 0.4404315615 0.7425362243
-0.2657593963 0.6589322285 -0.6951787587 0.0070670819 0.4412442719 0.7409274289
0.1915021509 0.6150506560 -0.5387202295 0.0070618208 0.4423462274 0.7420235030
0.0916993133 0.5456151067 -0.6929087362 0.0070672444 0.4412521789 0.7409274586
0.3197610495 0.4580632611 -0.6200685973 0.0070820297 0.4411619643 0.7409314461
0.4941119870 0.5735749849 0.2052831769 0.0081559616 0.4413073378 0.7420344599
0.4470084519 0.0530381534 0.3119168035 0.0068350839 0.4411436109 0.7430134685
-0.2599809437 0.6155559599 0.1178960914 0.0070606681 0.4423462296 0.7420267901
0.1823815203 0.5998381182 -0.6112003920 0.0070395952 0.4413190896 0.7431191061
-0.4723360618 0.2941313766 -0.4478160033 0.0068146182 0.4403974578 0.7422838979
0.3303714073 0.6148912734 -0.2585334159 0.0070621755 0.4423462274 0.7420242331
-0.4984966370 0.5812213179 0.1100190273 0.0059654393 0.4413316154 0.7420207089
-0.4758148730 0.0272099473 0.3065202062 0.0066789358 0.4410920333 0.7428747965
-0.0057446047 0.4869298443 -0.6935340712 0.0070671478 0.4412561818 0.7409274728
0.2085066798 0.6150284084 -0.1721977797 0.0070618637 0.4423462285 0.7420247919
0.4861743459 0.7241301559 -0.6204071310 0.0077887499 0.4413379052 0.7428239170
-0.4968873299 0.5323884448 -0.3556747089 0.0059625343 0.4412696748 0.7420155093
-0.0125760392 0.3753750750 -0.1800115868 0.0070598402 0.4423461922 0.7420255231
-0.4983739754 0.5586052911 0.2795898909 0.0059627473 0.4412487996 0.7420557974
-0.1961963360 0.5562684435 -0.6234209615 0.0070606615 0.4413651680 0.7409344916
0.4630672383 0.2941313766 -0.0442309270 0.0070634369 0.4404266957 0.7421794975
-0.3516539736 0.9707275936 -0.6982220741 0.0070667635 0.4412405720 0.7409274399
0.4975547799 0.4080136165 -0.5272181398 0.0081547418 0.4411667160 0.7420239279
-0.2215190208 0.5121249292 -0.6146051584 0.0070365661 0.4413727291 0.7430971901
-0.2522013798 0.3379940940 0.2213412596 0.0069005741 0.4416310193 0.7411131970
0.3064772700 0.3687877481 -0.5031580194 0.0070628660 0.4401504978 0.7420191927
-0.0915442542 0.8518298409 -0.6953962723 0.0070669809 0.4412416304 0.7409274344
0.3382283339 0.3687877481 0.0418293655 0.0070715448 0.4401505747 0.7420300519
0.4919404012 0.3595122912 0.2565207109 0.0072979644 0.4418151000 0.7417836815
0.0571869112 0.3687877481 -0.1748695260 0.0070617561 0.4401505077 0.7420257350
-0.2889411526 0.3828387052 -0.2398510959 0.0070581177 0.4401504594 0.7420250126
-0.2311189211 0.6155237951 0.0598289892 0.0070607416 0.4423462296 0.7420265211
0.3651737605 0.3533345950 -0.6124715671 0.0068426209 0.4410361332 0.7428893138
-0.4787040329 0.7510018045 -0.6513285133 0.0062483584 0.4413168236 0.7421638976
0.0572467681 0.8832957449 -0.6387454223 0.0070529850 0.4413385003 0.7431192664
-0.0405027734 1.0693979159 -0.6969073425 0.0070667569 0.4412397650 0.7409274443
0.0865507366 0.6151631818 0.2146988506 0.0070615530 0.4423462285 0.7420264355
-0.1538200709 0.6154408706 -0.4899828287 0.0070609381 0.4423462296 0.7420243791
0.3053202456 0.8832463927 -0.6930751892 0.0070669502 0.4412414789 0.7409274344
-0.3438636877 0.4565270536 -0.6233287554 0.0070473452 0.4411819162 0.7409297499
-0.3085721289 0.6156138066 -0.2321906079 0.0070605440 0.4423462307 0.7420256241
0.4983669391 0.4386507205 -0.5785647654 0.0081573175 0.4412232561 0.7420009041
0.0980234600 0.2933590729 -0.6720735274 0.0068768103 0.4402273643 0.7421413305
-0.4913305135 0.5471440428 -0.5906711502 0.0059648004 0.4412516025 0.7419538387
-0.4895333447 0.3155515807 -0.5648579204 0.0063156414 0.4406878030 0.7422328296
0.4387643080 0.6147714269 -0.5943289446 0.0070624521 0.4423462263 0.7420228015
0.2888558148 0.3821856530 -0.3176719369 0.0070601191 0.4401504572 0.7420247887
0.2907742036 0.9862246380 -0.6939430992 0.0070669205 0.4412405445 0.7409274410
0.0617654031 0.3753750750 0.0716154693 0.0070612444 0.4423461450 0.7420328713
-0.0049808985 0.3497611491 -0.6148713204 0.0072130329 0.4411568163 0.7429394412
0.3693867974 0.9098323456 -0.6928641082 0.0070669370 0.4412412615 0.7409274366
0.0219854977 0.6152429401 -0.6036991865 0.0070613872 0.4423462285 0.7420236117
-0.1661105978 0.3826995973 -0.2151014460 0.0070584569 0.4401504583 0.7420250851
-0.4953208438 0.4479731593 -0.4930439683 0.0059634269 0.4412011194 0.7420054790
-0.3244718017 0.3308888572 -0.6171426834 0.0075027337 0.4410658146 0.7428484658
-0.0594313035 0.7066436586 -0.6940883761 0.0070670303 0.4412429478 0.7409274256
0.4624185173 0.2941313766 0.1077764784 0.0069534461 0.4405325650 0.7421261314
0.1568101124 0.6150864230 -0.1161068636 0.0070617319 0.4423462296 0.7420250983
-0.3220694014 0.4222965660 -0.6955435605 0.0070667361 0.4412605305 0.7409274838
0.4981036568 0.5232897435 -0.1115879936 0.0081576216 0.4412675691 0.7420331776
-0.4085284018 0.3753750750 0.0460286656 0.0070523603 0.4423461703 0.7420253914
-0.4271854253 0.3625287522 -0.5290236503 0.0074782629 0.4414115428 0.7428704203
0.0334518304 0.3753750750 -0.4409149363 0.0070607098 0.4423461615 0.7420196945
-0.3696490081 0.3687877481 -0.6001004947 0.0070454909 0.4401506010 0.7420172615
-0.4262379075 0.1437996159 0.2377299701 0.0078676957 0.4411005232 0.7413441202
-0.4620113996 0.9385154014 -0.6470338583 0.0064757683 0.4413555735 0.7429224118
-0.2312277449 1.1943993857 -0.6947682574 0.0070662717 0.4417822490 0.7410953267
0.3489177297 0.3687877481 0.0128181619 0.0070713758 0.4401505725 0.7420294744
0.3740736607 0.3687877481 -0.0766488392 0.0070706676 0.4401505626 0.7420276915
-0.3233898289 0.3898348625 -0.6963582646 0.0070669765 0.4412694256 0.7409277495
0.3039075461 0.9333046897 -0.6421169513 0.0070530048 0.4413431553 0.7431189041
0.0274014354 0.6501770014 -0.6159048797 0.0070529938 0.4413208133 0.7431207003
0.0346383968 0.3824693395 0.2483931649 0.0070581616 0.4401504594 0.7420264300
-0.4261782022 0.1797128240 -0.6890114486 0.0077716646 0.4407769076 0.7422581590
0.3278566316 0.3565237406 0.3116607925 0.0072263920 0.4418011118 0.7428720243
-0.1691179453 0.7425072126 -0.6950621619 0.0070670281 0.4412425855 0.7409274278
-0.0298697990 0.3687877481 -0.2110800564 0.0070591738 0.4401505022 0.7420250126
0.2146143681 0.6150203839 -0.0369835544 0.0070618801 0.4423462296 0.7420252673
0.1275351841 1.0464551160 -0.6542559016 0.0070531508 0.4413515531 0.7431182289
-0.0849470343 1.1384071071 -0.6744377662 0.0070962275 0.4401533919 0.7420258229
