-0.2716514228 0.4246987105 -0.1535005041 0.0074626857 0.0000000000 0.0330666378
-0.4202580841 0.4254550686 -0.1436901022 0.0042200517 -0.0002769701 0.0189312589
0.3088045751 0.3432835411 0.0559582172 0.0074626857 0.0074626857 0.0256039522
-0.2970917481 0.3358208554 -0.0386148834 0.0074626857 0.0074626857 0.0256039522
-0.0991944285 0.4552238262 -0.0173812666 0.0074626857 -0.0074626857 0.0256039522
-0.3411017055 0.3432835411 0.0858880942 0.0074626857 0.0074626857 0.0256039522
0.3354197137 0.2871971373 -0.0564855903 0.0074626857 0.0000000000 0.0181412665
0.4167128980 0.3220929839 0.0851736018 0.0120722747 0.0057544769 0.0257337432
-0.0990380330 0.4701491976 0.0012429402 0.0074626857 0.0074626857 0.0256039522
-0.0926031158 0.4701491976 0.1402915877 0.0074626857 0.0074626857 0.0256039522
-0.3728546420 0.2882923238 -0.0415602189 0.0074626857 0.0000000000 0.0330666378
0.4925372546 0.1361050509 0.1663496369 0.0121838493 0.0004175597 0.0295844592
-0.1645368236 0.2838975109 -0.0564855903 0.0074626857 0.0000000000 0.0181412665
-0.1387194984 0.3432835411 -0.0596350153 0.0074626857 0.0074626857 0.0256039522
0.3057272844 0.3021192923 0.1300815516 0.0074626857 0.0000000000 0.0330666378
0.2265734729 0.3283581697 -0.0716681556 0.0062941187 -0.0072892155 0.0248130493
-0.1718038974 0.3515036968 -0.1058315844 0.0060109097 0.0058702232 0.0299592800
-0.1029613608 0.2002223045 -0.1388926774 0.0074626857 0.0018201863 0.0183668187
-0.0970149138 0.0900594221 0.1613241449 0.0000000000 0.0000000000 0.0256039522
-0.2165082577 0.3190393798 0.1300815516 0.0074626857 0.0000000000 0.0330666378
0.3187937604 0.3432835411 0.1013721969 0.0074626857 0.0074626857 0.0256039522
-0.1044775995 0.4518639610 0.1337664691 0.0000000000 0.0000000000 0.0256039522
-0.4886797402 0.0923859964 0.1517611684 0.0074626857 -0.0009542312 0.0182030650
0.0970149138 0.4650789519 -0.0709364318 0.0000000000 0.0000000000 0.0256039522
0.3070526350 0.3270391923 0.1300815516 0.0074626857 0.0000000000 0.0330666378
0.1906179101 0.3283581697 0.0917379144 0.0074626857 -0.0074626857 0.0256039522
-0.4048933397 0.3333902960 0.1664408234 0.0062673575 0.0028835594 0.0316467649
0.4477611406 0.4382307163 -0.1355298644 0.0149253714 0.0000000000 0.0256039522
0.4822580991 0.0292200487 -0.1724725540 0.0081386259 0.0024052534 0.0187783187
0.1031494280 0.2194571604 -0.1340839840 0.0074626857 0.0018099699 0.0183640799
0.2783072130 0.3448438394 -0.1102846883 0.0074626857 -0.0052769173 0.0203270349
0.4850745689 0.1127738074 -0.1421830800 0.0149253714 0.0000000000 0.0256039522
0.4712082049 0.1027676892 -0.1334056035 0.0074626857 -0.0018993580 0.0328194961
-0.2112600196 0.3432835411 0.1668748010 0.0074626857 0.0074626857 0.0256039522
-0.3122022165 0.5382291820 -0.1609631897 0.0074626857 0.0000000000 0.0330666378
0.4909022847 0.4552238262 0.1413064234 0.0083311035 -0.0060313127 0.0280719817
-0.4476708943 0.3432835710 0.0425407561 0.0074626857 0.0074626857 0.0256039522
-0.1417910278 0.5187324903 -0.1319739395 0.0122748866 0.0000000000 0.0204004528
-0.4243784419 0.3008504492 -0.0415602189 0.0074626857 0.0000000000 0.0330666378
-0.3828488647 0.3325121767 -0.1021070848 0.0070726036 -0.0071350365 0.0235785942
-0.0781922071 0.2986410539 0.1541358622 0.0129125955 0.0010948058 0.0304409367
0.3922378860 0.2977333824 0.1300815516 0.0074626857 0.0000000000 0.0330666378
-0.4104477122 0.2986428748 -0.0110151927 0.0149253714 0.0000000000 0.0256039522
-0.4895344639 0.2143171087 0.1671916218 0.0059792381 0.0008645148 0.0327330334
-0.2331343975 0.5671641114 -0.1660102861 0.0074626857 0.0074626857 0.0256039522
0.4042378398 0.3283581697 -0.0150084982 0.0074626857 -0.0074626857 0.0256039522
0.2043238040 0.3606111734 -0.1260520073 0.0074626857 -0.0049456561 0.0200505722
-0.2196314962 0.4552247367 -0.1641772416 0.0098255212 -0.0010612984 0.0186494978
-0.3641322252 0.5746267971 -0.1604016749 0.0074626857 0.0074626857 0.0256039522
0.1303087904 0.3851694839 -0.1311124470 0.0047004845 -0.0022210296 0.0191906022
-0.3762651566 0.3208954841 -0.0453367931 0.0074626857 0.0065196485 0.0280921683
-0.2153858101 0.3047450009 -0.0415602189 0.0074626857 0.0000000000 0.0330666378
0.1607783092 0.2906435175 0.1063293530 0.0074626857 -0.0074549916 0.0259428178
-0.3905941474 0.3475469212 -0.1023257788 0.0076874842 0.0065253947 0.0290598249
-0.4104477122 0.3140516341 0.0452976289 0.0149253714 0.0000000000 0.0256039522
0.2393465311 0.3596909496 -0.1251318134 0.0074626857 -0.0050303800 0.0201283334
0.4180129426 0.5675217233 -0.1533979891 0.0104858644 0.0000000000 0.0187839530
0.2786069220 0.3432835411 0.0517713670 0.0074626857 0.0074626857 0.0256039522
0.4594277959 0.3328339453 -0.0863363330 0.0038396637 -0.0009901641 0.0317649067
0.1286220667 0.3751762313 -0.1236497614 0.0047201860 -0.0020734848 0.0191171917
-0.1119402851 0.1364141703 -0.1341829094 0.0000000000 0.0000000000 0.0256039522
-0.1712173452 0.3151778803 -0.0199686991 0.0003794253 0.0015783282 0.0253711313
-0.3718770004 0.4642223550 -0.1609631897 0.0062493799 -0.0006066566 0.0183357366
-0.4100026451 0.5110386479 -0.1535005041 0.0041843502 -0.0000466567 0.0189073037
-0.0998097344 0.0357148689 -0.1542997801 0.0074626857 -0.0027537683 0.0325360484
-0.2069745425 0.4161027190 -0.1460378184 0.0072481708 0.0000536269 0.0330416378
0.4505648268 0.2922743233 -0.0891400043 0.0008533730 0.0000000000 0.0222822287
-0.4104477122 0.3125369701 -0.0243379075 0.0149253714 0.0000000000 0.0256039522
-0.1498333776 0.2978302032 -0.0415602189 0.0074626857 0.0000000000 0.0330666378
-0.3806368277 0.3283581697 0.0805472964 0.0074626857 -0.0074626857 0.0256039522
0.4787367936 0.0108886927 -0.1609632047 0.0079536408 -0.0025953504 0.0324120708
0.0970149213 0.0001649254 -0.1780252474 0.0149253714 0.0000000000 0.0256039522
-0.0926978173 0.4552238561 0.0669523278 0.0074626857 -0.0074626857 0.0256039522
0.4552238262 0.3943646096 -0.0828697588 0.0000000000 0.0000000000 0.0256039522
0.1877980074 0.4177718158 -0.1322740215 0.0091131258 0.0022932087 0.0325056081
0.4626865119 0.0871187135 -0.1608926450 0.0000000000 0.0000000000 0.0256039522
0.3560608381 0.3283581697 0.0923271830 0.0074626857 -0.0074626857 0.0256039522
0.2030225802 0.3283581697 0.0421253532 0.0074626857 -0.0074626857 0.0256039522
-0.4868768150 0.4469371631 0.1318837977 0.0011505297 0.0012934700 0.0218787437
0.2483828509 0.3283581697 0.1023045997 0.0074626857 -0.0074626857 0.0256039522
-0.1528147877 0.5397577938 -0.1460378184 0.0096648645 -0.0008513954 0.0187551619
-0.4678319367 0.3189887903 -0.1073353827 0.0074626857 0.0018099699 0.0183640874
-0.2133170939 0.3085554557 0.1151561803 0.0074626857 0.0000000000 0.0181412665
-0.4897162550 0.1496417583 0.1673949800 0.0074626857 0.0000000000 0.0330666378
0.4978195301 0.1695477559 0.1457049304 0.0107799315 -0.0009753581 0.0190021918
0.1601345406 0.3432835411 0.0864658106 0.0074626857 0.0074626857 0.0256039522
0.3041409338 0.3432835411 -0.0536669414 0.0074626857 0.0074626857 0.0256039522
0.1492537135 0.3060781202 0.0605751196 0.0000000000 0.0000000000 0.0256039522
-0.4360835002 0.3348250197 -0.0918073846 0.0064665962 -0.0069484171 0.0234188106
-0.2958097557 0.2956068901 0.1151561803 0.0074626857 0.0000000000 0.0181412665
0.3372845344 0.3770990669 -0.1368261777 0.0074626857 -0.0028554176 0.0187645724
0.2213295930 0.2918122040 0.1300815591 0.0074626857 0.0000000000 0.0330666378
0.0918720189 0.4701492274 0.0202826394 0.0074626857 0.0074626857 0.0256039522
0.2477954182 0.3432835411 -0.0438870395 0.0074626857 0.0074626857 0.0256039522
-0.4845644272 0.0075612528 -0.1609631897 0.0074626857 -0.0000119552 0.0330651677
-0.4252303149 0.5260514148 -0.1460378035 0.0021284400 0.0002609403 0.0205218558
-0.2614234762 0.3403463922 0.0226668107 0.0074626857 0.0070797230 0.0232440420
0.1775673892 0.4288024936 -0.1462154602 0.0059030739 -0.0016685894 0.0185584978
-0.4275731131 0.3432835411 0.0122807747 0.0074626857 0.0074626857 0.0256039522
-0.0845848630 0.1874898284 0.1673949800 0.0073254543 0.0001629627 0.0327756230
0.3591288228 0.4547893487 -0.1460378184 0.0074626857 0.0000596791 0.0330582796
-0.1776422624 0.4269291953 -0.1535005041 0.0088738348 0.0000000000 0.0183702665
-0.3848661555 0.2835820557 -0.0442469350 0.0074626857 -0.0066757679 0.0275037430
-0.1044775995 0.0652630370 -0.1667969278 0.0000000000 0.0000000000 0.0256039522
-0.2364010315 0.3283581697 0.0671171412 0.0074626857 -0.0074626857 0.0256039522
0.0895522281 0.0281235041 -0.1621768314 0.0000000000 0.0000000000 0.0256039522
-0.1287267981 0.4818988081 -0.1236497614 0.0074626857 0.0000000000 0.0181412665
-0.4925372546 0.2042497443 0.1410457294 0.0019605819 -0.0005575596 0.0221054227
-0.1676264054 0.5467943675 -0.1385751327 0.0069885365 0.0004741492 0.0329468468
-0.4780048534 0.1925699770 0.1397748639 0.0104676032 -0.0008215298 0.0188676843
0.4552238262 0.4240706807 -0.0776684310 0.0000000000 0.0000000000 0.0256039522
0.4591772437 0.3327026245 -0.1039069428 0.0074626857 0.0019650222 0.0184056023
-0.2964603900 0.5528486355 -0.1609631897 0.0074626857 0.0000000000 0.0330666378
0.2886289581 0.2836707870 0.1151561803 0.0074626857 0.0000000000 0.0181412665
-0.1119402851 0.1397430878 -0.1456433408 0.0000000000 0.0000000000 0.0256039522
0.3982153181 0.3432835411 0.0196333111 0.0074626857 0.0074626857 0.0256039522
0.4029850265 0.2940237634 -0.0188519007 0.0000000000 0.0000000000 0.0256039522
-0.0820895424 0.3987306688 0.1427467292 0.0149253714 0.0000000000 0.0256039522
-0.1567163992 0.2949805394 0.0579196274 0.0149253714 0.0000000000 0.0256039522
0.4233592106 0.3358208554 0.0438012037 0.0082061259 -0.0073186260 0.0256039522
-0.4356569928 0.3432835710 -0.0597671496 0.0074626857 0.0074626857 0.0256039522
-0.4025233922 0.3283581697 -0.0730027898 0.0074626857 -0.0074626857 0.0256039522
-0.3243242150 0.3432835411 0.0606855599 0.0074626857 0.0074626857 0.0256039522
-0.4776118833 0.0845227362 0.1587477199 0.0141554685 -0.0002863955 0.0239940643
-0.1119402851 0.2204908020 -0.1185903067 0.0000596045 -0.0008208954 0.0254985716
-0.4349628361 0.3711401646 -0.1141929416 0.0085174841 0.0032894996 0.0321037574
-0.2815577350 0.2972425391 -0.0415602189 0.0074626857 0.0000000000 0.0330666378
0.0895522281 0.2871981000 0.1350344764 0.0149253714 0.0000000000 0.0256039522
0.2544039771 0.5087935587 -0.1535005190 0.0074626857 0.0000000000 0.0330666378
-0.0820895424 0.2060910724 0.1620168986 0.0149253714 0.0000000000 0.0256039522
0.4081826901 0.2899296818 0.0906251086 0.0074626857 -0.0074549916 0.0259428178
-0.2008336402 0.3771280445 -0.1500315791 0.0092583496 -0.0031100146 0.0190735574
-0.1194029708 0.3625655239 -0.0916961159 0.0000000000 0.0000000000 0.0256039522
-0.3389354968 0.3348578705 -0.1217237914 0.0074626857 -0.0063014246 0.0216908258
0.1641790849 0.3061526500 0.0876683104 0.0149253714 0.0000000000 0.0256039522
0.1723251735 0.5254780119 -0.1460378184 0.0098441332 0.0000000000 0.0326552946
-0.1006051671 0.0537262324 -0.1480295719 0.0063801858 -0.0023765743 0.0325005633
0.1525692803 0.3227049018 0.0820211096 0.0045602009 0.0068531857 0.0254503776
-0.3246044239 0.3358208554 -0.0292540935 0.0074626857 0.0074626857 0.0256039522
0.2984360017 0.3432835411 -0.0409654354 0.0074626857 0.0074626857 0.0256039522
0.4116846673 0.4958567244 -0.1385751327 0.0066695888 0.0001586194 0.0329804140
0.3167381487 0.5317645186 -0.1535005041 0.0074626857 0.0000000000 0.0330666378
0.1020865027 0.4552238262 0.1131959268 0.0074626857 -0.0074626857 0.0256039522
-0.2963782855 0.4381873059 -0.1545741009 0.0090167974 0.0027258131 0.0322677499
-0.1552374367 0.5158743712 -0.1311124470 0.0057557829 0.0000000000 0.0327507200
-0.3060052993 0.2842088317 0.1151561803 0.0074626857 0.0000000000 0.0181412665
-0.2686919008 0.3283581697 0.1575468245 0.0074626857 -0.0074626857 0.0256039522
-0.1487858703 0.3330179080 0.1552725412 0.0084618647 0.0045874024 0.0311905336
0.3879430208 0.4739441374 -0.1535005041 0.0083776930 -0.0003594776 0.0183996097
0.4999999403 0.2433854859 0.1468499452 0.0149253714 0.0000000000 0.0256039522
-0.4165283682 0.4600643928 -0.1460378184 0.0043323875 0.0000000000 0.0188313783
-0.4104477122 0.2901542937 0.0151087445 0.0149253714 0.0000000000 0.0256039522
-0.3387302133 0.3510918835 -0.1389208342 0.0074626857 -0.0052769173 0.0203270349
0.2557626411 0.3283581697 -0.0201667812 0.0074626857 -0.0074626857 0.0256039522
0.1614320479 0.3449708916 -0.0954863543 0.0087804915 0.0067210216 0.0283715563
-0.3104269331 0.4757724059 -0.1609631897 0.0074626857 0.0000000000 0.0330666378
-0.4293884786 0.3826490215 -0.1216864034 0.0104688196 0.0028068206 0.0318155335
-0.2523766714 0.5496578448 -0.1758885611 0.0088568273 0.0000000000 0.0183675053
-0.1044775920 0.0942836753 -0.1405868265 0.0010428655 -0.0003884552 0.0275462131
0.3885293491 0.3283581697 0.1213141348 0.0074626857 -0.0074626857 0.0256039522
-0.3516776968 0.4139071894 -0.1468360571 0.0100532078 0.0023049176 0.0321941753
-0.4456628274 0.3581765766 -0.1033276742 0.0110777151 0.0036258055 0.0310318844
0.1547458099 0.3218914019 0.0162401399 0.0048454621 0.0069705813 0.0254203850
0.4286070906 0.3358208554 -0.0327803991 0.0093538123 -0.0070162529 0.0256039522
0.3556544351 0.3283581697 0.0460940542 0.0074626857 -0.0074626857 0.0256039522
0.4776118833 0.0899526758 0.1661179652 0.0000000000 0.0000000000 0.0256039522
0.4674462875 0.1970201257 -0.1396932371 0.0074626857 0.0016865595 0.0183405053
0.2567759843 0.3432835411 0.1215539929 0.0074626857 0.0074626857 0.0256039522
-0.2985356658 0.3358208554 0.0101222301 0.0074626857 0.0072854842 0.0245119672
-0.3455269214 0.3020015162 0.1300815516 0.0074626857 0.0000000000 0.0330666378
-0.2941525544 0.4949934633 -0.1758885611 0.0074626857 0.0000000000 0.0181412665
0.1532235041 0.2875804283 0.0389414356 0.0074626857 -0.0074549916 0.0259428178
-0.4461173199 0.3283581697 -0.0716313944 0.0074626857 -0.0074561036 0.0255504895
-0.2212921303 0.5465696437 -0.1535005041 0.0069159022 0.0005549775 0.0329132423
-0.3500224582 0.3713567766 -0.1535005041 0.0068304395 -0.0025687161 0.0186697814
-0.4688937948 0.1367604538 -0.1477146764 0.0089888049 0.0016056416 0.0185985202
-0.1509532581 0.3283581697 -0.0626326268 0.0074626857 -0.0074626857 0.0256039522
0.1564087500 0.5011947909 -0.1511035640 0.0047331636 -0.0003587313 0.0186724157
-0.4179103979 0.3171852382 0.1015537864 0.0000000000 0.0000000000 0.0256039522
-0.0817759828 0.3423428472 0.1482845196 0.0148082221 0.0013014327 0.0256039522
0.3667272174 0.3283581996 0.1019253759 0.0074626857 -0.0074626857 0.0256039522
-0.3408911309 0.4409932682 -0.1684258754 0.0054481038 -0.0013522088 0.0186697963
0.0765732371 0.2103841988 0.1599322943 0.0037576115 0.0000000000 0.0315319440
0.3200341633 0.3432835411 0.1424775054 0.0074626857 0.0074626857 0.0256039522
-0.0820895424 0.2932834874 0.1304337232 0.0110040211 -0.0007278730 0.0192950499
0.3389614297 0.3432835411 -0.0790329906 0.0074626857 0.0074626857 0.0256039522
-0.1370562523 0.5629438059 -0.1311124470 0.0074626857 0.0000000000 0.0330666378
0.3555335023 0.3547577487 -0.1201985976 0.0074626857 -0.0052769173 0.0203270349
0.1838938512 0.3432835411 -0.0503299343 0.0074626857 0.0074626857 0.0256039522
0.0970149138 0.4571918708 0.1382721253 0.0149253714 0.0000000000 0.0256039522
0.4580389005 0.4701491976 -0.0547933218 0.0074626857 0.0074626857 0.0256039522
0.4999999403 0.0844747810 0.1620895777 0.0149253714 0.0000000000 0.0256039522
-0.3365383031 0.3483599360 -0.1063380992 0.0074626857 0.0069120440 0.0283964891
-0.4794840995 0.2207820259 -0.1094990317 0.0074626857 -0.0018259102 0.0328396528
-0.3778479101 0.3432835411 0.0487906136 0.0074626857 0.0074626857 0.0256039522
-0.1695680693 0.4967507317 -0.1535005041 0.0083969318 -0.0000045746 0.0183612366
-0.3549084875 0.3507462268 -0.1089443751 0.0074626857 0.0065669097 0.0291445562
0.2457170453 0.5746267971 -0.1656084056 0.0067364917 0.0058578500 0.0231787062
-0.3537349578 0.3358208554 0.0078208647 0.0074761185 0.0073693200 0.0249625418
0.4029850265 0.2950285095 0.0568375156 0.0000000000 0.0000000000 0.0256039522
0.1717872705 0.3283581697 -0.0167355279 0.0074626857 -0.0074626857 0.0256039522
-0.3922686024 0.3283581697 0.0492427479 0.0074626857 -0.0074626857 0.0256039522
-0.2197716603 0.4674676382 -0.1684258754 0.0094130884 -0.0007188730 0.0185761993
0.3945056693 0.3011129193 -0.0415602189 0.0074626857 0.0000000000 0.0330666378
0.1964914168 0.3283581697 0.0192948858 0.0074626857 -0.0074626857 0.0256039522
0.4371674180 0.3432835411 0.0402903683 0.0074626857 0.0074626857 0.0256039522
-0.4755391970 0.4608675271 0.1375442373 0.0117986329 0.0025392758 0.0309361754
0.0891415341 0.4701491976 0.1143904043 0.0074626857 0.0074626857 0.0256039522
-0.3898997594 0.4308950008 -0.1535005041 0.0065133500 -0.0003297313 0.0183436098
0.0876168477 0.0765862819 0.1524696087 0.0079771856 -0.0005235746 0.0182794680
0.4925373143 0.1389953416 0.1478434077 0.0148073490 -0.0000439627 0.0253841462
-0.4922654412 0.4578501617 0.0690209843 0.0000460821 0.0000000000 0.0247761388
0.2374823522 0.2975021436 -0.0564855903 0.0074626857 0.0000000000 0.0181412665
-0.4477611406 0.3432180635 -0.0668862159 0.0000000000 0.0000000000 0.0256039522
0.1963445213 0.3432835411 0.0983550778 0.0074626857 0.0074626857 0.0256039522
0.0953863767 0.3148092758 0.1599322943 0.0115880583 0.0000209776 0.0313557724
0.4330029334 0.3432835411 -0.0695283051 0.0074626857 0.0074626857 0.0256039522
0.3741540897 0.3283581697 0.0181193337 0.0074626857 -0.0074626857 0.0256039522
-0.1109117106 0.2974340988 -0.1127240686 0.0074626857 0.0019387013 0.0183985575
0.3016231207 0.2910469876 0.1300815516 0.0074626857 0.0000000000 0.0330666378
-0.1292143876 0.3432835411 0.0120540956 0.0074626857 0.0074626857 0.0256039522
-0.0904488773 0.3140669177 0.1309781933 0.0049405516 -0.0005124477 0.0186658411
0.0895522281 0.1216737989 -0.1411594160 0.0000000000 0.0000000000 0.0256039522
-0.1476987137 0.3283581697 0.0025761863 0.0074626857 -0.0074626857 0.0256039522
-0.1567163992 0.3106762539 0.0144711475 0.0149253714 0.0000000000 0.0256039522
0.3072563215 0.3283581697 -0.0590228437 0.0074626857 -0.0074626857 0.0256039522
0.1747647105 0.3432835411 -0.0575905827 0.0074626857 0.0074626857 0.0256039522
-0.4769350848 0.2129784820 -0.1357036331 0.0074626857 0.0018099699 0.0183640799
0.2247940627 0.4834305468 -0.1609631897 0.0074626857 0.0000000000 0.0181412665
-0.4158733757 0.2971796287 -0.0490228971 0.0074626857 0.0000000000 0.0181412665
-0.4661587951 0.4564863186 0.0842692213 0.0123900508 -0.0046350442 0.0264978774
0.3757511119 0.3432835411 -0.0048742979 0.0074626857 0.0074626857 0.0256039522
-0.4402984549 0.4141298909 -0.1196595753 0.0149253714 0.0000000000 0.0256039522
0.1480904599 0.3107986644 -0.0564855903 0.0074626857 0.0000000000 0.0181412665
-0.2283001518 0.3358208554 0.1748493523 0.0074626857 0.0074626857 0.0256039522
0.4850745689 0.0108208793 -0.1730112405 0.0149253714 0.0000000000 0.0256039522
-0.2749686985 0.3283581697 0.0326213543 0.0074626857 -0.0074626857 0.0256039522
0.2888268386 0.3432835411 0.0689746858 0.0074626857 0.0074626857 0.0256039522
-0.2949577409 0.3432835411 0.1122678597 0.0074626857 0.0074626857 0.0256039522
-0.2112173106 0.3789350145 -0.1377441403 0.0063961709 0.0030873653 0.0322564812
-0.1091012780 0.4552238262 0.0538267473 0.0074626857 -0.0074626857 0.0256039522
0.1566475932 0.3785395070 -0.1311124470 0.0065434918 -0.0017773356 0.0184368635
-0.3439311306 0.3246404314 -0.0639754924 0.0074626857 -0.0072130962 0.0236925121
0.4450744543 0.3173891487 -0.0761869760 0.0011052685 0.0000000000 0.0217671914
0.4031271683 0.4713933318 -0.1385751327 0.0061824993 0.0006035223 0.0327936006
-0.4469415213 0.2924774128 0.1367246255 0.0127396030 0.0000000000 0.0308808694
-0.0970149063 0.1831697692 0.1605997943 0.0005119104 0.0000000000 0.0276174295
-0.2670229383 0.3208954841 -0.0544488890 0.0074626857 -0.0072702753 0.0240409747
0.3708786050 0.3208954841 -0.0449447857 0.0074626857 0.0066564395 0.0277787355
-0.1019139654 0.2722053481 0.1424432890 0.0050498128 -0.0005865596 0.0186310500
0.1560631455 0.4226724495 -0.1433371993 0.0054887382 -0.0026258952 0.0189524604
0.1437669978 0.3728225898 -0.1272252460 0.0068352902 -0.0026076415 0.0186785724
-0.3138394924 0.5671641114 -0.1695434947 0.0074626857 0.0074626857 0.0256039522
-0.4349707167 0.3283581697 0.0664588727 0.0074626857 -0.0074626857 0.0256039522
0.1704353602 0.3807438650 -0.1312593575 0.0073551036 -0.0022727609 0.0185067590
0.1935548426 0.3432835411 -0.0823105573 0.0074626857 0.0074626857 0.0256039522
-0.0970149138 0.2512731118 0.1385711700 0.0000000000 0.0000000000 0.0256039522
0.4825412110 0.1644271968 0.1673949800 0.0062057903 0.0000000000 0.0327328543
0.4090493691 0.3432835411 -0.0405728608 0.0074626857 0.0074626857 0.0256039522
0.4737204360 0.4552238262 0.0156656399 0.0074626857 -0.0074626857 0.0256039522
-0.2989318001 0.3715470825 -0.1415128637 0.0075863498 0.0034696638 0.0321242872
-0.1026498161 0.4552238262 0.0097694167 0.0074626857 -0.0074626857 0.0256039522
0.2607403345 0.3432835411 0.1603976898 0.0074626857 0.0074626857 0.0256039522
0.4029850265 0.3011978446 0.0879685417 0.0000000000 0.0000000000 0.0256039522
-0.4290396353 0.4645014221 -0.1385751327 0.0060137679 -0.0007244626 0.0184333112
0.1492537135 0.3115179330 0.1019355848 0.0000000000 0.0000000000 0.0256039522
0.1714647258 0.3500630851 -0.1155039190 0.0074626857 -0.0052769173 0.0203270349
0.4443753947 0.4855589793 -0.1385751327 0.0074626857 0.0000000000 0.0181412665
0.3415192130 0.2779688176 -0.0490229046 0.0074626857 -0.0013539998 0.0324764513
-0.1153430385 0.3757492313 -0.0912796010 0.0074626857 0.0019849624 0.0184103485
-0.3431975113 0.4637639670 -0.1535005041 0.0082802602 0.0002043955 0.0329713543
0.4042626905 0.4910922249 -0.1535005041 0.0079861483 -0.0001046940 0.0182023187
0.3682313739 0.3067849783 -0.0564855828 0.0074626857 0.0000000000 0.0181412665
-0.3631930163 0.2973571511 0.1300815516 0.0074626857 0.0000000000 0.0330666378
0.2120488180 0.3283581697 0.0788951249 0.0074626857 -0.0074626857 0.0256039522
0.4925372546 0.3501820477 0.1435291844 0.0149253714 0.0000000000 0.0256039522
0.1335822005 0.4330000304 -0.1385751178 0.0072502230 -0.0001062313 0.0181919605
-0.2882548313 0.3283581697 0.0266209073 0.0074626857 -0.0074626857 0.0256039522
-0.2024934758 0.2835820557 -0.0453145021 0.0074626857 -0.0064657306 0.0281504369
0.3651040086 0.3283581697 0.1668790696 0.0074626857 -0.0074626857 0.0256039522
-0.2556353277 0.2835820557 -0.0450427857 0.0074626857 -0.0064882903 0.0280186459
0.4223863152 0.3358208554 0.1317654246 0.0076475140 -0.0074422752 0.0254191238
-0.2696677514 0.3283581697 0.0219433257 0.0074626857 -0.0074626857 0.0256039522
-0.4310079635 0.3432835411 0.1076075394 0.0074626857 0.0074626857 0.0256039522
-0.4481185584 0.3283581697 0.0590043288 0.0074626857 -0.0074626857 0.0256039522
0.2531104847 0.4633978700 -0.1501248403 0.0074626857 0.0018105595 0.0328412647
-0.3051281501 0.5663210070 -0.1609632047 0.0074626857 0.0000000000 0.0330666378
-0.0897966684 0.0648657311 -0.1517790938 0.0107028271 -0.0009631342 0.0320155783
0.3083766199 0.4878491059 -0.1535005041 0.0074626857 0.0000000000 0.0330666378
0.4504230283 0.3023013445 0.1226188660 0.0109576853 0.0000000000 0.0192909529
-0.3525056818 0.3042380682 -0.0564855903 0.0074626857 0.0000000000 0.0181412665
0.1119402851 0.4444039768 -0.0750514761 0.0149253714 0.0000000000 0.0256039522
-0.2218060332 0.3432835710 0.1321473350 0.0074626857 0.0074626857 0.0256039522
-0.2298868681 0.3358208554 -0.0235231390 0.0074626857 0.0074626857 0.0256039522
-0.1270849177 0.2910447115 0.1193443514 0.0085696930 -0.0060839246 0.0226483630
0.4626865119 0.0306354068 -0.1642975028 0.0000000000 0.0000000000 0.0256039522
-0.4503070806 0.3283581697 -0.0078576110 0.0074626857 -0.0074626857 0.0256039522
-0.2355009346 0.3127880895 0.1151561803 0.0074626857 0.0000000000 0.0181412665
-0.4910761652 0.0704761856 0.1721639944 0.0074626857 0.0014402386 0.0329087050
-0.1959431109 0.3283581996 0.0560510232 0.0074626857 -0.0074626857 0.0256039522
0.2334172408 0.3432835411 0.1360397748 0.0074626857 0.0074626857 0.0256039522
0.3834899318 0.5527178519 -0.1460378184 0.0066818425 0.0000000000 0.0329290707
-0.3146338580 0.3283581697 0.0933608918 0.0074626857 -0.0074626857 0.0256039522
0.2539461040 0.3017276580 -0.0564855903 0.0074626857 0.0000000000 0.0181412665
0.1519149072 0.2890630028 0.0715577825 0.0074626857 -0.0074549916 0.0259428178
-0.4104477122 0.2925201218 0.0520502998 0.0149253714 0.0000000000 0.0256039522
-0.2758156163 0.3815486261 -0.1460378184 0.0074626857 0.0024764922 0.0326430782
0.3247917672 0.3283581697 0.0679079173 0.0074626857 -0.0074626857 0.0256039522
-0.2896334206 0.4950718663 -0.1609631897 0.0074626857 0.0000000000 0.0330666378
0.4672421457 0.4701491976 0.0064622082 0.0074626857 0.0074626857 0.0256039522
-0.4353442988 0.4136693088 -0.1360665733 0.0031886339 0.0005770969 0.0198646543
-0.4188617634 0.3283581697 -0.0129921999 0.0074626857 -0.0074626857 0.0256039522
-0.4877195761 0.4701491976 0.0527466056 0.0074626857 0.0074626857 0.0256039522
0.4032147056 0.3477144510 -0.0982299062 0.0073767081 0.0057998127 0.0301828770
0.4771003460 0.4701491976 0.0272638027 0.0074626857 0.0074626857 0.0256039522
0.4719881377 0.4701492274 -0.0048870517 0.0074626857 0.0074626857 0.0256039522
-0.2491541867 0.3522961594 -0.1244610523 0.0065866709 0.0067895514 0.0282053548
0.2741744150 0.3283581697 -0.0321862424 0.0074626857 -0.0074626857 0.0256039522
-0.1851691570 0.3432835411 0.0758351178 0.0074626857 0.0074626857 0.0256039522
0.3740098956 0.3069546425 0.1151561803 0.0074626857 0.0000000000 0.0181412665
0.1576515409 0.3283581697 0.0362553688 0.0053393352 -0.0071311633 0.0256039522
0.2634244014 0.3432835411 -0.0227181615 0.0074626857 0.0074626857 0.0256039522
0.2361408524 0.4932001575 -0.1609631897 0.0074626857 0.0000000000 0.0181412665
0.1582632871 0.4774740400 -0.1505426089 0.0047786263 -0.0006048581 0.0186987291
-0.2000932000 0.3358208554 -0.0270072729 0.0074626857 0.0074626857 0.0256039522
0.3016712326 0.2950374498 -0.0415602189 0.0074626857 0.0000000000 0.0330666378
-0.1288340667 0.3461531005 -0.0892058998 0.0074626857 0.0067219619 0.0285907503
-0.4776118833 0.3026698892 0.1399415728 0.0000000000 0.0000000000 0.0256039522
-0.4531480056 0.2837083990 0.1226188660 0.0045065816 -0.0000380970 0.0190368335
0.2458241871 0.4422061711 -0.1460378184 0.0075111036 0.0001961865 0.0330427722
0.2072573036 0.3432835411 0.0767256699 0.0074626857 0.0074626857 0.0256039522
-0.3414953324 0.3358208256 -0.0254478552 0.0074626857 0.0074626857 0.0256039522
0.0781162966 0.0832252587 0.1524696087 0.0074626857 -0.0007294402 0.0181866769
-0.1119402851 0.1725616212 -0.1265525595 0.0000000000 0.0000000000 0.0256039522
0.1361854763 0.3186935515 -0.0564855903 0.0074626857 0.0000000000 0.0181412665
0.3769063057 0.3432835112 0.0189056843 0.0074626857 0.0074626857 0.0256039522
0.4701491976 0.4422950815 0.1447288559 0.0000000000 0.0000000000 0.0256039522
-0.1095620615 0.3730353286 -0.0746544911 0.0038785219 -0.0011437088 0.0319708768
0.1044693159 0.1381572148 -0.1535005041 0.0104064689 0.0010268879 0.0188442291
0.1464598183 0.3432835411 -0.0600631197 0.0074626857 0.0074626857 0.0256039522
0.3676924188 0.2904508459 -0.0415602189 0.0074626857 0.0000000000 0.0330666378
-0.2014332446 0.3358208554 -0.0152217818 0.0068423425 0.0073188946 0.0251903851
0.0895522281 0.0768528714 0.1660443533 0.0148560579 0.0000000000 0.0260310641
0.3869001329 0.4020253475 -0.1455579752 0.0093631631 -0.0022341266 0.0187924231
-0.1083015020 0.3641591580 -0.0960427870 0.0059691933 0.0012393058 0.0185613784
-0.2502189477 0.3283581697 -0.0062224396 0.0074626857 -0.0073256036 0.0264819521
-0.3373233627 0.3432835411 0.1169404039 0.0074626857 0.0074626857 0.0256039522
0.3266059461 0.3432835411 -0.0905767429 0.0074626857 0.0072557305 0.0269095192
-0.4832822333 0.2318311514 -0.1067367484 0.0074391708 -0.0018465147 0.0328328020
0.3791244995 0.3258385059 -0.0515425759 0.0074626857 0.0052769173 0.0203270349
-0.2842453541 0.4423779770 -0.1684258754 0.0074626857 0.0000000000 0.0181412665
-0.1087386288 0.3134327984 -0.0884073029 0.0074626857 0.0074626857 0.0256039522
0.2797070935 0.3432835411 -0.0733158345 0.0074626857 0.0074626857 0.0256039522
0.0983195405 0.4453152080 -0.0726339242 0.0071132603 0.0022055968 0.0185566396
0.4438950589 0.3414165861 -0.0975278167 0.0074626857 -0.0070009992 0.0230552510
-0.4276345758 0.3432835411 0.0952633841 0.0074626857 0.0074626857 0.0256039522
-0.3461230408 0.5166349234 -0.1684258754 0.0069795216 -0.0001610522 0.0181980725
0.2146430863 0.3432892053 -0.1087300393 0.0074626857 -0.0052769173 0.0203270349
0.3835655736 0.3701929782 -0.1207084333 0.0072767155 0.0041744323 0.0317209664
-0.4673130561 0.4552238262 0.0573593737 0.0074626857 -0.0074626857 0.0256039522
0.0944794216 0.2954685692 -0.1132154566 0.0074626857 0.0019497833 0.0184018038
0.2838296154 0.3432835411 0.0403266519 0.0074626857 0.0074626857 0.0256039522
0.1607362793 0.4120648911 -0.1385751327 0.0067647380 -0.0015158356 0.0184973784
0.4552238262 0.3449866603 -0.0954877050 0.0000000000 0.0000000000 0.0256039522
-0.2469274034 0.3358208554 -0.0617089777 0.0074626857 0.0072477976 0.0272191908
0.3258955805 0.3432835710 -0.0657266787 0.0074626857 0.0074626857 0.0256039522
-0.2600747824 0.3208954841 -0.0318806753 0.0074626857 -0.0072500215 0.0269999893
0.2359607927 0.3121140224 -0.0415602189 0.0074626857 0.0000000000 0.0330666378
0.2113128106 0.3623968224 -0.1129123000 0.0081934468 0.0046739099 0.0313063321
-0.2310087858 0.3283581697 0.0980266301 0.0074626857 -0.0074626857 0.0256039522
0.3052010531 0.5371159732 -0.1535005041 0.0074626857 0.0000000000 0.0330666378
0.4123855776 0.4194062111 -0.1455957513 0.0092832302 -0.0026999773 0.0189275649
-0.2598181182 0.2869071598 0.1151561803 0.0074626857 0.0000000000 0.0181412665
0.3051838889 0.3283581697 0.0377858537 0.0074626857 -0.0074626857 0.0256039522
-0.2469620750 0.3432835411 -0.0823932140 0.0074626857 0.0072883200 0.0267635640
0.1119402777 0.3381400790 -0.0914935189 0.0149253714 0.0000000000 0.0256039522
-0.2030815355 0.5069384768 -0.1617576971 0.0099501630 0.0000000000 0.0185685575
0.4003491015 0.4118711075 -0.1430181620 0.0088528646 -0.0023184624 0.0186686172
-0.2146190565 0.3207394766 0.1151561803 0.0074626857 0.0000000000 0.0181412665
0.4048115263 0.3027016579 0.1300815516 0.0074626857 0.0000000000 0.0330666378
-0.1594683019 0.3283581697 -0.0129230656 0.0074626857 -0.0074626857 0.0256039522
-0.0905225937 0.4598820570 0.0067971037 0.0148503639 0.0000000000 0.0245485717
0.3656358743 0.4243928747 -0.1525202728 0.0087859915 -0.0027270295 0.0188058560
-0.3206018125 0.3798230666 -0.1605762420 0.0074626857 -0.0017516341 0.0183730799
-0.3594006884 0.4348657540 -0.1609631897 0.0073687081 -0.0000313284 0.0181531396
-0.4530161996 0.3393879968 -0.1048288308 0.0074626857 -0.0056084023 0.0213176169
0.2062865052 0.3432835411 0.1648254430 0.0074626857 0.0063953052 0.0275983773
0.4778604952 0.0551084263 0.1673949800 0.0073205961 0.0000202985 0.0330210184
0.2738277882 0.3071473738 -0.0415602189 0.0074626857 0.0000000000 0.0330666378
-0.2685643336 0.3283581697 0.1172561875 0.0074626857 0.0074626857 0.0256039522
-0.0997147344 0.3283581697 0.1433870575 0.0074626857 0.0074626857 0.0256039522
0.4925372546 0.3179257680 0.1407324832 0.0148872743 0.0000000000 0.0253691761
-0.1793012995 0.3432835411 0.1301232307 0.0074626857 0.0074626857 0.0256039522
0.2668186547 0.3432835411 0.1115561732 0.0074626857 0.0074626857 0.0256039522
0.4621086986 0.2925317934 -0.0851807436 0.0134254312 -0.0021828430 0.0294911457
0.1240894852 0.2899103534 -0.0592617541 0.0013128506 -0.0004213059 0.0296802054
-0.4118304508 0.3120701866 -0.0564855903 0.0074626857 0.0000000000 0.0181412665
-0.3496167642 0.3432835411 -0.0989099285 0.0074626857 0.0071328723 0.0275939669
0.0895522281 0.2097734078 -0.1308624247 0.0000000000 0.0000000000 0.0256039522
-0.3093610675 0.4146926445 -0.1535005041 0.0074626857 0.0000000000 0.0330666378
-0.3778392832 0.4569435723 -0.1460378184 0.0078414841 0.0000000000 0.0330135856
0.1703355767 0.5400404803 -0.1447316245 0.0099497451 0.0000000000 0.0326195857
0.4132278835 0.4380537611 -0.1335502975 0.0048953949 0.0021946042 0.0322138991
0.0774704684 0.0331110707 0.1748576657 0.0074626857 0.0000000000 0.0330666378
0.1341212228 0.4103339510 -0.1345797899 0.0041853876 -0.0016386491 0.0191047067
-0.2955055767 0.3575448678 -0.1453737588 0.0072979544 -0.0047616860 0.0199273334
0.0910363324 0.1379120805 -0.1488732210 0.0046119248 0.0011280297 0.0189195425
-0.4776118833 0.1082910692 0.1541955562 0.0148084758 -0.0001168955 0.0251363851
0.0895522281 0.0539227473 0.1597651003 0.0149253714 0.0000000000 0.0256039522
-0.3401359071 0.4660480861 -0.1684258754 0.0074626857 0.0000000000 0.0181412665
-0.2952074573 0.3238552897 -0.0490229046 0.0074626857 0.0020137386 0.0325912573
-0.1119402851 0.4558692217 -0.0121564762 0.0000234478 0.0000000000 0.0261208029
0.0966286900 0.0785961249 -0.1397396102 0.0026933803 -0.0007484850 0.0309278694
0.2684759978 0.3087642616 0.1300815516 0.0074626857 0.0000000000 0.0330666378
0.1054762038 0.1919781039 -0.1168709860 0.0087352154 -0.0020341266 0.0326465707
-0.2400516131 0.3283581697 0.1703084722 0.0074626857 -0.0074626857 0.0256039522
0.2467151198 0.4226463973 -0.1535005041 0.0068495663 -0.0010218730 0.0184154680
0.4732248092 0.3331887736 -0.1037853981 0.0078459841 0.0019205819 0.0184106620
0.1235307241 0.2943469872 0.1375442373 0.0085250736 0.0000000000 0.0328916901
-0.3631927253 0.4557930426 -0.1485166464 0.0105448569 0.0006046641 0.0323294887
-0.1231878734 0.3358208554 0.0926614665 0.0074626857 0.0074626857 0.0256039522
-0.3703401050 0.3592095019 -0.1246503508 0.0077698498 0.0050469546 0.0309576829
-0.1266445073 0.3077660379 -0.0790948040 0.0021581341 0.0000000000 0.0203607438
-0.0984816002 0.2795543024 -0.0929402874 0.0074626857 -0.0019606192 0.0328040856
-0.4850745689 0.2605249465 -0.1157451802 0.0000000000 0.0000000000 0.0256039522
-0.1638611819 0.3347875570 -0.1066578231 0.0075479842 -0.0070273872 0.0231308256
-0.1804739635 0.4402055370 -0.1535005041 0.0084427751 -0.0000477089 0.0182765724
-0.1074240096 0.0512276058 -0.1637878163 0.0074626857 0.0021673953 0.0184646694
0.1545655636 0.5529997399 -0.1535005041 0.0065018574 0.0000422761 0.0183704456
0.3156283578 0.3976777286 -0.1438422739 0.0087647527 -0.0022787161 0.0186260649
-0.0895522281 0.2595759392 -0.1109981211 0.0149253714 0.0000000000 0.0256039522
-0.1295342756 0.4337045527 -0.1236497614 0.0074626857 0.0000000000 0.0181412665
0.1641790849 0.2922918606 0.0421457711 0.0149253714 0.0000000000 0.0256039522
-0.4850745689 0.0430045396 -0.1676104949 0.0000000000 0.0000000000 0.0256039522
-0.1044775995 0.3421219965 0.1416876099 0.0000000000 0.0000000000 0.0256039522
0.1802057397 0.4802828009 -0.1428571173 0.0101300361 0.0009122760 0.0324783618
0.1089833750 0.1854571196 -0.1351212973 0.0089977228 0.0013560446 0.0186447217
-0.0970149063 0.2968682183 0.1437816992 0.0149253714 0.0000000000 0.0256039522
-0.3644902102 0.3283581996 -0.0838028930 0.0074532752 -0.0074189319 0.0252830567
-0.1408201474 0.4050483472 -0.1236497614 0.0027622086 0.0017787834 0.0305919889
0.1039734652 0.2840821228 0.1305856859 0.0032665220 -0.0001666865 0.0194778335
0.0774353266 0.1991980583 0.1633143760 0.0028829101 0.0011449476 0.0312970784
-0.4752725627 0.4701491976 0.0480633375 0.0074626857 0.0074626857 0.0256039522
0.4794057562 0.1931083799 0.1673949800 0.0043430293 0.0003712164 0.0321148096
-0.2782581086 0.3283581697 -0.0171125875 0.0074626857 -0.0072200439 0.0273654445
-0.2594432228 0.3283581697 0.0948580932 0.0074626857 -0.0074626857 0.0256039522
-0.2983082927 0.3432835411 -0.0954744140 0.0074626857 0.0072282156 0.0270488102
-0.4152635997 0.2891747714 0.0740167971 0.0074626857 -0.0074549916 0.0259428178
-0.4284486951 0.2835820557 -0.0464029348 0.0074626857 -0.0061611560 0.0285599518
0.3905170056 0.3158233354 -0.0564855903 0.0074626857 0.0000000000 0.0181412665
0.2914800473 0.5179593635 -0.1535005041 0.0074626857 0.0000000000 0.0330666378
0.1492537135 0.2891080700 -0.0123888642 0.0000000000 0.0000000000 0.0256039522
0.0944518320 0.1678481964 0.1462714378 0.0085186706 -0.0012788058 0.0185291769
-0.3994138404 0.3283581697 -0.0184871321 0.0074626857 -0.0074626857 0.0256039522
-0.1157370459 0.2868152941 -0.1115819941 0.0027174250 0.0009347163 0.0199478633
-0.2912433309 0.3870928568 -0.1460378184 0.0074626857 0.0026360370 0.0325771752
-0.0895522281 0.0105330808 -0.1722621361 0.0149253714 0.0000000000 0.0256039522
0.4850745689 0.4577948483 0.0547704785 0.0148457743 -0.0004729179 0.0248986239
0.4635395790 0.4701491976 0.1414892592 0.0074626857 0.0074626857 0.0256039522
-0.1888939924 0.3027296952 0.1300815442 0.0074626857 0.0000000000 0.0330666378
-0.4297065756 0.3432835411 -0.0820880574 0.0074626857 0.0071887305 0.0272921460
0.4029850265 0.3122329329 -0.0468875690 0.0000000000 0.0000000000 0.0256039522
-0.4857780092 0.0652630594 0.1524696087 0.0074626857 -0.0001724552 0.0181520053
0.1569038619 0.3301621248 0.1040261592 0.0040593055 -0.0064756559 0.0270643624
0.2695169305 0.3432835411 -0.0517267401 0.0074626857 0.0074626857 0.0256039522
-0.1996168493 0.3876762746 -0.1385751327 0.0067016485 0.0017043505 0.0328154961
-0.2668965129 0.4853458674 -0.1609631897 0.0074626857 0.0000000000 0.0330666378
-0.3802356561 0.3112998733 -0.0564855977 0.0074626857 0.0000000000 0.0181412665
-0.3204373498 0.3358208554 0.0087220139 0.0074626857 0.0074092230 0.0250640343
0.4626865119 0.4662882130 0.0662034249 0.0000000000 0.0000000000 0.0256039522
-0.1984208868 0.3283581697 0.0422866367 0.0074626857 -0.0074626857 0.0256039522
0.4774133460 0.3471056974 -0.0835151244 0.0108010286 -0.0009401268 0.0316106903
-0.4065755932 0.3864847300 -0.1311124470 0.0100927301 0.0024342684 0.0321373917
0.2145133848 0.3432835411 0.1291619249 0.0074626857 0.0074626857 0.0256039522
-0.2036631175 0.3456738169 -0.1335027378 0.0080466931 -0.0052469994 0.0203925871
-0.4302087248 0.3246832224 0.1300815516 0.0074626857 0.0000000000 0.0330666378
-0.3672788964 0.3224502302 -0.0549308442 0.0074626857 0.0052769173 0.0203270349
-0.1285504548 0.5157157519 -0.1236497614 0.0074626857 0.0000000000 0.0330666378
0.4223487705 0.4966243288 -0.1460378184 0.0103450585 -0.0005764775 0.0188693858
0.2556879993 0.3432835411 0.1348109242 0.0074626857 0.0074626857 0.0256039522
0.3351036913 0.3358208554 -0.0976114958 0.0074626857 -0.0069264768 0.0228430122
0.4745671821 0.2857976226 -0.1156331728 0.0074626857 0.0020323281 0.0184236247
0.4820737708 0.4393426714 0.1300815516 0.0074626857 0.0000000000 0.0181412665
0.2048306024 0.3190657380 -0.0564855903 0.0074626857 0.0000000000 0.0181412665
-0.1768308371 0.3080453662 0.1300815516 0.0074626857 0.0000000000 0.0330666378
-0.2666640428 0.2996719045 -0.0564855903 0.0074626857 0.0000000000 0.0181412665
-0.4999999403 0.2691180350 0.1515265267 0.0000000000 0.0000000000 0.0256039522
0.1975998570 0.3545035024 -0.1085890393 0.0082910139 0.0053232606 0.0307307426
0.4029850265 0.3149144102 0.0762331103 0.0000000000 0.0000000000 0.0256039522
0.4179103680 0.3025195758 -0.0016722535 0.0149253714 0.0000000000 0.0256039522
-0.2352758077 0.3722250451 -0.1550121606 0.0086691706 -0.0028708280 0.0188483933
-0.0873741985 0.3804055516 0.1506518029 0.0101218869 0.0007671342 0.0319388992
-0.3476607048 0.3453327200 -0.1331615960 0.0074626857 -0.0052769173 0.0203270349
-0.0895522281 0.2474474555 0.1633041298 0.0033718429 0.0008177909 0.0288751234
-0.1909763056 0.5069109768 -0.1609631897 0.0088018273 -0.0006551119 0.0184968336
-0.3010369715 0.3432835411 -0.0839213333 0.0074626857 0.0073387529 0.0263676386
0.2080664901 0.4856833226 -0.1609631897 0.0071062753 -0.0005346119 0.0181935650
0.2529469399 0.3707165602 -0.1336349318 0.0074626857 -0.0040866786 0.0193615947
0.0912649816 0.1726297331 -0.1457908184 0.0029882683 0.0009265447 0.0201174080
-0.3223638272 0.3432835411 0.1746048448 0.0074626857 0.0034771712 0.0320526454
0.1751015463 0.3432835411 -0.0781681175 0.0074626857 0.0074626857 0.0256039522
0.4747074209 0.0636442611 -0.1674401740 0.0074626857 0.0020184326 0.0184199082
0.1119402851 0.2147814072 -0.1223008958 0.0149253714 0.0000000000 0.0256039522
0.1119402851 0.3904138638 -0.0806415277 0.0149253714 0.0000000000 0.0256039522
0.2321534499 0.3432835411 0.0941907574 0.0074626857 0.0074626857 0.0256039522
-0.1500731015 0.5063447455 -0.1460378184 0.0128957149 0.0000000000 0.0206178557
0.2082417363 0.4339812915 -0.1385751327 0.0079498349 0.0012265297 0.0328434812
0.3438561977 0.3432835411 0.1154059489 0.0074626857 0.0074626857 0.0256039522
0.1492537135 0.3015679491 0.0391785998 0.0000000000 0.0000000000 0.0256039522
-0.1641790849 0.3235569464 0.0683154172 0.0020958505 0.0038847309 0.0254814671
0.4278768594 0.3432835411 0.0330509513 0.0074626857 0.0074626857 0.0256039522
0.2451350528 0.3283581697 -0.0063874022 0.0074626857 -0.0074626857 0.0256039522
0.4925372546 0.1540699368 0.1670305920 0.0149253714 0.0000000000 0.0256039522
0.3541990398 0.3432835411 0.1244347986 0.0074626857 0.0074626857 0.0256039522
-0.1517886759 0.3113141046 0.1151561803 0.0074626857 0.0000000000 0.0181412665
-0.4862927106 0.1742878896 0.1673949800 0.0076718797 0.0000000000 0.0330326901
0.1590649138 0.3149973057 -0.0564855903 0.0074626857 0.0000000000 0.0181412665
-0.3694248589 0.3727482018 -0.1493611762 0.0055597083 -0.0028544698 0.0190382291
0.3939503410 0.3629206582 -0.1134361357 0.0069534469 0.0043006786 0.0316235932
0.1527355191 0.4333914632 -0.1460378184 0.0058943202 -0.0011596267 0.0184934157
-0.2129522582 0.3432835411 0.1532858996 0.0074626857 0.0074626857 0.0256039522
-0.1630255925 0.5116800882 -0.1523470117 0.0107527226 0.0000000000 0.0189067664
0.4618051464 0.4567245947 0.0071530663 0.0000738657 0.0000000000 0.0266385043
-0.1642619580 0.3283581697 -0.0270550639 0.0074626857 -0.0074626857 0.0256039522
-0.2181040262 0.3283581697 -0.0034647309 0.0075782976 -0.0074324693 0.0259507954
-0.3102634107 0.5503217104 -0.1609631897 0.0074626857 0.0000000000 0.0330666378
-0.4811571590 0.4552238262 0.0224869749 0.0074626857 -0.0074626857 0.0256039522
0.3541425846 0.3351569525 -0.0924712576 0.0083651184 -0.0072703872 0.0243343702
0.3931174904 0.3432835411 0.1471465272 0.0074626857 0.0074626857 0.0256039522
-0.3335050796 0.3269176102 -0.0504634641 0.0074626857 0.0052769173 0.0203270349
0.0970149138 0.2211317945 0.1582142274 0.0149253714 0.0000000000 0.0256039522
0.4354482092 0.4988428882 -0.1434253784 0.0112788419 -0.0003547985 0.0193568260
0.4144964132 0.3238801703 0.1300815516 0.0074626857 0.0000000000 0.0330666378
0.3161697011 0.3283581697 -0.0244519299 0.0074626857 -0.0074626857 0.0256039522
-0.1488948479 0.4036164742 -0.1382162522 0.0102791555 -0.0008841417 0.0188173410
-0.1279306414 0.3432835411 0.0468598004 0.0074626857 0.0074626857 0.0256039522
-0.4393423580 0.3791485219 -0.1311124470 0.0037556637 -0.0007800596 0.0192803858
0.4266975834 0.5421549577 -0.1460378184 0.0101865137 0.0000000000 0.0187790201
-0.0759967820 0.0000000000 0.1623114582 0.0074626857 -0.0074626857 0.0256039522
-0.4259415312 0.4051530263 -0.1380066999 0.0048514920 -0.0010890745 0.0187479604
0.4162854503 0.3283581697 0.1460091318 0.0074626857 -0.0056871113 0.0211975572
-0.4999999403 0.2162498846 0.1424992218 0.0039769846 -0.0005760149 0.0198063111
0.0814969007 0.2213234736 0.1618445926 0.0025471937 0.0012288730 0.0310447948
-0.1698463305 0.2910447414 0.0530460384 0.0013241864 -0.0032692160 0.0257004596
0.3739821121 0.3432835411 -0.0553315158 0.0074626857 0.0074626857 0.0256039522
0.3249029911 0.3283581697 0.0800981695 0.0074626857 -0.0074626857 0.0256039522
-0.3633869939 0.4529296549 -0.1609631897 0.0059513053 -0.0006699551 0.0184595276
0.0820895424 0.4699747499 0.0493515463 0.0000663731 0.0000000000 0.0248611836
0.1492537284 0.3186252530 0.0923228770 0.0000000000 0.0000000000 0.0256039522
0.4291075831 0.5623336791 -0.1348406182 0.0026303280 0.0005883283 0.0312109440
0.4533571324 0.2761193700 -0.0837591467 0.0040334547 -0.0055089695 0.0258678253
-0.4850745689 0.1564685037 -0.1265400744 0.0033018727 -0.0010609252 0.0298476532
-0.4794453308 0.3458248095 0.1524696087 0.0074626857 0.0006790895 0.0330314811
-0.1011513909 0.4701491976 -0.0411916145 0.0074626857 0.0074626857 0.0256039522
-0.4850745689 0.1386268491 -0.1427416770 0.0000000000 0.0000000000 0.0256039522
0.0932272351 0.2396316505 -0.1047866144 0.0074626857 -0.0018940595 0.0328217871
0.2902701892 0.3283581697 -0.0347421973 0.0074626857 -0.0074626857 0.0256039522
-0.4904674116 0.0806651844 0.1524696087 0.0074626857 -0.0006500596 0.0181817366
-0.2592607452 0.3630921805 -0.1509210865 0.0074626857 -0.0046035293 0.0197650424
0.4331427692 0.5484371957 -0.1311124470 0.0074626857 0.0000000000 0.0330666378
0.3980654599 0.4077190633 -0.1311124470 0.0073433349 0.0001790224 0.0330453020
0.1044776069 0.0120547971 -0.1741212329 0.0149253714 0.0000000000 0.0256039522
0.1562133843 0.3283581697 -0.0129465134 0.0072377305 -0.0074095812 0.0256039522
-0.3617660911 0.3804858277 -0.1385195655 0.0081921781 0.0027072609 0.0324636902
0.2743042583 0.3283581996 0.0401720922 0.0074626857 -0.0074626857 0.0256039522
0.1052634949 0.3031791504 -0.1112878076 0.0074626857 0.0019057983 0.0183902068
-0.2839409512 0.3358208554 0.0086135437 0.0074626857 0.0073588424 0.0248625269
0.4402984549 0.5375086597 -0.1317823275 0.0149253714 0.0000000000 0.0256039522
0.1481194674 0.4869212254 -0.1345844466 0.0104740137 0.0003703283 0.0323446081
0.4626865418 0.4595054824 0.0926680039 0.0000000000 0.0000000000 0.0256039522
-0.2737504449 0.3283581697 0.0896103326 0.0074626857 -0.0074626857 0.0256039522
0.1044775995 0.0288516309 -0.1698187111 0.0149253714 0.0000000000 0.0256039522
-0.2102124824 0.3432835112 0.1316817455 0.0074626857 0.0074626857 0.0256039522
0.2502629850 0.3283581697 0.0788660727 0.0074626857 -0.0074626857 0.0256039522
0.3571920991 0.3806532754 -0.1385751327 0.0074626857 -0.0024861116 0.0185681023
0.0850477660 0.3948373484 0.1300815516 0.0074626857 0.0000000000 0.0181412665
-0.0943284440 0.3787424548 0.1300815516 0.0074626857 0.0000000000 0.0181412665
0.3800302009 0.3432835411 -0.0725606481 0.0074626857 0.0074626857 0.0256039522
-0.4477155361 0.4653968250 -0.1236497614 0.0074626857 0.0000000000 0.0181412665
0.1631389805 0.3326095648 -0.0644709027 0.0058921859 -0.0071225962 0.0240334524
0.4181875023 0.3989464300 -0.1236497614 0.0064869544 0.0012813954 0.0326578618
-0.4235920763 0.3283581697 0.0719746033 0.0074626857 -0.0074626857 0.0256039522
0.3072736573 0.3283581697 0.1079412185 0.0074626857 -0.0074626857 0.0256039522
0.2374893299 0.4747558164 -0.1609631897 0.0074626857 0.0000000000 0.0181412665
-0.2350520540 0.4566146246 -0.1684258754 0.0077276259 -0.0000883134 0.0181747441
-0.1479335420 0.4200983827 -0.1385751327 0.0112284166 0.0000000000 0.0191813708
-0.4009494596 0.3655230235 -0.1236497614 0.0097375585 0.0044370069 0.0311179515
0.2820963768 0.4134453238 -0.1512679819 0.0074626857 -0.0024255445 0.0185698635
-0.0790528338 0.1740736658 0.1637502939 0.0118394911 0.0010701417 0.0314925261
0.2619440135 0.3283581697 -0.0331436677 0.0074626857 -0.0074626857 0.0256039522
0.4439486634 0.4106100331 -0.1347208123 0.0112066106 -0.0007874104 0.0192728261
-0.4184034053 0.5635651417 -0.1311124321 0.0118243493 0.0013760819 0.0306920710
0.4729667196 0.1596087197 -0.1251732239 0.0074626857 -0.0021130296 0.0327608841
-0.1343283422 0.3095625302 -0.0675904770 0.0001869030 0.0000000000 0.0244521836
0.4044777651 0.5734649688 -0.1535005041 0.0096391332 0.0000000000 0.0185528411
0.1371770956 0.2932178680 -0.0564855903 0.0074626857 0.0000000000 0.0181412665
0.3877046328 0.3968948034 -0.1311124470 0.0074626857 0.0020408654 0.0327143245
0.4160258533 0.4718980108 -0.1479223331 0.0101842451 -0.0007508656 0.0187298784
0.3761213058 0.4080177498 -0.1460378184 0.0074626857 -0.0012103655 0.0182933710
0.1745447254 0.4949940304 -0.1433331023 0.0101896630 0.0008488133 0.0324715558
0.2243380777 0.3432835112 0.0186137814 0.0074626857 0.0074626857 0.0256039522
-0.1273936340 0.3432835411 -0.0320454066 0.0074626857 0.0074626857 0.0256039522
-0.4776118833 0.3146693878 0.1586269960 0.0149253714 0.0000000000 0.0256039522
0.4626865119 0.0592637317 -0.1599915555 0.0000000000 0.0000000000 0.0256039522
