0.4425211628 1.3728269331 -0.1316766917 0.0000000179 -0.0066319819 0.0165799458
-0.1585415479 0.8571428265 0.2946515609 0.0000000179 -0.0178571422 0.0000000000
-0.3784841472 1.0331778917 -0.1885123683 -0.0171411601 0.0033821249 -0.0033821249
-0.3303634525 0.6193508886 -0.3571428801 -0.0017438928 0.0024086071 -0.0174896601
0.3973400930 0.2071411176 0.3967080394 -0.0092195711 -0.0030391963 -0.0143988388
-0.0283328740 0.8571428265 0.2245722598 0.0000000179 -0.0178571422 0.0000000000
-0.3020390428 0.8734676117 -0.0135061781 -0.0135716781 -0.0100855532 -0.0041820534
0.1897427432 0.9277699669 -0.2313413846 -0.0064497319 0.0113274817 0.0109690532
0.4464285733 0.0313370346 0.4325484131 0.0178571601 0.0000000000 0.0000000000
-0.1099893889 0.8571428265 0.0022861963 0.0000000179 -0.0178571422 0.0000000000
-0.3727220224 0.1295559239 -0.4054941284 -0.0153929637 0.0000000000 0.0079302676
0.2739523295 0.8928571110 0.2620783121 -0.0028673928 0.0173506065 0.0019116071
-0.3007650071 0.8132813102 -0.2719307403 0.0012027678 -0.0060948748 0.0164628566
-0.0031974999 1.4885468576 -0.4821428756 0.0000000179 0.0000000000 -0.0178571422
-0.2049554213 0.8264500419 0.4592641979 -0.0029023035 0.0081935890 0.0147910888
0.3024846856 1.0713899796 -0.2678571333 -0.0134461959 0.0044820713 0.0100509104
-0.2279824561 0.8750000402 -0.2152834387 -0.0017739821 -0.0093378925 -0.0140193566
-0.1000365321 0.8749999688 0.2464350269 0.0000000179 0.0178571422 0.0000000000
0.3155259173 0.7557790266 -0.3392857022 0.0000000179 0.0007895714 -0.0177789637
-0.3339455595 0.1116643710 -0.3928571288 0.0033986249 -0.0024851071 0.0171075530
-0.2552890087 1.2697118654 -0.3571428444 0.0050514105 -0.0164327316 -0.0046466605
0.3392857200 0.6177770494 -0.3433530949 0.0171293565 0.0010694464 -0.0021389106
-0.3571428265 1.0965644608 -0.2692263118 -0.0172164815 -0.0015838571 -0.0031162320
-0.1998013143 0.8090471318 0.4642856977 0.0000000179 0.0000000000 0.0178571422
0.2851374541 0.8966908787 -0.3035714177 -0.0112226425 0.0000000000 -0.0135139995
0.0314574453 0.8214284707 0.4645756084 0.0000339464 0.0159161959 0.0080598926
-0.0746132473 0.8571428265 0.3610191835 0.0005626786 0.0165713923 0.0057848569
-0.3032185427 0.8392856843 0.2780861329 -0.0028260535 -0.0164573566 -0.0031141785
-0.3035713999 0.4210954671 -0.3695349511 0.0177538387 0.0000000000 -0.0008392678
-0.0001473214 1.3928572360 -0.4583699479 0.0000000179 -0.0178571422 0.0000000000
-0.3035713999 0.4172713958 -0.3393293986 0.0110768925 -0.0035389820 0.0123864460
-0.4253501634 0.8717275760 0.3247520777 -0.0098768568 -0.0134561424 -0.0062875891
0.3214285778 0.2072640819 -0.4137145924 -0.0172461422 0.0000000000 -0.0044725713
0.3035714356 0.3883282361 -0.3689901297 -0.0178571244 0.0000000000 0.0000000000
-0.4440861091 1.4596008050 -0.1167470673 0.0158511423 0.0033439463 0.0045779106
0.3643891120 1.2777026865 -0.2777027937 0.0086387497 0.0131470531 0.0017150357
-0.3391531307 0.7322753846 0.4072971283 0.0156606602 -0.0078303211 0.0031510713
-0.3928571110 0.1715058689 0.4287970204 0.0178571601 0.0000000000 0.0000000000
0.3885043076 0.6414433699 0.4285714133 0.0000000179 0.0000000000 0.0178571422
-0.0717665867 0.8039094177 0.3809085400 -0.0013289107 -0.0136046959 -0.0110259817
0.3608096121 0.6474859769 0.3749999866 -0.0030329463 -0.0012257142 -0.0160559101
-0.4527484660 0.9511354660 0.2615372407 0.0091633211 -0.0067170890 -0.0131520174
0.1026158535 0.7857142577 0.4018732356 0.0030332856 -0.0145555531 -0.0081802319
0.2014464392 0.8606655585 -0.0186331779 -0.0054253034 -0.0151017316 0.0064856248
-0.4122904674 1.2547285445 -0.2140556709 -0.0128323745 0.0018810356 -0.0119914281
-0.1237664956 0.8571428265 -0.1993633143 0.0000000179 -0.0178571422 0.0000000000
0.2994537393 0.8698240404 -0.0041176784 0.0159629816 -0.0058954819 -0.0044422320
0.0545223552 1.4368678058 -0.4638102513 0.0030260356 0.0085562676 -0.0146083209
-0.3444485770 0.5080693211 -0.3721495581 -0.0134719817 0.0035085177 -0.0111370710
0.3096569354 0.8475036304 -0.3214285599 0.0026559463 0.0024517321 -0.0169011423
-0.4223494492 0.2329689917 0.3928571288 -0.0082464283 0.0016292499 -0.0143558745
0.2757436509 0.8928571110 0.0471342662 -0.0089501425 0.0147976780 -0.0004947857
-0.3806630221 0.8791097543 0.2199487600 -0.0153887673 -0.0043387856 -0.0076943926
0.2380486701 1.4082374140 -0.3916187182 0.0000000179 -0.0095846068 -0.0150540352
-0.3473684876 0.8571428265 0.1948176716 -0.0029808570 -0.0171458744 -0.0014904464
-0.0159466423 1.4021962892 -0.4464285555 0.0017042857 -0.0086608033 0.0149024102
0.0347817845 0.8571428265 -0.1313504953 0.0000000179 -0.0178571422 0.0000000000
0.3723970224 0.9259684134 0.2775851151 -0.0092168390 0.0149768923 0.0020974464
-0.4107412889 0.4155866994 0.3928841645 -0.0131902317 0.0003841964 -0.0116609282
0.3204869528 0.5828122828 -0.3066708640 -0.0114994996 -0.0024831428 0.0131682495
0.4073780569 1.2120133317 -0.2354790809 0.0125563567 0.0016995535 -0.0125563388
0.3750000045 0.0740027831 -0.4258054134 0.0178571601 0.0000000000 0.0000000000
0.2756160437 0.8928571110 -0.0489717125 0.0000000179 0.0178571422 0.0000000000
0.4020950571 0.1609252085 0.4464285555 0.0000000179 0.0000000000 0.0178571422
-0.3191784172 0.7917041503 0.4285714133 0.0017260178 -0.0087862140 0.0142519459
0.3672292905 1.1587872800 -0.2241777241 -0.0012605535 -0.0054934998 0.0167001244
0.3240994527 0.8928571110 0.3900470932 -0.0000543393 0.0133857495 0.0111818210
-0.2254253134 0.8571428265 -0.0216149457 0.0000000179 -0.0178571422 0.0000000000
-0.2381545986 0.8571428265 -0.1837506184 0.0000000179 -0.0178571422 0.0000000000
-0.1691207440 0.9420880914 -0.2729672938 -0.0062061069 -0.0126446067 -0.0099824996
0.3571428622 0.2127924567 -0.4255360384 0.0176090172 0.0003528571 -0.0012434285
-0.0160563030 1.3571428087 -0.4127759853 0.0000000179 0.0178571422 0.0000000000
0.2977063644 0.9103843425 0.0350543916 0.0001844643 0.0155131244 -0.0069357140
-0.4112745746 0.3847215398 0.4237106456 -0.0080709997 0.0030822320 0.0148864816
0.0431931770 0.8749999688 -0.1431078699 0.0000000179 0.0178571422 0.0000000000
0.4367569130 0.1622004763 0.4264418955 0.0130463388 0.0034731784 0.0067292140
0.3928571467 0.1995392607 0.4318633239 -0.0176484458 0.0000000000 0.0016951428
-0.3433401663 0.8928571110 0.3823328256 0.0012175714 0.0166014458 0.0051724462
0.0046050713 0.8414918092 -0.2678571333 0.0000000179 0.0000000000 -0.0178571422
-0.0759860687 0.8749999688 0.0689008904 0.0000000179 0.0178571422 0.0000000000
-0.2081091890 0.8571428265 -0.1135672281 0.0000000179 -0.0178571422 0.0000000000
-0.0925520503 0.8749999688 -0.0566456765 0.0000000179 0.0178571422 0.0000000000
-0.0385909451 0.9174753958 -0.2389039915 0.0035720356 0.0133393388 0.0108426246
0.3310546310 0.8420069342 -0.3214285599 0.0072131783 0.0013222321 -0.0153674995
0.1496266732 1.4642856620 -0.4370314665 -0.0027585356 -0.0172523922 -0.0017531071
-0.2844562220 1.0178571065 -0.3011210607 0.0105949818 0.0101081961 -0.0101081961
0.1243175670 0.8749999688 0.0704598011 0.0000000179 0.0178571422 0.0000000000
-0.3680061654 0.8142101138 0.3286469883 -0.0036759106 -0.0121675353 -0.0121675353
0.3035714356 0.6884526897 -0.3019312392 -0.0121532853 -0.0013393392 0.0114732139
-0.2065907783 0.8928571110 0.1417946557 0.0000000179 0.0178571422 0.0000000000
0.0123185888 0.8694613618 -0.0177242672 -0.0049911248 0.0150342673 -0.0074680712
-0.1321993524 0.8214285421 0.3720582367 0.0000000179 -0.0169955173 -0.0020801428
-0.2765134187 0.8961794323 0.1481910483 0.0080008747 0.0156017316 0.0028077320
0.4478734304 1.4385389129 -0.1071428533 0.0000000179 0.0000000000 0.0178571422
0.3785175222 1.5099391425 -0.2429649556 -0.0151973387 0.0040576427 0.0075986783
-0.0325983738 1.4943975181 -0.4464285555 0.0034583749 -0.0095395532 0.0141104102
-0.2511216160 0.9149056459 -0.1827627970 0.0000000179 0.0156140887 0.0086545533
-0.2859343469 0.8363887558 -0.2678571333 0.0012415535 -0.0008276785 0.0174433029
0.3392856843 1.0459432841 -0.2754124723 0.0168806423 -0.0030841606 0.0030841606
-0.1314324774 0.9402182700 -0.2795040436 -0.0037738570 -0.0071742319 -0.0152526780
-0.3035840427 0.8571428265 0.0380444986 -0.0000104107 -0.0178514458 -0.0000017321
-0.3448142734 0.1303023882 -0.4437773413 0.0000000179 0.0034517677 -0.0175089101
0.2842381506 0.8463211483 0.4393930915 0.0000000179 0.0126269103 0.0126269103
0.2191768315 1.3214285242 -0.3880823969 0.0063149283 0.0130227495 -0.0083675354
-0.3142851138 0.2895868825 -0.4035708427 0.0099209818 0.0027061070 -0.0141946602
-0.3986711822 0.6615209942 0.3808140578 -0.0134435352 0.0012458750 -0.0115864282
0.5000000000 1.0132360710 0.2224287242 0.0166921601 -0.0017953035 -0.0012036428
-0.2482028483 0.8571428265 -0.1214859778 0.0000000179 -0.0178571422 0.0000000000
0.4530723410 0.8995008786 0.3334804524 0.0138143745 -0.0103383211 0.0033562499
-0.2371579915 0.8928571110 -0.0533260338 0.0000000179 0.0178571422 0.0000000000
-0.2333477238 0.8928571824 0.0534469267 0.0000000179 0.0178571422 0.0000000000
-0.1592935300 0.8664579691 -0.2499999911 -0.0051823570 -0.0089039461 -0.0136226602
0.0342136416 0.9285713954 -0.2624931335 -0.0036641427 0.0130466960 0.0110507317
0.3142549709 0.2225425278 -0.3928571288 -0.0118128924 -0.0032481427 0.0123859817
0.2857142934 0.8522367910 0.2752961330 -0.0091214282 -0.0117957139 -0.0008443214
0.0434812127 0.8571428265 0.3884960754 0.0000000179 0.0178571422 0.0000000000
-0.4107142532 0.3092346675 0.4397329129 -0.0150370530 0.0030311427 0.0080645354
-0.3191251136 0.8928571110 0.0350452487 -0.0010453392 0.0172681244 -0.0006968928
-0.2843742220 1.3062514712 -0.3490176840 0.0119481603 -0.0074314283 -0.0075954640
0.3147030245 1.0151507137 -0.3035714177 0.0000000179 0.0000000000 -0.0178571422
-0.3214285421 0.1873334040 -0.4222861635 0.0170269280 0.0000000000 -0.0048610177
0.0709768903 0.8381484879 0.4475657519 0.0000000179 0.0159941780 0.0078879283
0.1370848165 0.7857142577 0.4719132867 0.0008927678 -0.0152759280 0.0072672140
0.2678571511 0.8620480585 -0.1785263865 0.0134094459 -0.0063331069 -0.0014789821
-0.3405099343 1.2429780449 -0.2686172583 0.0095450532 -0.0143175709 0.0047725177
0.3571428622 0.8776843615 0.1711377975 0.0163752494 -0.0023507142 -0.0046615355
-0.3860204862 0.9107142532 0.3441501841 0.0044694106 0.0165268566 0.0044693927
0.2371492594 0.9723771974 -0.2580915979 -0.0034524106 0.0110433389 0.0130871960
-0.3198515779 0.8571428265 0.1247888170 0.0000000179 -0.0178571422 0.0000000000
-0.2784152043 1.4332238060 -0.3875780576 -0.0085548568 -0.0004654107 -0.0153539816
0.2007747785 0.7857142577 0.4318397524 0.0000000179 -0.0178571422 0.0000000000
0.4642857156 0.9976998394 0.2772317401 -0.0132766424 0.0056028034 0.0049025177
-0.0896181218 0.8571427551 -0.1257848348 0.0000000179 -0.0178571422 0.0000000000
-0.2281802419 1.4407988414 -0.4285714133 -0.0041193034 0.0000000000 -0.0173048387
-0.3059723819 0.8292213632 -0.3264607562 0.0052357855 0.0064562498 -0.0153534637
0.0297999454 0.8909785039 -0.1945498859 0.0000000179 0.0159719101 0.0079859640
-0.3164529173 0.3102064353 -0.4025501999 0.0061079998 0.0030508213 -0.0159904637
0.4420802342 1.1877498147 -0.1158395494 0.0131815174 -0.0070934640 -0.0074783569
0.0589094265 1.4107142353 -0.4293943597 -0.0008047143 -0.0150146602 0.0075387854
-0.4129653960 0.9493830197 0.1012339428 -0.0034549999 0.0155066780 0.0030684463
-0.4821428221 1.0803797114 0.1624603513 -0.0108425889 -0.0061482676 -0.0092224104
0.3034235070 1.3032087213 -0.3569615408 -0.0000757321 -0.0043890534 -0.0172803744
-0.4334545559 1.1754119937 -0.0619506228 0.0025274642 -0.0163079994 -0.0028824820
0.0092848568 1.3214285242 -0.4191457707 0.0000000179 -0.0178571422 0.0000000000
-0.4294485739 1.4235388420 -0.1275162633 0.0024765178 -0.0066597676 0.0150981602
0.1803788507 0.8919125574 0.2527519195 -0.0054545534 0.0161536244 0.0051693034
0.4285714311 1.1865870112 -0.0830102470 -0.0162543923 -0.0040210177 0.0024466785
-0.1336769774 0.9006657893 -0.2678571333 0.0000000179 0.0000000000 -0.0178571422
0.3571428980 0.0415259092 -0.4551164302 0.0105621246 0.0053334462 -0.0126692317
0.1076591212 0.8571428265 -0.0857895327 0.0000000179 -0.0178571422 0.0000000000
-0.4466335733 1.4826682863 -0.1071428533 0.0000000179 0.0000000000 0.0178571422
-0.0781835151 0.7857142577 0.4031223427 0.0008885893 -0.0155966244 -0.0053314105
-0.1362912987 1.5062658569 -0.4464285555 0.0000071429 0.0110617139 0.0125229817
0.2886876861 0.8345753452 -0.3214285599 -0.0018304464 0.0018304642 -0.0175561958
-0.3571428265 0.2068019033 -0.3841956470 -0.0168124815 0.0000000000 0.0020299464
0.4200065921 0.3887591290 0.4021494499 0.0134350352 0.0012179821 -0.0115857674
-0.3445736663 0.0000000000 -0.4526374838 0.0000000179 -0.0178571422 0.0000000000
-0.1407444414 0.9639456977 -0.2675171333 0.0005571607 0.0116273032 0.0131211960
-0.4648455548 0.9888199647 0.2823757221 0.0011789285 0.0088536247 0.0149535530
0.3035714356 0.4658413405 -0.3687441833 -0.0176306779 0.0000000000 -0.0016349999
0.3392857200 0.8781002901 0.0898773539 0.0168959280 -0.0001291071 -0.0057180355
0.3967323073 1.2639819191 -0.2264069741 0.0112389460 0.0134936781 0.0000000000
0.3343513809 0.1118579603 -0.4464285555 -0.0078715711 0.0029538213 -0.0154158923
0.4133353245 1.2418265628 -0.2090436354 0.0157631959 0.0021131606 -0.0078815890
-0.0825850506 1.3158503459 -0.4143419138 0.0027357856 -0.0143199281 -0.0066536248
-0.4637520906 1.5178570886 -0.1705418332 -0.0061134284 -0.0151895887 -0.0002178214
-0.2823324006 0.8571428265 0.1185504422 0.0000000179 -0.0178571422 0.0000000000
0.2934350788 0.9059986105 0.1552936195 -0.0098663746 0.0139330352 0.0038787320
-0.3984126108 0.8345382202 0.3317315060 -0.0116383746 -0.0093703747 -0.0093703747
0.3401572021 0.0255177491 -0.4107142710 0.0000000179 -0.0034259284 0.0170483922
-0.3214285421 0.8688199511 0.0658232119 -0.0166070708 -0.0043893034 -0.0018426428
0.3214285778 0.8795951829 0.0276054454 0.0162319637 -0.0021959285 -0.0033104106
0.3373912737 0.6726844403 -0.3441236306 0.0102666246 0.0051333034 -0.0130709460
0.2365772416 1.3180642386 -0.3817113971 0.0090443211 0.0042926248 -0.0135664459
0.3220211135 1.2762649544 -0.2851217041 -0.0120090174 0.0039028213 0.0120090353
0.3015718464 0.7246397955 -0.3392857022 -0.0088664818 0.0001556607 -0.0151067316
0.3126813460 0.1869559755 -0.4020144856 -0.0142631602 -0.0044496070 0.0090065711
-0.3521506481 0.7627460978 0.3571428444 0.0020704821 -0.0004918036 -0.0175044994
-0.3571428265 0.2809606150 -0.3860208434 -0.0177693922 0.0002861428 0.0005722678
0.4059375034 0.9467640912 0.0969182108 -0.0074049462 0.0154709816 0.0033600713
-0.3571428265 0.2240989206 -0.4228305920 -0.0177987137 0.0000969821 -0.0002909286
-0.3571428265 0.4271308240 -0.3880208790 -0.0108371782 0.0022082856 -0.0110414282
-0.4388000558 0.9198245743 0.3647712905 -0.0088940711 0.0057669284 0.0102139818
-0.1322275846 0.7857142577 0.4073120747 0.0005922678 -0.0168239280 -0.0023689821
0.3163564530 0.9056421284 0.2788170793 -0.0074745176 0.0157221780 0.0020706785
-0.4679595726 1.1409259771 0.1626453870 0.0000000179 0.0126269103 0.0126269103
0.3125765067 0.7857141862 0.3893490040 -0.0057606427 -0.0158987673 -0.0015310535
0.3145402209 0.7965035073 -0.2803196507 0.0000000179 -0.0054351605 0.0169155173
-0.2376551701 0.8928570395 -0.0117163210 0.0000000179 0.0178571422 0.0000000000
-0.2080110997 0.8392856843 0.3323467738 0.0000000179 -0.0166917494 -0.0038490356
-0.4512770196 1.3734134509 -0.1363296558 -0.0140006781 -0.0055023212 0.0091466961
0.2048823855 0.9107142532 -0.1730738331 -0.0030287499 0.0173156780 0.0014962499
-0.1605066728 0.8571428265 -0.0332084810 0.0000000179 -0.0178571422 0.0000000000
0.4107142889 0.9428112520 -0.0297431954 0.0129284638 -0.0087938033 -0.0038796249
-0.4986369643 1.1500576196 0.1044169248 -0.0135730352 -0.0068160176 -0.0069995355
-0.3749999688 0.1157121209 -0.4163596101 -0.0178571244 0.0000000000 0.0000000000
-0.3800234507 0.9285713954 0.2685498476 0.0057808927 0.0164681244 0.0001170893
0.3386258450 0.9107142532 0.1225133349 0.0146343388 0.0085859640 -0.0039630356
0.1097263889 0.8464217555 0.4214353421 -0.0002035893 0.0161044637 0.0076450176
-0.3749999688 0.3827624149 0.3986702179 0.0165058030 -0.0006998035 -0.0041440534
-0.2635593834 0.8571428265 0.4168998065 0.0036107142 0.0153704280 0.0073850712
0.2831210256 0.8928571110 0.2821320435 -0.0008576607 0.0177056244 0.0005717857
-0.3987755393 0.9285713954 0.0027990535 0.0000000179 -0.0175487672 -0.0025049285
0.4026655928 1.4954232680 -0.2759058116 0.0136402317 -0.0025739821 -0.0100156604
0.3258757741 1.1078690319 -0.2857142755 0.0002296786 0.0000000000 -0.0178198744
-0.3401370414 0.4411871628 -0.3401370593 -0.0106446068 -0.0011604464 0.0141259638
-0.1997684393 0.8571428265 0.2511697589 0.0000000179 -0.0178571422 0.0000000000
-0.3749999688 0.1602587086 -0.3946813788 -0.0130478567 0.0000000000 0.0119695531
-0.3117193817 0.9107142532 0.1426719413 0.0000363393 0.0178535529 0.0000000000
-0.3753581830 0.4454489305 0.3751315937 0.0124753746 -0.0021723035 -0.0125710888
0.3750000045 0.3666307726 0.4076174497 -0.0172381065 -0.0020187856 -0.0040375891
-0.4117732710 0.2655734369 0.3928571288 -0.0047954998 0.0001482857 -0.0170404994
0.0409538914 0.8392857557 -0.2299855811 0.0000000179 -0.0177927315 0.0005232143
-0.3302643632 0.3624500406 -0.3991320750 0.0000000179 0.0036326784 -0.0174828029
-0.3579073622 1.0927080681 -0.2484709018 -0.0171158744 0.0005516250 -0.0047247677
0.4464285733 1.2028924035 -0.0041031963 -0.0134073567 0.0079737854 0.0024862142
0.3928571467 0.8703208975 0.2787306329 0.0146674638 -0.0045071070 -0.0030047499
0.3808028078 1.4787439115 -0.2828129006 0.0125088746 -0.0080914819 -0.0096184818
0.3392857200 0.7556737944 0.3592278443 -0.0082895176 -0.0021097142 -0.0141256424
-0.3571428265 1.1591998157 -0.2818659899 -0.0173772494 0.0034807677 -0.0018068571
-0.4107142532 0.5947989609 0.4085302890 -0.0178571244 0.0000000000 0.0000000000
0.0577867479 0.7678571154 0.4260492526 -0.0002951786 -0.0171061601 -0.0017711785
0.3121492210 0.8065055783 -0.3378186129 -0.0005989286 0.0045741070 -0.0170985530
-0.1148486388 0.8608693085 0.3611221478 0.0035851427 0.0157173387 0.0075534640
0.0745431045 0.8749999688 0.1488645483 0.0000000179 0.0178571422 0.0000000000
-0.3757869152 0.8331517202 0.3275625240 -0.0076440533 -0.0113529103 -0.0097769818
0.3571428622 0.1963262251 -0.3805628971 0.0092704997 -0.0000593036 0.0116665710
-0.4107142532 0.5831032292 0.3909134325 -0.0172529101 0.0007027321 -0.0025716963
0.4118567889 0.9464285376 0.2284638847 0.0056223391 0.0126607674 0.0096761782
-0.2530824195 0.8571428265 0.1743579938 0.0075427319 -0.0155556423 -0.0025373928
0.3499326125 0.8571428265 0.1853451541 0.0000000179 -0.0178571422 0.0000000000
0.3494095232 0.6146776030 0.3928570931 -0.0031621249 -0.0015810714 -0.0172197672
0.3304894703 0.5850787648 -0.3592463086 0.0018360892 0.0035485713 -0.0163657673
-0.2369835451 0.8612337550 0.4107142710 0.0002526607 0.0148766780 0.0093313925
-0.3839199149 0.3709610403 0.4374913951 0.0130478388 -0.0013614107 0.0117862674
-0.3329150774 0.8686293618 0.1071696212 -0.0128643567 -0.0102521068 -0.0064283569
-0.2936622395 1.3381704165 -0.3571428444 -0.0056524462 -0.0015475535 -0.0167630351
0.2391417415 0.8613234692 0.0675691762 -0.0132091960 -0.0113599996 0.0029674999
-0.3449988091 1.0631980513 -0.2857142755 -0.0105418211 -0.0047518927 -0.0122920174
-0.1174731922 0.8749999688 0.2155547066 0.0000000179 0.0178571422 0.0000000000
0.4082637890 1.4821428042 -0.2659714726 0.0011316785 -0.0168097673 0.0045867498
-0.0267551776 0.8420298806 0.4285714133 -0.0004234286 0.0136358924 0.0114206424
0.3027862213 0.8843015577 -0.2492147411 0.0123668388 -0.0031724106 0.0120462496
-0.3571428265 0.1550907266 -0.4304730382 -0.0162628744 0.0005734107 -0.0070513926
-0.3003451500 0.8392856843 0.3132048638 0.0039328391 -0.0160893744 -0.0039328213
-0.4237295920 0.9490871090 0.0634530334 -0.0033735356 0.0160002494 0.0037665713
0.0161985351 0.8392856129 -0.2318055631 0.0000000179 -0.0178571422 0.0000000000
-0.0543356231 1.4895858218 -0.4464285555 0.0011741964 -0.0073152319 0.0147581245
0.3270365955 0.8571428265 0.1759725651 0.0080843211 -0.0131097138 -0.0072624640
-0.3851678791 0.9285713954 0.2217814564 0.0017667857 0.0174284458 -0.0017667678
0.3392856843 0.6527032624 -0.3230138099 0.0173808387 0.0011815892 -0.0023631785
0.3634520227 0.8583013979 0.2027377606 0.0148291423 -0.0035334106 -0.0081796604
0.3714355046 1.4658432869 -0.2928432217 0.0142918209 -0.0048074820 -0.0094160711
0.3785606115 1.0285930347 -0.1922044753 0.0171586780 0.0037491963 -0.0028330356
-0.2096919747 0.9107143246 -0.1903124039 0.0011141607 0.0164804637 0.0052507320
0.3903952003 0.6504594053 0.3725380403 0.0119460889 -0.0007703750 -0.0130205531
0.1799932614 1.4981412322 -0.4267126276 -0.0035700356 0.0123334281 0.0123334281
-0.3706118439 0.8621727728 0.2098975996 -0.0134900888 -0.0080135354 -0.0083005711
0.0395366057 0.8571428980 0.1414064235 0.0000000179 -0.0178571422 0.0000000000
0.1675156012 0.8571428265 0.3095416318 -0.0011708392 -0.0165703566 -0.0035125534
-0.3648389155 1.4729155903 -0.2601610443 0.0138745352 -0.0041313570 0.0094487854
0.3571428622 0.5036282677 0.4174507529 -0.0178571244 0.0000000000 0.0000000000
-0.2915059539 0.9285713954 -0.2314739739 -0.0126588210 0.0031955535 0.0112541603
0.1079877104 0.8749999688 0.2193651350 0.0000000179 0.0178571422 0.0000000000
-0.0068468212 0.8749999688 0.2289898668 0.0000000179 0.0178571422 0.0000000000
-0.1193053529 0.9107142532 -0.2212983135 0.0014341607 0.0164224280 0.0039850891
0.4464285733 1.2037660999 -0.1350188880 0.0142900352 -0.0071715533 -0.0039797677
-0.0977607108 1.3970945394 -0.4362625201 -0.0032778570 -0.0144785709 0.0070171069
-0.3392856843 0.7365650273 -0.3044429356 -0.0178571244 0.0000000000 0.0000000000
-0.1657776905 0.8655449691 0.3716612724 0.0040624463 0.0155968209 0.0075423390
-0.4453581448 0.0754888902 0.4454688234 -0.0115483567 0.0023845892 0.0133701781
0.2751274723 0.8928571110 0.3444817556 -0.0032588213 0.0159879280 0.0066024640
-0.3672245940 1.4670706619 -0.3012650964 -0.0143323031 -0.0046972855 -0.0092759818
0.2431165270 0.9107142532 -0.1733727974 0.0000000179 0.0163695351 0.0059436069
0.3926408253 0.9352222523 -0.0182897672 -0.0163600173 -0.0052003927 0.0015134107
0.0353681416 1.3265064348 -0.4285714133 0.0000000179 0.0000000000 -0.0178571422
0.3750000045 0.3353943987 0.4200699136 -0.0178571244 0.0000000000 0.0000000000
0.4799087686 1.1487175661 0.0597077122 0.0000000179 -0.0164156423 -0.0067864640
0.2892765790 0.9285713954 -0.3085394533 -0.0085893211 0.0096085354 -0.0112016246
-0.3306177739 0.5617395335 -0.3214285599 -0.0062983391 -0.0023540535 0.0164166601
0.1617377978 0.9559711980 -0.2595426693 -0.0001781429 0.0126158567 0.0126158567
-0.3214285421 0.0509688553 -0.4395323057 0.0176948565 0.0000000000 -0.0016391964
0.2294815097 0.8923582003 0.3192660957 -0.0047293748 0.0161232673 0.0059869998
0.3317214167 1.0090109640 -0.2678571333 0.0009064107 0.0000000000 0.0174816958
0.0949525859 0.8749999688 0.1809600114 0.0000000179 0.0178571422 0.0000000000
0.1049185855 0.8214285421 0.3656353084 -0.0031215356 -0.0142907316 -0.0075776783
0.1351912630 0.8571428265 0.1624536549 0.0000000179 -0.0178571422 0.0000000000
0.3532114695 1.0730738902 -0.2011826357 -0.0129104103 0.0054936248 0.0109872675
-0.2957109180 0.8928571110 0.3219865599 0.0000000179 0.0178571422 0.0000000000
-0.0692501582 0.8571428265 0.0275105169 0.0000000179 -0.0178571422 0.0000000000
0.0723465331 0.8476721662 0.4201848957 0.0006738214 0.0158083387 0.0082410711
-0.3164770601 1.4640016084 -0.3620942906 -0.0117278924 0.0024013571 -0.0125283746
0.3928571467 0.9296982347 0.1561745301 -0.0171082315 0.0040054106 0.0002585000
0.3960155751 0.9190907886 0.0368183915 -0.0100548032 -0.0130917138 -0.0036598570
-0.3089897033 0.9107142532 0.2023582963 0.0000000179 0.0178571422 0.0000000000
-0.0871060862 0.9395971629 -0.2610257407 0.0014425892 0.0094729997 0.0146959995
-0.0909240682 0.8022120785 0.3928571288 0.0001591071 -0.0009545714 -0.0174524101
-0.3620506299 1.2055575105 -0.2142857066 0.0128481781 0.0011281964 0.0120269639
0.3266768098 0.8295223811 -0.2828687399 0.0103492496 -0.0033188749 0.0140606959
0.3392857200 0.6318498167 -0.3294507382 0.0171717137 0.0016333214 -0.0032666606
-0.3038180249 0.8951827895 -0.2479209019 -0.0083426604 -0.0064830712 0.0137535352
-0.4464285376 1.2294830097 -0.1425200663 -0.0173257137 0.0000000000 -0.0043231784
0.2232050992 0.8035713999 0.3804195400 -0.0029731070 -0.0132966602 -0.0097784639
0.0395277307 0.8917362717 -0.2678571333 0.0000000179 0.0000000000 -0.0178571422
-0.3932050038 0.8564674158 0.3045947034 -0.0076463390 -0.0142430352 -0.0072964640
-0.4828558935 1.1516668696 0.0895233718 -0.0063292498 -0.0142358745 -0.0058761784
-0.0504919268 1.4047893248 -0.4464285555 0.0013221785 -0.0102464818 0.0138646066
0.2857142934 0.8948276109 -0.2066213319 0.0151179637 0.0000000000 0.0069070712
-0.3928571110 0.6870661897 0.4196501279 -0.0133898388 0.0013117857 0.0096489997
-0.1495356732 0.8571428265 0.2070008676 0.0000000179 -0.0178571422 0.0000000000
-0.2857142577 0.6161953887 -0.3507938625 0.0125900710 0.0012512678 -0.0093692497
0.3750000045 0.1100650318 -0.4175653958 0.0178571601 0.0000000000 0.0000000000
0.0522328374 0.8475936840 0.4216020564 0.0019938392 0.0155548209 0.0084670890
-0.3720056653 1.0774171222 -0.2193355457 -0.0175155529 0.0033681427 -0.0002256250
-0.3928571110 0.9894451789 -0.1553725837 -0.0140394459 -0.0051308391 -0.0037754284
0.4907183039 1.1499123875 0.1536589409 0.0034336070 0.0133606602 0.0099270889
-0.3397225057 1.1056361569 -0.2495631875 0.0047699998 -0.0039001249 0.0162181601
-0.3572073980 1.1653488334 -0.2655397941 0.0000184643 0.0068064819 -0.0164986244
0.3976787179 0.4380014844 0.3792135222 0.0075822854 -0.0001058393 -0.0144021781
0.2137333138 0.8749999688 0.1291913347 0.0000000179 -0.0178571422 0.0000000000
0.4585284122 1.2009099750 0.0088940354 -0.0005567678 0.0168605530 0.0052172498
-0.0475136769 1.4394705200 -0.4642856977 -0.0011846785 0.0098493211 -0.0141343388
0.1387809236 0.8225708992 0.4631433406 0.0015264999 0.0132233567 0.0118305889
0.2164879387 0.9794644293 -0.2651787584 -0.0003833393 0.0126031245 0.0126031245
-0.3749999688 0.8514276660 0.2844342398 -0.0131441424 -0.0066570890 -0.0066570890
-0.3361327023 0.6537676909 -0.3035714177 -0.0054646427 -0.0008715178 0.0163605887
0.1452301198 0.8556223266 0.4223498421 -0.0024161249 0.0161355351 0.0070871069
-0.3214285421 0.8751875759 0.0330496595 -0.0173625530 -0.0010423214 -0.0010878392
0.4009633071 1.2840695613 -0.1962370466 -0.0159718923 0.0079859640 0.0000000000
0.4229622528 0.9464285376 0.1833911542 0.0000000179 0.0178571422 0.0000000000
-0.1636586013 1.4321419310 -0.4107142710 0.0022435713 0.0000000000 0.0176046244
-0.4252361991 1.5222403206 -0.1640494406 0.0129659995 0.0008596071 0.0121063746
0.2871896683 1.4751068759 -0.3509413089 -0.0098141246 0.0142393566 0.0044252141
0.4551732873 1.2062470105 -0.0360819987 0.0167153565 0.0035949642 -0.0023813571
-0.4642064656 1.5178570886 -0.1148572816 0.0058770891 0.0112971425 0.0113183210
-0.0435916592 0.8392856843 -0.2197764386 0.0000000179 -0.0176219458 0.0019105535
-0.1903885111 0.8684681833 0.3815317721 0.0027434106 0.0157009102 0.0078504640
0.1795701722 1.4617935728 -0.4102149139 -0.0098252318 0.0000000000 0.0149087495
0.4087616461 0.0733495510 0.4107142710 -0.0013620000 -0.0002276071 -0.0172665172
0.2663085262 0.8638981120 -0.1979771894 0.0098741425 -0.0118989639 -0.0067344105
-0.1550046909 0.8749999688 0.2830578113 0.0016859642 0.0176116779 0.0009246964
-0.2076325104 0.8571428265 0.2906794182 0.0000000179 -0.0178571422 0.0000000000
0.1165590851 0.7686320440 0.4472034483 0.0020889106 -0.0125546424 0.0123417674
-0.2882197218 0.9637646263 -0.3035714177 0.0000000179 0.0000000000 -0.0178571422
-0.1932660288 0.8896945932 0.2762003116 0.0061974641 0.0161359101 0.0034758034
-0.3751387902 1.0113734103 -0.1247223170 0.0162766066 0.0028400535 0.0054577498
-0.2678571154 0.8620193799 -0.2982795429 0.0178571601 0.0000000000 0.0000000000
-0.4174450208 1.2701922404 -0.1750014937 -0.0137987317 -0.0080806604 0.0055113927
-0.2476523840 0.8928570395 0.0667878012 0.0000000179 0.0178571422 0.0000000000
-0.4285713954 1.3569562908 -0.1423633699 0.0159987137 0.0001561429 0.0077651426
0.4107142889 0.4774623044 0.3817995399 0.0131406781 0.0000000000 -0.0090587318
0.3762876651 0.5027738749 0.3749999866 0.0000000179 0.0000000000 -0.0178571422
-0.2635187227 0.8814969507 0.3506458446 0.0042646248 0.0158540887 0.0067292498
0.3928571467 0.7096436175 0.3647827013 0.0137398209 -0.0010166607 -0.0081332676
-0.2786719186 0.8982645036 0.2404099736 0.0057298927 0.0167293387 0.0024046249
0.2849446327 1.2686307940 -0.3400593986 0.0003393571 -0.0154467494 -0.0083168033
0.3551705945 0.9265991276 0.2376934915 -0.0071820712 0.0130493210 -0.0063356605
0.2251803312 0.9587799836 -0.2444942948 -0.0009583928 0.0125674638 0.0125674638
0.4107142889 0.3254931848 0.4340082702 0.0138180352 0.0013355714 0.0104216425
-0.0006781785 0.8392857557 -0.2482263304 0.0000000179 -0.0178571422 0.0000000000
0.0849930684 1.4131673602 -0.4285714490 0.0000000179 0.0000000000 0.0178571422
0.3722224331 0.6745727081 0.4285714133 0.0000000179 0.0000000000 0.0178571422
-0.4285714311 0.9364266808 0.1428221199 -0.0178571244 0.0000000000 0.0000000000
-0.3123457567 0.6601981193 -0.3571428444 0.0001447857 0.0021029106 -0.0175720172
-0.3897207897 0.8198895779 0.3392857022 -0.0020122499 -0.0074049819 -0.0156481780
0.3067028283 0.3066153462 -0.3749999866 -0.0085296068 -0.0014521428 0.0126602317
0.2761210080 0.7857142577 0.4244535563 0.0013820178 -0.0161887137 0.0050906962
-0.0233532670 1.5165885708 -0.4464285198 0.0000000179 0.0000000000 0.0178571422
0.3288633633 0.7861160255 0.3567410765 -0.0067538033 -0.0095925532 -0.0119899460
0.2135093317 0.8928571110 -0.0831596220 0.0000000179 0.0178571422 0.0000000000
-0.3217053457 0.8392856843 0.2061050105 0.0041169641 -0.0171890530 0.0000000000
-0.4508620018 1.1761268509 0.0624383906 0.0162124816 0.0000000000 0.0074052319
0.3035714356 0.7071348319 -0.2927636324 -0.0148450173 -0.0008215893 0.0054301605
0.0222649456 1.3571428087 -0.4224330206 0.0000000179 0.0178571422 0.0000000000
0.4183568243 0.9285713954 0.2638477941 0.0000000179 0.0178571422 0.0000000000
-0.1528843160 0.8246555063 0.4610587335 -0.0008748750 0.0128261245 0.0123289281
0.2436092413 0.8928571824 -0.0580395336 0.0000000179 0.0178571422 0.0000000000
0.1956789394 0.8749999688 -0.2479816697 0.0000000179 -0.0178571422 0.0000000000
-0.3214259885 0.2220405814 -0.4107142710 0.0135638388 0.0000002500 -0.0072674997
0.4576741622 0.9096385032 0.2980355786 0.0131493210 -0.0113428925 -0.0040098391
-0.2833910256 1.3742720223 -0.3400833450 0.0054288391 0.0055001605 0.0160922316
-0.2752714187 0.8951074502 0.1198360493 0.0070672855 0.0159864280 -0.0020134106
-0.2926694360 1.2648486691 -0.3053713462 0.0168595530 -0.0033135177 0.0045833391
0.1475184412 0.8796612543 0.1950878502 -0.0077944819 0.0160622673 0.0000000000
-0.3736266831 0.7789939186 0.4188079315 -0.0104851425 0.0040236427 0.0134577317
-0.2499999732 0.8341019881 0.3432003985 0.0000000179 -0.0116410889 -0.0126801960
-0.4415847164 0.0973963358 0.4382884665 -0.0128528924 0.0030584999 0.0118754281
-0.3307348632 0.4871819826 -0.3852250398 -0.0017189107 0.0035473570 -0.0168147137
0.0047068927 1.3571428087 -0.4199389493 0.0000000179 0.0178571422 0.0000000000
0.4018094321 0.9285713954 0.2774033115 -0.0000963214 0.0178413029 0.0000963393
0.3592275229 0.0900149611 -0.3949417895 0.0124728567 -0.0003009464 0.0127006245
0.1256938884 1.5047982855 -0.4642856977 0.0024248749 0.0090809104 -0.0137360709
-0.0775370151 0.8749999688 0.2870031683 0.0000000179 0.0178571422 0.0000000000
-0.3035713999 0.8581621658 0.0130188567 -0.0148707852 -0.0084681247 -0.0043541963
0.0767643365 0.8571428265 0.3678802369 -0.0004801607 0.0172678387 0.0027850535
0.3571428622 0.3341815952 -0.3902838075 0.0178571601 0.0000000000 0.0000000000
-0.1107450853 1.3535406481 -0.4048563963 -0.0007132678 0.0149199995 0.0063276426
0.4285714311 0.2023072785 0.4350433952 0.0174450887 0.0000000000 0.0022724821
-0.4009324857 0.0816120685 0.4107142710 0.0068283212 -0.0010759642 -0.0149036780
0.3062707033 0.7253639741 -0.2857142755 0.0000000179 -0.0028622499 0.0175175351
-0.2442604913 0.8571428265 0.0021979464 0.0000000179 -0.0178571422 0.0000000000
0.0152676602 1.5136647317 -0.4821428399 0.0000000179 0.0000000000 -0.0178571422
0.3928571467 0.1559788694 0.4214560207 -0.0175518029 -0.0006255535 -0.0018766606
0.3121804531 1.2327819024 -0.2811635971 -0.0111911782 0.0010338214 0.0112902496
-0.2793265793 1.0073350890 -0.2637227406 0.0111181425 0.0094103032 0.0083014640
-0.4145848781 0.0000000000 0.4302859132 0.0000000179 -0.0178571422 0.0000000000
0.3297942739 1.4718559296 -0.2952057216 -0.0128889460 0.0006643393 0.0122246067
-0.1839197077 0.8407299521 0.4410802521 -0.0024216249 0.0126912495 0.0122029638
0.3007739357 1.4456121805 -0.3777974865 0.0123833031 -0.0005939107 -0.0124997853
0.1535044945 0.8571428265 0.1471406912 0.0033484463 -0.0172551065 -0.0011161428
-0.4107142532 0.4545250373 0.3988822715 -0.0171871780 0.0026769285 -0.0024312321
-0.4640201441 1.1607141014 0.0747496938 0.0135333567 -0.0108313389 0.0008868393
0.4464980198 1.2142856709 -0.0209778207 -0.0006369821 0.0170842315 0.0045895534
0.3134456495 0.9335197345 -0.3115543460 0.0087622854 0.0052791962 -0.0140414638
-0.3172527744 1.2975128287 -0.2975128287 0.0060049105 0.0074039462 0.0145360531
-0.4611587157 1.1964285287 0.0370418558 0.0013647321 0.0173062137 0.0019284642
0.3379012558 0.9082312890 -0.3035714177 0.0093048390 0.0000000000 -0.0149533030
-0.3811431292 0.9547421266 -0.0412850878 0.0173590887 -0.0023463749 0.0031711070
0.1653738870 0.9091678068 -0.2678571333 0.0000000179 0.0000000000 -0.0178571422
0.4467972340 1.2025915821 -0.1064055676 0.0172791958 0.0011860714 -0.0040051963
0.2184000458 0.8749999688 0.1075071747 0.0000000179 -0.0178571422 0.0000000000
0.1523452624 0.8749999688 0.1328591738 -0.0048521248 0.0166305708 -0.0019752321
-0.4296834489 1.2335814917 -0.1763473151 -0.0153043745 0.0018171428 -0.0068846962
-0.2695761332 0.8928571110 -0.0501806232 0.0000000179 0.0178571422 0.0000000000
-0.1973499751 0.8571428265 -0.1990431715 0.0000000179 -0.0178571422 0.0000000000
-0.4191229315 0.0175948387 0.4107142710 0.0000000179 0.0000000000 -0.0178571422
-0.3568042373 0.8607590943 0.4107142710 -0.0000429821 0.0046112855 0.0170631422
-0.3710135403 0.9861292505 -0.1347515130 0.0151788566 -0.0090143032 -0.0003488214
-0.0412648914 0.8571428265 -0.2017768678 -0.0020979642 -0.0140006424 0.0098046782
-0.3054877391 1.2111295460 -0.3109219353 0.0065078212 -0.0073648212 -0.0147296423
0.2857142934 0.8748298080 -0.0797416043 0.0178571601 0.0000000000 0.0000000000
-0.3421497021 1.2857142398 -0.2965809180 -0.0052993034 0.0146263209 0.0000153750
0.1964285823 0.8725240938 -0.0043406070 -0.0030714463 -0.0108268568 0.0103496246
0.3190174529 0.8392856843 0.2500831875 -0.0073348033 -0.0158099101 -0.0028048570
0.2995920964 0.8928571110 0.3253151312 0.0000000179 0.0178571422 0.0000000000
0.3714862903 1.5073331605 -0.2710476867 0.0000000179 0.0165271601 -0.0064849998
-0.0296566239 0.8392856843 0.3410992200 0.0000000179 -0.0173259815 -0.0012823392
-0.3214285778 0.0178490351 -0.4281563597 0.0177352672 -0.0000026964 0.0002931786
-0.2535910445 0.8571428265 -0.0735375867 0.0000000179 -0.0178571422 0.0000000000
0.4454259127 1.3347152559 -0.1808566721 0.0149971245 -0.0010259285 -0.0058710534
0.1169937637 0.8750000402 0.3365115951 -0.0008882143 0.0172243565 0.0032281249
0.4926203395 1.1169407280 0.1428571378 0.0105166246 -0.0082011783 -0.0117822139
0.3064615783 0.8214285421 0.3377313451 -0.0038941070 -0.0169122673 -0.0038941249
-0.0511500517 0.8132757210 0.3831528792 0.0014192499 -0.0125388924 -0.0125388924
-0.2362985273 0.8708442725 0.0688121225 0.0144242138 -0.0098961961 0.0019957321
-0.2884692218 0.8777549329 0.3675294512 0.0021541964 0.0159644994 0.0058384641
0.3928571467 0.1936150288 0.4083419318 -0.0145129102 -0.0023746071 -0.0083110890
0.3392857200 1.0209689457 -0.2857800077 0.0178379101 0.0000000000 -0.0000464821
-0.4510620732 1.1785713865 -0.0799427471 -0.0051678034 -0.0149342852 -0.0025839106
0.0476028376 0.8392856843 -0.2516315267 0.0000000179 -0.0178084279 -0.0003956964
-0.3854721291 0.9207231278 0.3218918456 0.0093525532 0.0139214102 0.0054610177
-0.0231732849 0.8571428265 0.3698619332 0.0000000179 0.0178571422 0.0000000000
-0.4285713954 1.3896550575 -0.1358271201 0.0159287137 0.0017050357 0.0058337141
-0.0416113557 0.8571428265 -0.1645771370 0.0000000179 -0.0178571422 0.0000000000
0.3035714356 0.8719277724 0.0150030530 0.0160437851 -0.0020135356 -0.0066787676
0.3844486648 0.4144978423 0.3815166828 -0.0107234639 -0.0049189105 -0.0132487495
-0.0169073923 0.8072485605 0.3891799682 0.0000000179 -0.0126269103 -0.0126269103
0.2787889186 0.8289609347 -0.2851072398 -0.0102071603 -0.0104549996 0.0102071782
0.0233768742 0.8749999688 0.2605262407 0.0000000179 0.0178571422 0.0000000000
0.0881455504 0.9734023938 -0.2959712216 0.0061177855 -0.0109395353 -0.0126324817
-0.3927562181 0.3501177732 0.4463276626 0.0154870887 -0.0019547856 0.0077151783
0.1555249587 0.8571428265 0.1117545853 0.0064237676 -0.0158955887 -0.0021412499
0.3487601661 0.5812629078 -0.3392857022 0.0108247853 0.0038963391 -0.0104426425
-0.0192276243 0.8749999688 0.0103949639 0.0009185535 0.0177432137 -0.0009185357
0.4397916807 1.2989472929 -0.1741603688 0.0000000179 -0.0063886426 0.0166690708
0.2200959743 0.8928571110 -0.0139615174 0.0000000179 0.0178571422 0.0000000000
-0.0229111063 0.8749999688 0.0372211237 0.0000000179 0.0178571422 0.0000000000
-0.0915995860 0.8571428265 0.2142946352 0.0000000179 -0.0178571422 0.0000000000
-0.3983935572 0.6890781004 0.3857897898 -0.0145403209 0.0022994285 -0.0093393032
-0.2947826145 1.0379262308 -0.2499999911 0.0000000179 0.0000000000 0.0178571422
0.3938819324 0.4988029822 0.3749999866 0.0005876964 0.0000000000 -0.0176718922
0.4198009671 1.5269438383 -0.2134752602 -0.0092634282 0.0147188209 0.0000000000
-0.3913864146 0.3046832391 0.3937719681 0.0124231960 -0.0041311606 -0.0120216246
-0.0961014073 1.4332025560 -0.4464285555 -0.0003688393 0.0107986603 -0.0136916781
-0.2631820620 0.8571428980 0.2138834388 0.0001494107 -0.0178283744 0.0000000000
-0.2638887049 0.9214542528 -0.2996029714 0.0122782317 0.0031676427 -0.0122782138
0.3432157377 1.2783048651 -0.3105349353 0.0110072139 0.0051704462 -0.0120985531
0.3980855929 1.1890282968 -0.2160687423 0.0155675530 -0.0077837676 0.0030987677
-0.4240518241 0.9062968426 0.3749999866 -0.0036484999 0.0099560175 0.0136045174
-0.2902427396 1.4773809651 -0.3516575767 0.0098387854 0.0142321959 0.0043934284
-0.1862109755 0.8571428265 0.4011855392 0.0016671071 0.0166864815 0.0041790534
-0.0392135700 0.8571428265 0.3489890054 0.0020477142 0.0165418566 0.0049005534
-0.1626173692 0.8769030223 -0.1207110493 0.0092063568 0.0146245888 0.0042083213
0.2923901503 0.9063464319 0.1138187459 -0.0084213926 0.0148698209 0.0015631249
0.3894983789 0.9252126991 0.3069886676 -0.0083962676 0.0154751602 0.0016350714
0.0015276964 0.8749998973 0.0510229803 0.0000000179 0.0178571422 0.0000000000
0.4347628952 0.9035217713 0.3688085225 0.0127216960 0.0002675357 0.0124541424
0.2890621682 0.9107142532 0.0921768003 -0.0089866247 0.0144099102 0.0016119285
-0.4495778768 1.5185742493 -0.1925621717 -0.0123030353 0.0091398211 -0.0091398211
0.4258101276 0.9120330567 0.0988589250 0.0072774819 -0.0153914459 -0.0040434106
0.0791612650 0.8571428265 0.2609045800 0.0000000179 -0.0178571422 0.0000000000
-0.3392856843 1.1569713515 -0.3001674893 -0.0166532137 -0.0005246607 -0.0020066964
0.0152306959 0.8571428265 0.1552114230 0.0000000179 -0.0178571422 0.0000000000
0.2738708474 1.3163466673 -0.3351356487 0.0051956962 0.0167777137 0.0025904999
-0.0828029970 0.7865627576 0.4821428756 0.0000000179 -0.0068246605 0.0155822494
0.3344405416 0.3762269508 -0.3928571288 0.0000000179 0.0034218570 -0.0175183029
-0.3553554695 0.2222829385 -0.3749999866 -0.0046489105 -0.0011002142 0.0170082137
0.4227586813 0.8928571110 0.1993669036 0.0100960175 -0.0139672852 -0.0008666607
-0.0227549099 1.3407304878 -0.4285714133 0.0000000179 0.0000000000 -0.0178571422
-0.0785967293 1.4821428042 -0.4479367519 0.0004490178 -0.0130500174 0.0115417853
0.4172613244 0.8928571110 0.2376385987 0.0028832678 -0.0173473565 -0.0012953571
-0.1621778871 1.4999999464 -0.4338736095 0.0015142321 0.0132060888 0.0103979461
-0.3928571110 0.6699418868 0.4115598067 -0.0128058745 0.0007056964 0.0121951603
-0.3652750762 0.1930007788 -0.3999520929 -0.0125308567 0.0000000000 0.0114713746
0.3438279341 0.8392856843 0.2777262401 0.0000000179 -0.0178571422 0.0000000000
-0.2482622947 0.8571428265 -0.1571478694 0.0000000179 -0.0178571422 0.0000000000
0.4009512535 0.6779859222 0.4029129142 0.0138132852 0.0034361784 0.0104084818
0.2036347070 0.8749999688 0.0165243566 0.0000000179 -0.0177164458 0.0005960357
0.0119406067 0.8928571110 -0.2011937428 0.0000000179 0.0159719101 0.0079859640
-0.1320877453 0.8749999688 0.2250871170 0.0031697677 0.0171088744 0.0000000000
0.0135842495 0.8571428265 -0.1356711023 0.0000000179 -0.0178571422 0.0000000000
0.4821428578 0.9632348585 0.2867204719 0.0175012315 -0.0010176071 0.0025498213
0.3081052390 0.8519128803 -0.2678571333 0.0010996250 -0.0036194820 0.0168673387
-0.0374737665 0.8749998973 -0.0835342292 0.0002380178 0.0178373744 0.0002380000
-0.2889928468 0.9088077890 0.1766649223 0.0064850712 0.0152655709 -0.0056324284
0.2259849919 0.8047027213 0.4642856977 0.0052320891 0.0000000000 0.0166220173
0.4107142889 0.9448383591 0.2922384003 -0.0126609460 0.0119497674 0.0021747142
-0.3714607546 0.4917916789 0.4285714133 0.0010170000 0.0000000000 0.0177078744
-0.1594526193 0.8571428265 -0.2289812418 0.0000000179 -0.0178571422 0.0000000000
-0.3214285421 0.7115042246 -0.2950818109 -0.0124592674 -0.0017406785 0.0082649104
0.4187573065 1.1964285287 -0.1580031194 -0.0059407319 -0.0144326423 -0.0010090892
-0.1118377817 0.8214285421 0.4751168223 0.0012892142 0.0134504459 0.0105231246
-0.2940228109 0.5294353382 -0.3571428444 0.0112212496 0.0000000000 -0.0121133567
-0.0597818372 1.4821428042 -0.4796784114 0.0000000179 -0.0178571422 0.0000000000
-0.1484269233 0.9503923411 -0.2539637766 0.0021389642 0.0124942496 0.0124942496
-0.3800282186 0.5426466235 0.3749999866 0.0000000179 0.0000000000 -0.0178571422
0.0979761751 1.5041792141 -0.4464285555 -0.0030334106 0.0033948213 0.0170358030
-0.4593962515 1.4629291263 -0.1428571378 0.0000000179 0.0004289821 -0.0177875351
-0.1953414395 0.9758323580 -0.2857142755 0.0000000179 0.0000000000 -0.0178571422
0.4641344299 1.0096012854 0.2402474021 -0.0159753566 0.0068754998 0.0034814284
0.0749378723 0.8571428265 0.3084394176 0.0008474285 -0.0163787851 -0.0033896249
0.0560992301 1.5178570886 -0.4576398765 0.0000000179 0.0178571422 0.0000000000
-0.3791097007 1.5152679995 -0.2417804557 0.0147820888 0.0062331605 0.0073910355
0.2650626512 0.8013735250 0.3771978615 0.0033514463 -0.0161530709 -0.0055021784
-0.1396981557 0.8571428265 -0.1418421735 0.0000000179 -0.0178571422 0.0000000000
-0.2743336152 1.2825397221 -0.3181903279 0.0099053746 0.0000000000 0.0148580352
-0.3928571110 0.2220619385 0.4012884321 0.0169821423 -0.0006213214 -0.0021746249
-0.2655560977 1.4285715204 -0.4118635210 -0.0081040890 -0.0133062852 -0.0081043033
0.1147629066 0.8571428980 0.0283098740 0.0000000179 -0.0178571422 0.0000000000
-0.2141686352 0.8928571110 -0.0879356397 0.0000000179 0.0178571422 0.0000000000
0.3793203257 0.9639631977 -0.0406105343 -0.0170334637 0.0000000000 0.0053285534
-0.3038600606 0.9121438067 -0.2338610452 -0.0103999282 0.0097943389 0.0105290353
0.4234014313 1.4873133576 -0.2424828128 0.0131653031 -0.0074384640 -0.0069275176
0.2152914566 0.8392857557 0.3390483093 0.0000000179 -0.0160780887 -0.0075361783
0.2925109538 0.5334991595 -0.3571428444 -0.0105819818 0.0000000000 -0.0127969817
-0.2604320978 0.8504905411 0.4352237345 0.0019046428 0.0149182138 0.0088587318
0.0657917655 0.8749999688 0.0818526221 0.0000000179 0.0178571422 0.0000000000
0.4285714311 0.1501705482 0.4401887700 0.0155728387 0.0018482142 0.0071814462
-0.3063159355 0.9270943597 -0.3186840243 -0.0118195889 0.0012630000 -0.0128640710
0.4289002168 1.1785713865 -0.1054806034 0.0000000179 -0.0173326422 -0.0042924106
-0.3928571110 0.9434066806 0.0972675858 0.0178571601 0.0000000000 0.0000000000
0.2932316681 1.3355401844 -0.3571428444 0.0063971605 -0.0016148035 -0.0164844280
0.4387350736 0.0256078205 0.4107142710 0.0000181071 0.0000000000 -0.0178542136
0.3214285778 0.3992737536 -0.3416300414 -0.0121545353 -0.0005115714 0.0111216603
-0.4593322336 1.4416499307 -0.1071428533 0.0000000179 -0.0027449820 0.0175192137
-0.1339512452 1.4198963421 -0.4193892707 0.0063697498 -0.0049357320 0.0157163209
0.3918647181 0.2127415460 0.4181737708 -0.0141950531 -0.0037191249 -0.0089245175
0.1120052996 0.8749999688 0.0487366233 0.0000000179 0.0178571422 0.0000000000
0.4363199666 1.2732456331 -0.2002820286 0.0169781601 -0.0050138570 -0.0012130714
0.4140584852 1.5215092492 -0.1791874400 -0.0114493032 0.0129569103 0.0033139106
0.4642857156 1.0884713718 0.1696720832 -0.0178571244 0.0000000000 0.0000000000
0.3391839879 0.7544711338 -0.3258905598 0.0113652496 0.0026953928 -0.0134769459
-0.4434054306 0.8856691291 0.3255933991 -0.0130575174 -0.0114458746 -0.0021252321
-0.1631789227 0.8774646651 0.0284766418 0.0079479819 0.0158959101 0.0004194821
-0.4207061457 0.2421777056 0.4464285555 -0.0070111247 0.0008734285 0.0148764280
-0.1453151555 1.3035713820 -0.3993548786 0.0000000179 -0.0178571422 0.0000000000
0.0602994086 0.8571428265 0.0108796960 0.0000000179 -0.0178571422 0.0000000000
0.0567525694 1.4346400202 -0.4330495917 -0.0044875534 0.0116795710 0.0125507674
-0.4110207175 0.9626525728 0.0720415153 -0.0160986066 0.0072542855 0.0000000000
0.3603856300 0.4161500744 0.4047536105 -0.0138637495 -0.0045308213 -0.0101434282
-0.3753423795 0.7575846158 0.4209866993 -0.0121226781 0.0036971070 0.0123648031
-0.4107142532 0.4816783399 0.4278466276 -0.0178571244 0.0000000000 0.0000000000
0.4591940550 1.1836580113 -0.0816119971 0.0092150532 -0.0116553032 -0.0046075177
-0.1864680291 0.8571428265 0.2389124379 0.0000000179 -0.0178571422 0.0000000000
-0.3622760049 0.8276602562 0.3151969173 -0.0062923926 -0.0124661603 -0.0099221068
0.3003602036 1.2385652593 -0.3180777922 -0.0166755351 -0.0047856248 -0.0016446249
0.3864430755 0.4594753586 0.4285714133 0.0000000179 0.0000000000 0.0178571422
0.3734140759 0.7837868827 0.3412130771 -0.0006474464 -0.0081313211 -0.0157280887
0.1029279428 0.8571428265 -0.0413376235 0.0000000179 -0.0178571422 0.0000000000
-0.3165729351 0.8441412556 0.1787054758 0.0125745174 -0.0126592853 0.0000000000
-0.2638871691 0.9285713954 -0.2077339390 0.0000000179 0.0171654637 0.0029300356
0.1807242257 0.8646624870 0.1553473873 0.0060640712 -0.0158477673 -0.0047495355
0.3142583102 0.4510500017 -0.3392857022 -0.0038271784 -0.0026105356 0.0167236423
-0.3321368096 0.6328357810 -0.3035714177 -0.0065608212 -0.0020185178 0.0159244816
0.4145862352 0.3064759712 0.3928571288 0.0009391071 0.0000000000 -0.0177415351
-0.2533874731 0.8571428265 0.0415777307 0.0000000179 -0.0178571422 0.0000000000
-0.2678571154 1.0180046601 -0.2848375077 0.0158907137 0.0080624997 -0.0002343214
0.1735081367 1.4974788394 -0.4489601804 0.0079859819 0.0000000000 -0.0159719101
-0.3099622389 1.3201130064 -0.3175300065 -0.0114721246 0.0057360891 0.0101524461
-0.3642385048 1.4945672681 -0.2607614728 0.0115937139 0.0068383926 0.0106797853
0.3571428622 0.5395303914 0.3962957001 -0.0177369994 -0.0002979821 -0.0005959821
0.2840404720 0.9018573428 0.1713883153 -0.0074704283 0.0153300352 -0.0038688927
-0.1953064573 0.8928571824 -0.0816478364 0.0006691071 0.0175714101 0.0003345357
-0.3311706310 0.9093145390 0.0990278000 -0.0137390888 0.0093449282 -0.0057102677
0.1528816731 0.8749999688 -0.0973110322 -0.0048625713 0.0167236423 0.0012903750
-0.0338959809 1.4119771639 -0.4642856977 0.0000000179 0.0000000000 -0.0178571422
0.4285714311 0.1733890652 0.4437708413 0.0169587315 0.0003119464 0.0050509462
-0.3313969167 0.1126188174 -0.4447303948 0.0092289461 0.0030868749 -0.0148114638
