-0.0402298851 0.6879339080 -0.2069332759 -0.0011213218 0.0046402644 0.0094351609
0.1389415862 0.4679592644 -0.2758620690 -0.0057471264 0.0057905977 -0.0090957126
0.1912373333 0.6598771149 -0.3900135057 -0.0026267701 -0.0016239425 -0.0109415287
-0.1317432644 0.3139866322 -0.2605978391 -0.0085551839 -0.0100326437 -0.0048141954
0.1818331149 0.4712643678 0.4347527126 -0.0057471264 0.0114942529 0.0000000000
-0.4136285402 0.9407075862 -0.2954522529 -0.0007956207 0.0021405517 0.0101058276
-0.0555470345 0.5167020115 -0.3906697701 -0.0059431839 -0.0027627011 -0.0111450000
0.4507215632 0.6403406552 0.3515026437 -0.0063941724 0.0099114253 0.0056140000
-0.2766003448 1.0160927586 -0.4392860230 -0.0103664023 -0.0011181724 -0.0103412299
0.1752795517 0.3433602414 0.3318127126 -0.0020308851 -0.0104015632 0.0030925287
-0.1189622069 0.4572749540 -0.3708158046 -0.0075249655 -0.0033500115 -0.0108131149
-0.4319229080 0.9528321839 -0.2886293793 -0.0018795517 0.0017762414 0.0106560000
0.2663327356 0.3276102184 -0.0191066782 -0.0001777241 -0.0099926667 0.0009078621
0.3160919540 0.4710933218 -0.0958565632 0.0054072069 0.0008301379 -0.0025785977
-0.0418245057 0.5346782759 -0.1494252874 -0.0057471264 0.0007245517 0.0113976322
-0.0595162874 0.4337979885 0.4567864943 -0.0058606207 -0.0074793448 0.0086949770
0.2565785057 0.5334616897 0.3600130575 -0.0106475172 0.0102875517 0.0010618966
-0.3384028276 0.4837315057 0.1891984368 -0.0139634138 -0.0078962529 0.0014209425
-0.2372787126 0.3916278736 0.1310187471 -0.0007493103 0.0102502989 -0.0013064483
0.3953462759 0.4673083908 -0.1153754483 0.0039215747 -0.0060884713 -0.0010509425
0.3240354253 0.3985645632 0.2375046552 0.0007770920 -0.0093657586 0.0010974023
-0.4225623448 0.4756562644 0.0894251149 -0.0151846552 -0.0065101379 0.0005895402
0.2253461149 0.4965361724 0.1283759655 -0.0106658621 0.0102613563 -0.0012968161
-0.0030615517 0.4340990000 -0.2873563448 -0.0057471264 -0.0004241609 -0.0114254253
-0.2447535632 0.6684048966 -0.3144559310 -0.0103060345 -0.0041795862 -0.0096418851
-0.4202632299 0.6099184023 0.2308256207 0.0034910000 0.0067550805 -0.0010412184
-0.0409135402 0.7586206897 -0.3377560115 -0.0057471264 0.0089390805 -0.0051103333
0.2152612184 0.5997684483 -0.3704081954 -0.0020399655 -0.0018881379 -0.0107137241
0.3272266437 0.4688654483 0.1433072414 0.0021702874 -0.0080489080 0.0020949195
0.2015858736 0.4082642069 -0.3261878621 -0.0017383793 -0.0106993908 0.0000000000
-0.1067593333 0.3908045977 0.4803487816 -0.0074237816 -0.0071407931 0.0086020345
0.3237434713 1.0437119540 -0.4189054138 -0.0012553678 -0.0025680230 -0.0102414598
-0.2112017701 0.4505362184 0.4597701149 -0.0034222414 0.0093549080 0.0057885287
0.1406235862 0.3083533103 -0.2399866437 -0.0020422069 -0.0102530460 -0.0036097931
0.1436781609 0.4979850920 0.3638029195 -0.0125487931 0.0090177241 0.0004594023
0.3842529655 0.5624139310 0.2192236322 -0.0149026437 0.0068401609 -0.0011968506
-0.3358533333 1.0921438851 -0.4303843563 -0.0103909885 -0.0034246207 -0.0099398851
0.2038120000 0.5167410805 -0.3586552069 -0.0014624368 -0.0027727931 -0.0102761149
-0.2613346552 0.4611270920 0.4682746092 -0.0014084713 0.0106387586 0.0000000000
0.1761368506 0.2932824943 0.0127436207 -0.0023386552 -0.0109309310 0.0001613218
0.1927421839 0.5370003678 -0.1609195402 -0.0042880805 0.0007462759 0.0112921724
-0.0057471264 0.3968431264 0.3879597126 0.0002913908 0.0000000000 0.0000000000
0.2714830115 0.7037588046 -0.3204710115 -0.0093522644 0.0021958966 0.0106816552
-0.1479235057 0.2837318506 -0.1010775517 -0.0095972529 -0.0107500920 -0.0008926437
-0.3314523793 0.5134273448 0.3839996207 0.0020669885 0.0080022184 -0.0023952184
0.0217905747 0.4597701149 -0.2809843563 -0.0057471264 0.0108215402 -0.0028496322
-0.4137112414 0.6144647701 0.3461789540 0.0021896322 0.0081911724 0.0013056322
0.3411999885 0.5136548621 -0.2766366322 0.0029831379 -0.0031589310 -0.0066791839
0.2399978621 0.5046911954 -0.3406441839 -0.0013108161 -0.0033559655 -0.0100471034
-0.0608698966 1.0928834023 -0.4942528736 -0.0064750460 0.0021129655 -0.0110928966
-0.2200579770 0.5104436782 0.2141883218 -0.0015450460 0.0105150230 -0.0019038966
0.2519607586 0.3874746322 -0.1524694598 -0.0115720575 0.0098043908 0.0011068851
-0.2452029540 0.8018745287 -0.3448275862 -0.0024602069 0.0024624023 0.0107351839
0.1556883103 0.9889849080 -0.4025384368 -0.0065492759 0.0028775287 0.0110741609
-0.4215596552 0.4745732414 -0.0437871379 -0.0159504253 -0.0049002644 -0.0018698046
0.4313267701 0.9861458966 -0.3521975862 0.0009479425 -0.0036792759 -0.0085752644
-0.2241042529 0.4955478046 0.1431783103 -0.0019485172 0.0107213103 -0.0014333678
-0.4000607586 0.5014826897 0.3735031494 -0.0142955287 -0.0069684598 0.0032243218
-0.2954264943 0.4904248506 0.4145909425 -0.0007479310 0.0102010920 0.0012221494
-0.2187247701 0.4256357241 0.3080153678 -0.0015674138 0.0103434943 -0.0027424943
0.4837426322 0.5881749310 0.1181127471 0.0049879195 -0.0039246437 -0.0003999885
-0.3390527701 0.9547176092 -0.3965656207 -0.0106602069 -0.0011810115 -0.0103164943
0.1491592989 1.0621504483 -0.4252873563 -0.0080998276 0.0035495977 0.0106200920
-0.3226880920 0.4432939540 0.0949026667 0.0029709540 0.0072996092 -0.0013881149
0.0778118276 0.4597700690 -0.1275118506 -0.0057471264 0.0114942529 0.0000000000
-0.3960991379 0.5840701379 0.2947032299 0.0037932299 0.0062367701 -0.0012673678
0.3694974483 0.4236787356 0.1247711609 0.0023611954 -0.0080604138 0.0011705287
-0.3318941149 1.1277916552 -0.4430084713 -0.0096929655 0.0006005172 -0.0106152529
-0.2761251954 0.9895529885 -0.4343001264 -0.0098251724 -0.0030982644 -0.0102702414
-0.3787002529 0.5556225862 0.2868191034 0.0035483448 0.0064844713 -0.0018738621
-0.1926616092 1.0731716782 -0.4755082414 -0.0080996437 -0.0006774023 -0.0111901379
0.0986775747 0.8910858276 -0.3813198161 -0.0085833908 0.0020456782 0.0108721839
0.2478523218 0.5003629655 0.4141151149 -0.0001419195 -0.0062256437 0.0052372069
-0.1396500115 0.2795951494 -0.0737962069 -0.0089099540 -0.0110121494 -0.0003258736
0.2900324368 0.4637105632 0.2865428276 -0.0110909195 0.0098266667 -0.0025971379
0.2425450345 0.5939214368 -0.1954022989 -0.0011146782 0.0048996782 0.0092648966
0.0466781609 0.3333333333 -0.0974029195 -0.0055374943 -0.0114843908 -0.0001397471
-0.1757448391 0.4712643678 -0.2672475632 -0.0053531034 0.0085846897 -0.0072715862
-0.2410669195 1.0859334713 -0.4192668391 -0.0057471264 0.0039397126 0.0107924713
0.2424898046 0.3317877701 -0.2419607931 -0.0020056322 -0.0108080575 -0.0002373908
0.4572337356 0.6173876207 0.1068984713 -0.0096379080 0.0093275747 -0.0044847931
0.1544747241 1.1053236207 -0.4482758621 -0.0074558276 0.0059547126 0.0095483448
0.1488501839 0.4597701609 -0.1048819310 -0.0083151034 0.0110846897 0.0002196552
-0.3850574713 0.0016789425 -0.0702642299 -0.0172413793 0.0000000000 0.0000000000
-0.4406740460 1.1724137931 -0.3591081954 -0.0083099770 0.0111787471 0.0000000000
-0.2618392874 0.6287495402 -0.2988505747 -0.0080230230 0.0000000000 -0.0105515402
-0.2792838506 0.3435324253 -0.2528735402 -0.0057471264 0.0055675862 -0.0091880805
0.4466670230 1.0678450460 -0.3573704023 0.0008024023 -0.0024975402 -0.0091060000
-0.3372932529 0.1189199540 0.3747744943 -0.0043282989 0.0027499425 0.0110076437
-0.0248609655 0.4631120115 0.1053216667 -0.0056290460 0.0113837356 -0.0015707356
0.2632746207 0.5310625977 0.2620080115 -0.0092988736 0.0107551149 -0.0018424828
-0.2519636897 0.4166468506 0.2278196437 -0.0001400345 0.0093996552 -0.0031125172
-0.2183809885 0.4861464253 -0.1987901034 -0.0029834023 0.0107982069 0.0023804253
0.1710934598 0.7378196322 -0.3333333333 -0.0020519310 0.0036951954 -0.0101367586
0.2392424713 0.7500292874 -0.3889994598 -0.0026505172 -0.0022579195 -0.0108346207
0.3978616552 0.4495857471 -0.0548130920 0.0038074138 -0.0062927586 -0.0005656897
-0.2133401034 0.4212287356 0.4712643678 -0.0088159885 -0.0064118046 0.0084422644
0.0085011494 0.4597701149 -0.1939731494 -0.0057471264 0.0114942529 0.0000000000
0.2112397356 0.3128520920 0.0994758276 -0.0028591034 -0.0109762069 0.0015297241
-0.2684112644 0.3899527356 -0.1056157011 0.0007268391 0.0094087011 0.0012677586
-0.2384326552 1.0983148391 -0.4698641494 -0.0082435632 -0.0001550460 -0.0111900920
-0.0494505632 0.4712643678 0.1486214598 -0.0054376667 0.0114698161 -0.0003532874
0.1043191264 0.4942528736 0.3804694828 -0.0072543678 0.0112310690 0.0011033333
-0.2910850345 0.5507149540 0.2897132184 -0.0016309770 0.0106479195 -0.0012408161
-0.3830673448 0.5134992874 0.0292268851 0.0032963793 0.0070002989 -0.0010890920
-0.2057806437 0.4482758621 -0.2794765172 -0.0032926437 0.0109905517 -0.0013114943
0.3458347931 0.5751427816 -0.2530886552 -0.0070465862 0.0032066897 0.0108233333
-0.0513449540 0.4800627701 0.4224256322 -0.0052574828 0.0104953333 0.0040995747
-0.2807672184 0.4970914483 -0.0489556207 -0.0044198851 0.0112695402 -0.0016417471
0.1931702184 0.4942528736 0.4173370000 -0.0092660000 0.0083478621 0.0067078621
0.3463277701 0.4863822299 0.4318826667 0.0009050575 -0.0077324713 0.0051782874
0.3926121954 0.5898186207 0.2719121724 -0.0154687126 0.0060737931 -0.0008136207
0.2107110460 0.3575952069 -0.1015719770 -0.0116323218 0.0097850345 0.0010651724
-0.3376567471 1.1125134023 -0.3874477471 -0.0007774368 0.0034213793 0.0097690115
-0.1436560230 0.4139325402 -0.3505857816 -0.0091325632 -0.0035238736 -0.0103885747
0.4581892989 1.1607038161 -0.3636497586 0.0015948851 0.0044378621 -0.0075763908
0.2639796782 0.5693691724 -0.2917104253 -0.0108598506 0.0023105747 0.0100052414
-0.0126699885 0.5381578851 -0.2988505747 -0.0056951954 -0.0036187701 -0.0109082414
-0.3490810230 0.4857961724 -0.2588985057 -0.0137440115 -0.0052846207 -0.0062506897
-0.0797838046 0.2846399770 -0.2643678161 -0.0073060920 -0.0042362529 -0.0089195862
-0.2145594483 0.3572797241 -0.1174790805 -0.0003624828 0.0101088736 0.0008617931
0.0486262759 0.9162364368 -0.4597701149 -0.0045661149 -0.0027647586 -0.0110590345
-0.0879162069 0.7433352414 -0.3448275862 -0.0057471264 0.0000000000 -0.0114942529
0.0599044598 0.5224474368 -0.3921061149 -0.0052303908 -0.0026946092 -0.0111439770
0.3546280000 0.7016734368 -0.3177857931 0.0030741839 -0.0027679195 -0.0068107816
0.2296611724 0.5205897586 0.2582059885 -0.0109017126 0.0101136897 -0.0016974023
0.0443165057 0.3983219195 0.3558852989 -0.0060265862 0.0109210690 -0.0035587701
0.4887298506 1.0886492644 -0.3257097241 0.0029202989 -0.0024862184 -0.0070073793
0.1267862299 0.6331036437 -0.3222989540 -0.0052611724 -0.0036293218 -0.0108664828
0.1542309425 0.3088381149 -0.2210300230 -0.0018210115 -0.0103245632 -0.0031130230
-0.2735072644 0.4976451954 -0.2267210460 -0.0106053448 -0.0103370805 0.0000000000
-0.1229298161 0.6945753908 -0.4137931034 -0.0077064483 -0.0016807931 -0.0111918161
-0.1438590575 0.4045001954 -0.2665691609 -0.0075501609 -0.0079284368 -0.0078724253
0.1268069770 0.7525033218 -0.3370697586 -0.0010548161 0.0080100115 -0.0064846207
0.0064368966 0.4842338966 -0.2765997126 -0.0044463793 -0.0064397931 -0.0094003678
-0.4124614253 0.9537093908 -0.3479704368 -0.0124015862 -0.0030909885 -0.0088276667
0.3786234368 0.4461489310 -0.1580394713 0.0030030230 -0.0067456667 -0.0029518161
-0.1956619425 0.4742677586 -0.2122292989 -0.0076047931 -0.0109185287 -0.0021563563
-0.0449341724 0.9467052644 -0.4676055057 -0.0060302874 -0.0027276092 -0.0111480000
-0.0380440690 0.4827586667 0.2636996552 -0.0052896897 0.0113875287 -0.0013258851
-0.0805678276 0.7936785517 -0.3678160920 -0.0049163793 0.0020995977 0.0112460115
0.2208160115 0.7995538851 -0.3464885632 -0.0084328161 0.0019147931 0.0110005402
-0.1313413908 0.3763286092 -0.2485951839 -0.0028355862 0.0091187931 0.0063158966
-0.1838965747 0.5604884253 -0.1637873563 -0.0082684598 0.0031225977 0.0106963678
-0.0694322069 0.4827586207 0.3964497356 -0.0052749080 0.0112937471 0.0012899770
-0.3930064253 0.5331393678 0.0727028736 0.0034721609 0.0066508161 -0.0016580230
0.3685024253 0.7495952069 -0.2873563218 -0.0119750920 0.0020759885 0.0082508736
0.3318622644 0.1208267816 0.3583808966 -0.0167744598 -0.0028976552 -0.0003755402
0.2962762069 0.4133538391 -0.2607557816 0.0009197931 -0.0057793333 -0.0072203793
0.4885057471 0.6133891149 0.1577262759 0.0052912874 -0.0021060230 -0.0008001839
0.2913552644 0.3611948736 0.1787096437 -0.0000981379 -0.0097791494 0.0013920575
-0.2787447126 0.5023626092 -0.0078091494 -0.0024226667 0.0108799655 -0.0015982299
0.0231393678 0.8751962644 -0.4482758621 -0.0057471264 -0.0022733448 -0.0112671494
-0.2471064023 0.3891580460 0.3801479080 -0.0102279425 -0.0098515172 0.0038572069
0.3051899195 0.4013643793 0.3034306897 0.0002718506 -0.0097452759 0.0007859195
-0.0653010345 0.6827747701 -0.4137931034 -0.0078852644 -0.0017986092 -0.0110249080
-0.2516210690 1.0000965517 -0.3863582414 -0.0014274598 0.0035805057 0.0100023678
-0.1911282184 0.4819041264 -0.3519600575 -0.0101586897 -0.0031316437 -0.0101373333
-0.2330208276 0.4133446322 -0.2201052644 -0.0109299540 -0.0083954713 -0.0058921609
0.1040632644 0.4609566207 -0.3720430000 -0.0045792989 -0.0032729310 -0.0109322529
0.2450080920 0.3725040460 -0.0048562874 -0.0109572759 0.0101018046 -0.0006404713
0.2866660115 0.4890065632 -0.2540647126 -0.0128664598 0.0046465862 0.0074243563
0.3717231724 0.5591131609 0.2561573563 -0.0057471264 0.0110761954 -0.0030554943
0.2072039655 0.5714952299 -0.3130646667 -0.0088200575 0.0021838966 0.0108269885
0.2068106552 0.9192555747 -0.3777527241 -0.0069417586 0.0022122989 0.0111858046
0.2880128046 0.8986741034 -0.4006887816 -0.0010483103 -0.0029758621 -0.0100489425
-0.0992656897 0.2758620690 -0.1145598276 -0.0072033908 -0.0113582874 -0.0003577931
-0.1012347126 0.4266202644 0.4400345402 -0.0081555287 -0.0098604138 0.0051491149
-0.1795653448 0.6789755057 -0.2192053908 -0.0067120000 0.0067731839 0.0092177011
0.2086539885 1.0590010000 -0.4173177126 -0.0081685747 0.0050408966 0.0099334138
-0.2960995172 0.4999045057 -0.3137971724 -0.0121291264 -0.0033872414 -0.0088083793
0.2379179310 0.3625593678 -0.2568253678 0.0003849425 -0.0076985632 -0.0055528966
-0.3385605172 0.6884966897 -0.3334671149 -0.0118505402 -0.0026549885 -0.0093590460
0.0548983448 0.2873563218 0.1543817816 -0.0045065402 -0.0113152414 0.0015612874
-0.4228126667 0.5796213218 0.4004519195 -0.0061288161 0.0040739540 0.0093943103
-0.2642348966 0.3840110115 0.0305627471 -0.0002071379 0.0097903333 -0.0018926782
-0.4477748161 0.9237842759 -0.2958434483 -0.0163053103 -0.0043794023 0.0003529080
0.2762028736 0.3696094368 0.2735627241 0.0004462759 -0.0093054368 0.0023793908
-0.0856368966 0.4597701149 -0.1026574713 -0.0057471264 0.0114942529 0.0000000000
-0.4289950690 0.4952416207 0.1615689770 -0.0148311609 -0.0068590920 0.0015766552
-0.1551046552 0.4693250115 -0.1782254713 -0.0036955287 0.0111253908 0.0012644023
-0.3671225632 1.0085862299 -0.3972452069 -0.0116420805 -0.0031949655 -0.0092731724
0.0084017011 0.4973764138 -0.1379310460 -0.0071954713 0.0011029540 0.0112980345
-0.0093095172 0.3370109655 0.0262047701 -0.0057471264 -0.0113787241 0.0016255287
0.3721598966 0.4238840345 -0.1122830000 0.0028540920 -0.0074510115 -0.0012052759
0.1958453793 0.4712643678 -0.2670592414 -0.0091508046 0.0107535517 0.0000000000
0.3266933448 1.0323966897 -0.3667730345 -0.0103775517 0.0027083793 0.0101121609
-0.0256781724 0.9221994713 -0.4597701149 -0.0057471264 -0.0027231954 -0.0111666667
0.3223058276 0.4939075747 0.3175747931 -0.0135713333 0.0080367126 -0.0023911264
-0.3922258161 0.9971023218 -0.3757261954 -0.0111746782 -0.0022644828 -0.0097642529
0.2637023448 0.3268090575 -0.0785703333 -0.0001076437 -0.0099497356 -0.0002727241
-0.1584236092 0.3978239080 -0.3387270345 -0.0094476092 -0.0059721379 -0.0088297931
0.2519778966 0.7124305862 -0.3054933678 0.0017988621 0.0027348966 -0.0074890230
-0.2959657011 0.9029267356 -0.3455214713 -0.0022886092 0.0022476897 0.0107177011
0.2150336552 0.3646716667 -0.2760038736 -0.0008817356 -0.0075155862 -0.0071377701
0.2473809310 0.4112989540 0.4265398046 -0.0012786437 -0.0089164023 0.0056752069
0.4762275977 0.5739287471 0.0945451839 0.0048729885 -0.0039078736 -0.0016425862
0.0588875862 0.3197398736 0.3385299770 -0.0035802759 -0.0107217011 0.0033365287
-0.3654116092 0.5349727931 0.4264686437 -0.0026758851 0.0073816322 0.0078960230
-0.0174024023 0.5966187816 -0.4134323333 -0.0057602299 -0.0016734713 -0.0113674138
0.0432665517 0.4141129655 0.4458789655 -0.0076726667 0.0112608046 -0.0011328851
0.0498518276 0.7040369310 -0.3563218391 -0.0076720230 0.0017187126 0.0111482989
-0.3540510230 0.5129990000 0.2521733908 -0.0136718161 -0.0080700920 0.0017826437
0.0972421839 0.3658603793 0.4328701839 -0.0039559540 -0.0105082644 0.0040626437
0.2416846667 0.6644474828 -0.2276658276 -0.0001017356 0.0047894483 0.0087229425
0.0495390230 0.4827586207 0.3385232529 -0.0057471264 0.0114942529 0.0000000000
0.0976264138 1.0134616667 -0.4157604368 -0.0075983793 0.0048174598 0.0102455977
-0.2995222644 0.5466486667 0.3588895517 -0.0016295287 0.0103450460 0.0023454023
0.2378713678 0.4163451379 -0.3103448276 -0.0028204253 0.0000000000 -0.0110193103
0.1734996207 0.3563218621 0.0326222644 -0.0031980000 -0.0111145747 0.0012851264
0.0680794138 0.7489410000 -0.3430130230 -0.0057471264 0.0081276667 -0.0081276667
0.3762646782 0.9362977126 -0.3137027241 -0.0109609540 0.0020588276 0.0100271149
0.2896034828 0.4777924598 0.3519232299 -0.0135081494 0.0082345287 -0.0016593103
-0.3640498506 1.1328464368 -0.4300440690 -0.0100426207 -0.0000514943 -0.0106486322
-0.2613624713 0.4181179195 -0.1958265862 -0.0126955977 -0.0078141494 -0.0047568161
0.0981777011 1.0178726897 -0.4802007126 -0.0057201954 -0.0027905632 -0.0111487701
0.1513742644 0.2910334253 -0.1369052759 -0.0019167356 -0.0107994828 -0.0007996437
-0.0057471264 0.6317041724 -0.3509466207 -0.0057471264 0.0000000000 0.0000000000
0.3654611954 0.7619154483 -0.3310393793 0.0021992644 -0.0026222644 -0.0078384368
0.0196828276 0.9839089885 -0.4114947241 -0.0057471264 0.0034654253 0.0109537241
0.1864684138 0.4271041149 0.4631802759 -0.0057471264 0.0000000000 0.0000000000
0.3678860690 0.0114942529 -0.1093059310 -0.0057471264 0.0114942529 0.0000000000
-0.0016236782 0.4813792299 0.2588501839 -0.0080744253 0.0111069655 -0.0015659195
0.2635054483 0.4743537931 -0.3149283793 -0.0013394368 -0.0023615632 -0.0102885632
0.0708202874 0.2984281264 0.2057205747 -0.0039816897 -0.0111322989 0.0022248851
0.3181370230 0.5123624253 0.0259812069 -0.0014313793 0.0102544598 -0.0025858736
0.0736006552 0.4950558046 -0.3218390805 -0.0057535862 0.0022404598 0.0112733448
0.2560453333 0.4905879195 -0.0648011839 -0.0082548851 0.0111157356 -0.0011682529
0.1782519655 0.4827586207 0.1233094943 -0.0086601724 0.0110740460 -0.0007931379
-0.0055322299 0.5531343448 -0.1494252874 -0.0057733333 0.0016042069 0.0112963448
0.3172043103 0.4285790920 -0.1078069885 -0.0138634943 0.0078429310 0.0021198966
-0.2291050575 0.4827585747 -0.1011100230 -0.0023849310 0.0109759885 0.0001798506
0.0160828966 0.4780577701 0.4117005402 -0.0064812759 0.0110663793 0.0028005977
0.2699120575 0.9661308391 -0.3678160920 -0.0097603218 0.0032922184 0.0102266897
-0.0314966782 0.7800467471 -0.4367816092 -0.0062797241 -0.0007101264 -0.0114027701
0.0646047356 0.3482817241 0.1137990115 -0.0035681379 -0.0111113908 0.0016657586
0.0374305402 0.2874461609 -0.2416488851 -0.0057471264 -0.0106721494 -0.0042688621
-0.0057471264 0.3295252759 -0.3147529310 -0.0139632644 0.0000000000 0.0000000000
0.2020019655 0.4827585747 0.0329627126 -0.0066335747 0.0113704138 -0.0002890920
-0.1759622299 0.5857742989 -0.3218390805 -0.0047458391 0.0018344828 0.0112828391
-0.3168884828 0.3973794253 0.2771815172 -0.0126078046 -0.0090670230 0.0016237931
-0.2660074828 0.3373674828 0.3102715402 -0.0005465632 -0.0063181149 0.0075895517
-0.0423218851 0.3547977126 -0.2383310575 -0.0048377241 0.0095087011 0.0063806782
0.1234317816 0.7070387011 -0.2330321839 -0.0084435977 0.0062091379 0.0084549425
0.4075091149 0.8743825402 -0.2873563218 -0.0061248391 0.0001259080 0.0114184138
0.1786816092 0.4712643678 -0.1023738736 -0.0074813333 0.0112100920 0.0001734253
-0.3685755632 0.5302545862 0.2581903333 -0.0153813793 -0.0057928736 0.0005811724
-0.1515045287 0.3636988506 0.4233295402 -0.0085909425 -0.0099777126 0.0047602414
0.1213710690 0.3563218391 0.1054232759 -0.0036679770 -0.0111577586 0.0014969425
0.0715369655 0.3706836092 0.2298608966 -0.0072175057 0.0110796207 -0.0025496437
0.1206067586 0.4713434713 -0.3103448506 -0.0057634943 0.0022681379 0.0112654598
-0.2551100115 0.7672884713 -0.3908045977 -0.0091112759 -0.0020884253 -0.0107659425
0.0423745632 0.4597701149 0.0501964483 -0.0064320460 0.0114181149 -0.0007683448
0.3415249310 0.7174069655 -0.2873563218 -0.0098722644 0.0014302989 0.0105228506
0.3456266322 0.4739836782 -0.2539947586 0.0026271954 -0.0052328391 -0.0052265287
-0.1101779540 0.7469527126 -0.4252873563 -0.0066355172 -0.0013220000 -0.0113607816
-0.1661273103 0.7604058851 -0.4137931034 -0.0086961839 -0.0023026207 -0.0108666782
0.1315091034 0.7471264368 -0.2677020345 -0.0055221954 0.0090769425 0.0057427241
-0.3821110345 0.5391463333 0.1587762414 0.0038288506 0.0060803793 -0.0016781149
-0.3035106667 0.2861572299 -0.2608268506 -0.0167860115 0.0032029770 0.0000000000
-0.1426534598 0.5529083563 -0.3218390805 -0.0055435172 0.0018003333 0.0113310805
-0.2327687011 0.4640855057 0.4394476897 -0.0011171609 0.0105088046 0.0004585862
0.2157168161 0.4523660920 0.4063890805 -0.0003573678 -0.0082902874 0.0053733563
0.2268573678 0.5284638736 -0.3519465977 -0.0022155747 -0.0031447701 -0.0104472874
-0.3091514023 0.5337353793 0.3858048506 -0.0057471264 0.0081276667 0.0081276667
-0.1916977701 0.3977687011 -0.2358278736 -0.0094278046 -0.0082105057 -0.0070396782
-0.0925676552 0.3448275862 0.0221904253 -0.0066451149 -0.0113669770 0.0013710345
-0.0703338276 0.3463707816 0.1425606207 -0.0046344138 0.0111121264 -0.0025706207
0.2301271149 0.5746202989 -0.3045515287 -0.0086748506 0.0023430000 0.0108246322
-0.1894631034 0.4752225287 -0.2413793103 -0.0086652989 -0.0095284713 -0.0051677931
-0.4273209885 0.6013047701 0.3872009770 -0.0048861954 -0.0062512414 -0.0094829080
0.3269608621 0.4659269885 0.1731795862 -0.0145503793 0.0072635287 -0.0010737816
-0.0502598046 0.2670264368 -0.0150125862 -0.0071397241 -0.0112639310 0.0014959655
-0.1839201264 1.0809199885 -0.4266438046 -0.0036202529 0.0044176897 0.0103237356
0.3049399540 0.5347647011 -0.2611218851 -0.0136025517 0.0039379770 0.0073797701
-0.3850574713 0.0020697586 -0.1284393793 -0.0172413793 0.0000000000 0.0000000000
-0.2997932414 0.2491028851 0.3371910920 0.0053242299 -0.0023329080 0.0017397356
-0.2313742414 0.3752886437 -0.0461149655 -0.0112489540 -0.0100392874 -0.0009792644
0.2823288621 0.3358652414 0.3103448276 -0.0052382414 0.0005088851 0.0107745747
-0.1205635402 0.7852205287 -0.3613570460 -0.0050088851 0.0020953908 0.0112435517
0.2903527471 0.3650654138 -0.1785867816 0.0009772299 -0.0087681839 -0.0030616437
0.3074541839 0.4281438621 -0.0394208276 0.0024092299 -0.0080836552 -0.0000938391
-0.3041511609 0.8643800575 -0.3320260805 -0.0015435402 0.0024528161 0.0103490230
-0.1830708736 0.3563218391 0.0947344713 -0.0027156207 0.0109657126 -0.0015542184
-0.3451390575 0.5068447931 0.0526585172 -0.0168800000 0.0000000000 -0.0027149310
-0.3192979425 0.5813908161 -0.2686450115 -0.0000576437 0.0028682874 0.0095000690
-0.3353184253 0.4335522759 -0.2309504368 -0.0139685402 -0.0058237586 -0.0055048966
0.4083395287 0.5061874368 0.3184139655 0.0034365632 -0.0067468506 0.0014935402
0.1449249540 0.9061158276 -0.4473107931 -0.0027160690 -0.0022322529 -0.0108501494
-0.2605448276 0.8627238621 -0.3553597701 -0.0020596092 0.0023510115 0.0106122414
0.0498159655 0.2643677931 -0.0425662759 -0.0048283563 -0.0113604368 0.0007566667
0.1099204368 0.3105865172 0.2262064368 -0.0039104943 -0.0111695632 0.0019735862
0.4462058851 0.5335241264 0.2258648276 0.0038139425 -0.0061296207 0.0016876322
0.3502009655 0.9201717126 -0.3834338621 -0.0009016092 -0.0022424943 -0.0101474023
0.2906634023 0.5272392644 0.1446599195 -0.0101495517 0.0104550000 -0.0018256437
0.0311412989 0.9181002874 -0.3908045977 -0.0058065287 0.0021965287 0.0112796437
-0.3136992644 0.4986912529 -0.2931645747 -0.0125787931 -0.0035981264 -0.0085030690
-0.2576159770 0.4587654023 0.3415959885 -0.0127832759 -0.0089810345 0.0011473908
-0.1716569310 0.3280755862 -0.2656140575 -0.0102511149 -0.0091547471 -0.0051016782
-0.3121915747 0.3716130345 -0.1608156782 -0.0123022644 -0.0090797586 -0.0021087701
0.4749280575 0.5956177126 0.3167825632 0.0035400230 -0.0066789080 0.0005852644
-0.0973488736 0.3471181379 0.3865342874 -0.0078805402 -0.0106670805 0.0037022414
0.1795417356 1.1190155747 -0.4597701609 -0.0049054598 0.0000000000 -0.0114109080
0.2649997241 0.5213212644 0.1948838506 -0.0106857586 0.0102974138 -0.0010855632
0.4897553908 1.1239374943 -0.3384939425 0.0035967816 0.0020274598 -0.0045320460
0.1397016322 0.3647343908 0.1256042644 -0.0030432414 -0.0109597241 0.0020926092
-0.1588852414 0.4942528276 0.2656925517 -0.0036462529 0.0112096437 -0.0008745057
-0.1208128966 0.3333333333 -0.0601851724 -0.0043949540 0.0113301494 0.0000250460
0.2303965747 0.4942528736 0.0932118621 -0.0099251609 0.0106047011 -0.0013887011
-0.3736053563 0.5146031034 -0.1927640000 -0.0057604598 0.0104239195 0.0047814713
0.2190934598 0.4827586207 -0.2322585402 -0.0057471264 -0.0114942529 0.0000000000
-0.2725875632 0.7506895402 -0.3830444943 -0.0098770230 -0.0020581724 -0.0104822529
-0.2650180920 0.3356103793 -0.1409132069 -0.0119823103 -0.0091880000 -0.0029147586
-0.3971929425 0.5564849655 0.1528065287 0.0037327011 0.0063076782 -0.0014667241
-0.2403306667 0.4874571034 0.0121503563 -0.0008142184 0.0102922644 -0.0008327471
0.0956013103 0.3478003333 0.0616922759 -0.0044697126 -0.0112949425 0.0015858736
-0.0057471264 0.3542500230 -0.3301423563 -0.0057471264 0.0000000000 0.0000000000
-0.1014529770 0.4763601034 0.1927967931 -0.0045371954 0.0113348966 -0.0012063908
-0.3177548506 0.4959157701 0.3632987931 0.0010733218 0.0089770345 -0.0020799195
-0.3656941954 0.8030953218 -0.2988505747 -0.0006321149 0.0017302299 0.0098251034
-0.0638505632 0.8424765057 -0.3793103448 -0.0052781494 0.0023021954 0.0112295632
0.4455978161 0.5200719310 0.0590426667 0.0044162069 -0.0052989310 0.0005637471
-0.2255352069 0.3118651379 0.0333222644 -0.0097219195 -0.0107659540 0.0003783908
0.3182468621 0.3924054598 -0.1942941494 0.0014078276 -0.0081504713 -0.0037601494
-0.1066551724 0.3103448276 0.2475053448 -0.0072585977 -0.0112035747 0.0020113218
-0.2059801034 0.3587371609 0.0168025517 -0.0013157011 0.0105534023 -0.0005951149
-0.3836976897 0.9247874138 -0.3080678276 0.0005404598 0.0023761609 0.0093031149
-0.0034937241 0.3462895632 0.0978019080 -0.0056776897 -0.0113752069 0.0016339655
-0.3863663103 0.5539575747 0.2508681724 0.0036450115 0.0064971034 -0.0012652989
-0.0057471264 0.3122559655 -0.1357112299 -0.0057471264 0.0000000000 0.0000000000
0.1745216437 0.3892660920 0.4441189770 -0.0019751609 -0.0085848161 0.0064641494
0.1064024483 0.9865371839 -0.4022988966 -0.0072575057 0.0028000230 0.0109656207
-0.3155033908 0.4007186897 -0.2167019195 -0.0138805977 -0.0071451149 -0.0038196437
-0.2996893218 0.4803044138 0.3063669540 -0.0122057816 -0.0093643333 0.0012992414
0.1039801379 0.9272653908 -0.3908045977 -0.0063583678 0.0020102989 0.0112716782
-0.0937424943 0.5316329195 -0.3908045977 -0.0063994943 -0.0017866897 -0.0113062529
0.3676977011 0.0000000000 -0.2520736782 -0.0057471264 -0.0114942529 0.0000000000
-0.2863171494 0.5632183908 -0.2179652414 -0.0124851034 0.0065642529 0.0065642529
-0.0941583218 0.6443280575 -0.1899801264 -0.0048330690 0.0058494828 0.0096241839
-0.0049954023 0.3333333333 -0.0896970460 -0.0057471264 -0.0114942529 0.0000000000
-0.3009751034 1.0475577816 -0.3856911954 -0.0017999425 0.0028993908 0.0103659425
-0.0708091494 0.4022560575 0.3523551264 -0.0070307701 -0.0109442069 0.0031562874
0.1756956207 0.3120368851 -0.2102806667 -0.0019118391 -0.0103471034 -0.0030052759
-0.1206462644 0.4942528736 0.3516131264 -0.0050068161 0.0114367586 0.0000000000
0.2556393448 0.6050527241 -0.2154094483 0.0023805402 0.0000000000 0.0081276667
0.2958778966 0.3771663563 -0.1984468621 0.0004038391 -0.0089645057 -0.0036472644
0.0650214713 0.3262244023 -0.3067903793 -0.0039019425 -0.0083631379 -0.0076276207
-0.3620689655 0.0062544023 -0.2837914598 0.0057471264 0.0000000000 0.0000000000
0.2269068276 0.3740895632 -0.0195559655 -0.0003983678 -0.0100771379 -0.0007724598
0.1754713563 0.7663087471 -0.3462483908 -0.0078250460 0.0018560230 0.0111361264
0.4588584483 1.1009500460 -0.3066780000 -0.0099926092 0.0037061034 0.0098061034
0.3369421724 0.1537906667 0.3611915862 0.0054090920 0.0027649540 0.0000000000
0.3654764598 0.4379728046 0.2767874138 0.0025772989 -0.0076435057 0.0019554138
-0.2222479885 1.0654121494 -0.4156830460 -0.0026513103 0.0040180920 0.0100075517
-0.1927871494 0.3449144023 -0.2662270230 -0.0111480345 -0.0083104943 -0.0057185172
-0.4696479425 0.6629849195 0.2525907471 -0.0001299425 0.0099832529 -0.0004766092
0.1086959655 0.6355550920 -0.3399232414 -0.0060918161 0.0017384828 0.0113490000
-0.0200281954 0.4712643678 0.2310118161 -0.0045473678 0.0113230345 -0.0006981954
0.1577947471 0.4827586207 0.1566754943 -0.0063330920 0.0113735632 -0.0014696207
-0.0545606552 0.3559465057 0.4360309425 -0.0067270115 -0.0104172069 0.0046838161
-0.0651987701 0.2873563218 -0.2388531954 -0.0069490230 -0.0108096782 -0.0036824138
-0.3322411724 0.3914364368 0.1535050575 -0.0131401839 -0.0086790575 0.0013957356
-0.0993129195 0.7586206897 -0.3017218966 -0.0057471264 0.0114942529 0.0000000000
0.0551679425 0.8887650115 -0.4501296322 -0.0052392759 -0.0025763333 -0.0111531264
-0.1091954023 0.7196624598 -0.2410944598 -0.0126227701 0.0039049885 0.0057752529
-0.3256438736 0.6659984368 -0.2886304253 -0.0008936207 0.0023647701 0.0101331724
-0.2606052989 0.5127686207 0.4022988506 -0.0071836552 0.0078048161 0.0078048161
-0.3335722529 0.4816311379 -0.1997830575 0.0019655862 0.0072111609 0.0042542874
-0.4008155057 1.0715063678 -0.3935583678 -0.0120363448 -0.0025444828 -0.0092569540
-0.1251023678 0.5081796322 -0.1494252874 -0.0058480460 0.0000504598 0.0114890115
0.2588271609 0.4969991954 -0.0105722759 -0.0097503908 0.0106986782 -0.0005393103
0.0268150115 1.0498363448 -0.4942528736 -0.0052193103 -0.0014710920 -0.0112618391
-0.1311488621 0.3772263333 0.2267605172 -0.0034320115 0.0109229885 -0.0027135172
0.1817471264 0.2988505747 -0.1030170000 -0.0029895057 -0.0111420115 -0.0005563678
-0.1299104483 0.9277225402 -0.4581141379 -0.0073687931 -0.0025746322 -0.0110634713
-0.0366470460 0.4712643678 0.2133642184 -0.0051792069 0.0113656207 -0.0012818736
-0.2931034483 0.5493300920 -0.2363814253 -0.0172413793 0.0000000000 0.0000000000
-0.0057471264 0.9925074943 -0.4783165977 0.0050513908 0.0000000000 0.0000000000
0.3190183563 0.2131631609 0.3305477241 -0.0057471264 -0.0031591609 -0.0110514138
-0.0454941494 0.7701149425 -0.3166649080 -0.0057471264 0.0114942529 0.0000000000
-0.3696029885 0.4213271264 -0.1274477471 -0.0144213793 -0.0072930115 -0.0017077816
-0.2365154138 0.4024328966 0.1599968046 -0.0103260920 -0.0103286782 0.0020581494
0.1203683448 1.0246281264 -0.4827586207 -0.0045344023 -0.0027529540 -0.0110678276
-0.1643705862 0.3788308276 -0.3236556437 -0.0100214598 -0.0065599655 -0.0083643103
-0.0413477356 0.3622308966 0.1615672759 -0.0069107356 -0.0111558391 0.0022071494
0.0001700345 0.7897808046 -0.4367816092 -0.0057471264 -0.0001820805 -0.0114791839
0.0680199425 0.6529639655 -0.3442754598 -0.0061480230 0.0018195287 0.0113176437
-0.4561705747 0.5718795057 0.0387778966 -0.0163461494 0.0000000000 -0.0044316897
-0.0310809540 0.3402531264 -0.1778644943 -0.0071975632 -0.0111030460 -0.0024938736
-0.1270039655 1.0860955287 -0.4909843333 -0.0082087471 -0.0012163103 -0.0110548851
-0.2678706092 0.5251881379 -0.1816637126 -0.0139823908 0.0015240345 0.0074810345
0.0421541724 0.5934668736 -0.4070838391 -0.0036210920 -0.0016427241 -0.0111522299
0.2311478506 0.4081092874 -0.2236015287 -0.0111156552 0.0085996207 0.0053685287
0.2919961149 0.5049907586 -0.3115691724 0.0024206552 -0.0029412529 -0.0073903678
-0.1354394943 0.4658870460 -0.2758620690 -0.0057471264 0.0040496437 -0.0099544023
-0.1959124368 0.3432487126 0.3056275402 -0.0099639770 -0.0102769080 0.0028510115
0.1485049655 0.3333333333 0.3328074368 -0.0033978966 -0.0109388161 0.0025850690
0.2172593793 0.5046882184 -0.2971447011 -0.0089071954 0.0023730920 0.0107527471
-0.1649019540 0.3448275862 -0.1489552414 -0.0029437011 0.0109818161 0.0018232529
0.0334217356 0.3448275632 0.0829046437 -0.0060233218 -0.0113794943 0.0015861839
0.0660549195 0.5452779080 -0.3978137356 -0.0041877701 -0.0022011264 -0.0111002299
-0.0169915977 0.3446854138 0.0569025862 -0.0057471264 -0.0113787241 0.0016255287
-0.1211449655 0.3571148621 -0.2305604828 -0.0023849770 0.0101002989 0.0043090920
0.0862068966 0.5952029195 -0.1646612759 -0.0028137126 0.0041550000 0.0101829425
0.3740478161 0.5057471264 -0.1610194023 -0.0057247931 0.0109017011 0.0036190115
-0.2188426437 0.6890370115 -0.2407611954 -0.0057471264 0.0075605057 0.0086195632
0.2928440690 0.6304563333 -0.2979867816 -0.0099461954 0.0021299195 0.0104849195
-0.3530061609 0.0707339195 -0.3264131034 -0.0056923448 -0.0026712414 0.0074077126
-0.3819131954 0.0000000000 -0.2969374598 -0.0057471264 -0.0114942529 0.0000000000
-0.1646158966 0.4658703908 -0.0391704598 -0.0027508046 0.0110259655 -0.0009382299
-0.2474486897 0.4445783218 0.3215962989 -0.0002801609 0.0098707816 -0.0021371264
-0.1780968161 0.4918189195 0.1971606782 -0.0052175172 0.0113311609 -0.0015440805
-0.4712985632 1.1047212414 -0.3052342299 -0.0029712644 0.0053330345 0.0095985862
-0.0395906437 0.4827585747 0.3485756552 -0.0057471264 0.0114942529 0.0000000000
0.1866860690 0.4205921609 0.3237014368 -0.0100768161 0.0102201494 -0.0029191494
0.1100315862 0.3333333333 -0.1373656207 -0.0060909195 0.0114752529 0.0003140920
0.4260153908 0.9513923333 -0.3336441034 0.0008813218 -0.0027482874 -0.0089512874
-0.3390384138 0.4996183103 0.2346343333 -0.0133627471 -0.0081778851 0.0026192184
-0.2115539655 0.7093910115 -0.2517838736 -0.0092502874 0.0060147816 0.0087969425
0.3178505747 0.8106985862 -0.3726839080 -0.0006660115 -0.0016696207 -0.0100899655
0.0369245977 0.4827586207 0.2606099885 -0.0054227241 0.0113807011 -0.0013495172
-0.1061181034 0.7586206897 -0.3241425402 -0.0057471264 0.0114942529 0.0000000000
0.0072086897 0.3876918506 -0.2811308046 -0.0057471264 0.0085165862 0.0076532529
-0.0015968621 0.7620479540 -0.3651270805 -0.0057471264 0.0018278506 0.0113474253
0.3866694713 1.0661268506 -0.3417963103 -0.0124982299 0.0030646667 0.0086566667
-0.2139544023 1.0861768161 -0.4252873563 -0.0046944828 0.0038699540 0.0106340115
-0.3096216552 0.5057471264 -0.0090494023 -0.0078760115 0.0107741724 -0.0025806092
-0.0551846897 0.4597700690 0.0340990690 -0.0052174023 0.0114330230 -0.0007945862
-0.1579686207 0.4771922299 0.1016843563 -0.0026492299 0.0109844598 -0.0010820230
-0.0653677471 0.4712643678 -0.2552125862 -0.0055677356 0.0113079655 -0.0008969770
0.0832068966 0.2916034368 -0.2208247586 -0.0033945287 -0.0107709310 -0.0031999195
-0.4662191494 0.5587766782 0.2015561494 -0.0155245747 -0.0058139195 0.0013809540
0.0255000690 1.0580246092 -0.4370582874 -0.0055235057 0.0067027356 0.0092908736
-0.3850171264 0.5348523908 0.0956040920 0.0040477586 0.0058760345 -0.0012280460
0.1396714483 0.0362953908 0.0114942529 -0.0057471264 0.0000000000 -0.0114942529
0.1088751609 1.1059355517 -0.4712643678 -0.0057471264 0.0000000000 -0.0114942529
0.2337041839 0.8668746897 -0.3588877241 -0.0084548621 0.0025993793 0.0108535862
-0.0057471264 0.2943681724 0.1766715632 -0.0057471264 0.0000000000 0.0000000000
0.3183974828 0.4709084138 0.2322422299 -0.0141586437 0.0076387931 -0.0016656552
-0.2921460000 0.5110154828 0.3864145862 -0.0000176322 0.0074957816 -0.0046671494
-0.0391373333 0.3564700690 0.2189837701 -0.0024906552 0.0108834598 -0.0013762414
0.0409455632 0.3333333333 -0.0196831724 -0.0055896667 -0.0114714828 0.0001989310
-0.3714022759 0.4832753563 -0.0592882989 0.0037600000 0.0064350230 -0.0000455632
0.2336104828 0.3693610460 0.3352198161 -0.0012250230 -0.0100379885 0.0032960460
-0.1766928161 0.4015648046 -0.3226444253 -0.0057471264 0.0000000000 0.0000000000
0.0798947931 0.6337332874 -0.3333333563 -0.0051296207 -0.0034329425 -0.0108576437
-0.3865839655 0.5417563793 0.4115574253 -0.0057471264 0.0000000000 0.0000000000
0.2617089885 1.0693205057 -0.4051351839 -0.0103248391 0.0027429195 0.0101291724
-0.3065782299 0.4272678851 -0.0167257011 -0.0139160230 -0.0079905632 0.0009531494
-0.1046142299 0.4827586207 0.2227059310 -0.0047124023 0.0113709310 -0.0011967126
0.2854623678 0.4816398621 -0.3097528046 0.0011774023 -0.0037048046 -0.0082722299
-0.1823445862 0.4412319195 0.4226937586 -0.0083353793 -0.0098148276 0.0048195747
-0.1493357586 0.3333333333 0.3323719425 -0.0080667471 -0.0109652529 0.0024928851
0.3325013333 0.8370159655 -0.3183492644 -0.0097895977 0.0027385632 0.0103533103
0.1813446782 0.4712643678 -0.0700631379 -0.0088243448 0.0110585632 -0.0000891494
-0.2308696897 0.4565701954 0.4006615172 -0.0006746092 0.0095482759 -0.0038076092
0.1706929885 1.0415672184 -0.4749983448 -0.0033078161 -0.0027774598 -0.0108790460
0.1311676782 0.7586206897 -0.3047242874 -0.0057471264 0.0114942529 0.0000000000
0.1862479425 0.4375010575 0.3990578506 -0.0011401724 -0.0099571149 0.0029215977
-0.0689075057 0.3241666552 0.3461212529 -0.0078897816 -0.0107132759 0.0035710920
0.3722765747 0.5135387586 -0.1916996782 -0.0057471264 0.0106337126 0.0042883218
-0.4321985747 0.5936594598 0.1027360230 0.0022789540 0.0075713793 -0.0030794943
0.4112099885 0.5737701494 0.3949111379 -0.0057471264 0.0000000000 0.0000000000
-0.2648292414 0.5344765287 0.2842334023 -0.0010954253 0.0104359080 -0.0009874713
-0.1315862414 0.3651099770 0.1777118736 -0.0038456782 0.0110980115 -0.0022665862
0.3990493448 0.5188537701 -0.0411397931 -0.0104462989 0.0100513218 -0.0024991724
0.3541779770 0.4861178391 -0.1491812069 -0.0119228506 0.0085946897 0.0042844943
0.2690694943 0.5113299195 -0.2730082184 -0.0107191264 0.0027991494 0.0099458161
-0.0113641494 0.3731374138 -0.2581948851 -0.0057471264 0.0087925287 0.0073166667
0.0464486207 0.3214638851 0.3103448276 -0.0057471264 0.0000000000 -0.0034845517
-0.2127897356 0.3276592529 0.1780559425 -0.0098949655 -0.0106003103 0.0015615977
0.0242408851 0.2678675632 -0.0000024253 -0.0037460460 -0.0111445977 0.0014028851
-0.0724434368 0.4827586207 0.3070710115 -0.0046305862 0.0113478851 -0.0002208046
0.1948627126 0.3092460460 0.0771438161 -0.0016218391 -0.0106596552 0.0010393678
0.3220105862 0.4790200460 0.2558684943 -0.0142170000 0.0075974598 -0.0015124483
0.3964425402 0.8387528391 -0.2970606897 -0.0160338276 0.0051260805 0.0000000000
0.3624955517 0.4946794138 0.0160050460 -0.0148780690 0.0068000345 -0.0014335057
0.2859130115 1.0241772874 -0.3771584598 -0.0101526207 0.0028172989 0.0101958851
-0.1318258276 0.9675192069 -0.4619511954 -0.0066996552 -0.0028855517 -0.0110690690
-0.2074317471 0.4939081494 -0.1609195402 -0.0058326437 -0.0002137931 0.0114060690
0.2937950460 0.4507717241 -0.1850206667 0.0030137011 -0.0055871609 -0.0047466552
0.0225868506 0.4446434368 -0.3819309540 -0.0053192989 -0.0029124138 -0.0110753218
-0.1646409310 0.7574282184 -0.2976580690 -0.0098728621 0.0054955977 0.0088406437
0.0135528161 0.4765410115 0.2394973908 -0.0064830115 0.0113325517 -0.0015252299
0.4402742989 0.5559011839 0.3392110115 0.0034808046 -0.0066657126 0.0015564138
0.2698127471 0.8698327126 -0.3507258046 -0.0100315172 0.0017257011 0.0104740690
0.2057314713 0.4827586207 -0.0041234828 -0.0079218736 0.0112009080 -0.0006292414
-0.3550607701 0.9651981264 -0.3310902874 -0.0008582184 0.0011746322 0.0103341034
0.3837192529 0.4431481149 -0.1188576552 0.0035575402 -0.0065313563 -0.0016211149
0.1693422644 0.9859049080 -0.4584447931 -0.0033085747 -0.0037810460 -0.0105739770
0.3596597011 0.4264154943 -0.1634519080 0.0031038851 -0.0064655747 -0.0033925632
-0.1625195402 0.8488195977 -0.3678160920 -0.0038660230 0.0020025402 0.0111457931
0.2324057356 0.6323977011 -0.3103448276 -0.0035568621 -0.0029940690 -0.0106757011
-0.0263174138 0.8129504828 -0.3719924828 -0.0057471264 0.0021822414 0.0112847816
-0.2668604368 0.7163079770 -0.3767003908 -0.0090588046 -0.0023438736 -0.0107515862
0.0145538276 0.4629221954 -0.2560256437 -0.0055692414 -0.0095688161 -0.0060948391
0.0802040920 0.2923173103 0.1577750230 -0.0045187586 -0.0112701494 0.0016664483
0.4242416897 0.5602598506 0.0256072529 -0.0109704943 0.0093621724 -0.0038998966
0.0503504943 1.0222158276 -0.4249010230 -0.0057471264 0.0028112069 0.0111444138
-0.0735973448 0.3333333333 -0.0977084828 -0.0073341954 -0.0112917931 -0.0007401264
-0.3468135517 0.3880602989 0.0745670000 -0.0134791264 -0.0084395862 0.0009152759
0.1292087126 0.4949530230 -0.2680431724 -0.0038252529 -0.0066606437 -0.0091262184
0.3541421724 0.5251681494 -0.2607744598 0.0042007011 0.0005986322 -0.0056505747
-0.3419374943 0.5459023793 -0.2470518046 -0.0031592069 0.0057041264 0.0094315057
0.3560331954 0.5027480690 0.1711844138 0.0038622989 -0.0058474023 0.0010872874
0.4058210920 0.5909343103 0.1975327816 -0.0153349770 0.0062325977 -0.0007843678
0.4594018046 0.9762468851 -0.2929620805 -0.0057471264 0.0000000000 0.0000000000
-0.0791501609 0.6785536092 -0.2183908046 -0.0039968506 0.0049145172 0.0099516897
0.1620804598 0.3540287241 -0.0861059770 -0.0029008506 -0.0111332759 -0.0001553333
0.2885774598 0.5417632184 0.2550311954 -0.0099314483 0.0105327586 -0.0018448851
0.3433573103 0.4101844023 0.1990498966 0.0013675747 -0.0089823793 0.0006613333
-0.2345228046 0.3602639080 -0.2618670575 -0.0105174368 -0.0085691494 -0.0058797471
-0.0064105172 0.3528777816 -0.2115027356 -0.0057471264 -0.0103980345 -0.0048792529
0.2388796782 0.7344193333 -0.3300858391 -0.0092577126 0.0021156437 0.0107304943
0.2363923333 0.3986654138 -0.2944570115 -0.0004332414 -0.0071234943 -0.0072762069
-0.1921191839 1.1007244943 -0.4385728966 -0.0029970115 0.0068503218 0.0086973448
0.2263695747 0.6729329425 -0.3793103448 -0.0022979310 -0.0020127931 -0.0107747011
0.2464498966 0.3559835632 -0.2212290690 -0.0001286437 -0.0093222644 -0.0036867241
-0.3971734368 0.5708528736 0.4099758621 -0.0031352184 0.0069592989 0.0081079885
0.1367138391 0.3566998851 -0.2076526552 -0.0074194483 0.0107017126 0.0037732299
0.1194745057 0.4752331839 -0.1494252874 -0.0057471264 0.0000000000 0.0114942529
-0.0786418851 0.6212375632 -0.3223870345 -0.0057471264 -0.0068322989 -0.0091755057
-0.3036784943 0.8167288736 -0.3268020230 -0.0013720805 0.0019963908 0.0103642184
-0.1550009770 0.7837371839 -0.3564075632 -0.0032277586 0.0021578621 0.0109713908
0.0157136092 0.2857473908 0.1774724023 -0.0054846092 -0.0111652874 0.0025944368
-0.0392338046 0.4712643678 -0.2529266207 -0.0057471264 0.0114886552 -0.0000237241
0.2895452529 0.5815313908 -0.3400306897 -0.0010623678 -0.0025481954 -0.0101531609
0.3338169195 0.3938203103 -0.1646180920 0.0019457586 -0.0081202874 -0.0026227931
-0.2736333448 0.5287356322 0.3884173908 -0.0039445747 0.0101623678 0.0046601264
0.0239751149 1.0919540230 -0.4547501494 -0.0054594713 0.0086855977 0.0069408161
-0.2228009425 0.7649741379 -0.3437824943 -0.0026698966 0.0023115172 0.0108267816
-0.3621798161 0.4713752184 -0.0827066782 0.0031401724 0.0071067241 0.0007797126
-0.1680821609 0.7573006322 -0.3218391034 -0.0057471264 0.0071941839 -0.0085143218
-0.3221300920 0.5057471264 0.0136794368 -0.0089861609 0.0106420690 -0.0026722989
-0.2293858966 0.3372265862 0.2285449540 -0.0100498276 -0.0105511379 0.0013728046
-0.3648534368 0.5440808046 0.3006575747 0.0036675747 0.0064432184 -0.0013718736
0.2408652414 0.3898416322 0.0524799080 -0.0006516897 -0.0099629770 0.0025284598
-0.0616208391 0.4597701149 -0.1050463448 -0.0057471264 0.0114942529 0.0000000000
0.2908454598 0.8490640920 -0.3361262874 -0.0100590460 0.0019533448 0.0104424253
0.2323377931 0.8129112874 -0.4048015057 -0.0024836207 -0.0018786207 -0.0108416782
0.3801142414 0.5196303448 0.0219966207 -0.0145218851 0.0071317931 -0.0017637931
0.0701942759 0.4595320690 0.4597701149 -0.0071739080 0.0050595287 0.0097094943
-0.3529310805 0.4743008621 0.4082760460 -0.0127762069 -0.0074200920 0.0051745747
-0.0527138276 0.3450468621 0.0928311954 -0.0072073793 -0.0112008621 0.0016163563
0.1232571609 0.5219933103 -0.3832039655 -0.0021911724 -0.0025200575 -0.0105745402
0.3117145632 0.5552825977 0.3056055287 -0.0087690000 0.0110818851 -0.0000566667
-0.3839586667 1.0198484368 -0.3866530230 -0.0117904943 -0.0032349195 -0.0091793793
0.0340994483 0.4137931034 0.4674209540 -0.0064094483 0.0113973793 0.0009471494
0.2242748161 0.5571195172 -0.2873563218 -0.0034667356 -0.0044580000 -0.0102829770
0.0447596092 0.3542883908 0.1320620575 -0.0061452874 -0.0111882759 0.0025180575
0.0956310805 0.5261266897 -0.3218390805 -0.0066403793 0.0016766437 0.0112837471
-0.2172549885 0.3197386897 0.1339014598 -0.0099956552 -0.0104810575 0.0019787011
-0.2904464943 0.3333333333 0.3217753103 -0.0108695632 0.0074703678 0.0062536322
0.3277128161 0.6561775632 -0.2800285287 -0.0080101379 0.0023606322 0.0109883103
0.4153532759 0.4825279885 0.1385363678 0.0032546092 -0.0069927816 0.0014429540
-0.0398669080 0.2643678161 -0.1031700345 -0.0057471264 -0.0114942529 0.0000000000
-0.2357567126 0.4943774023 -0.1675889310 -0.0115160230 -0.0057484138 0.0078410000
0.2419051724 0.5295891149 0.2752860690 -0.0105356092 0.0103069770 -0.0014813448
-0.0816368161 0.5941672529 -0.1648997241 -0.0062035632 0.0034808736 0.0109190115
-0.0341152529 0.3190858966 0.3365680690 -0.0057471264 -0.0109397586 0.0035205287
0.3542124023 0.0265708391 -0.3563218391 -0.0057471264 0.0000000000 -0.0114942529
0.0546992299 0.3054109310 0.2616705402 -0.0034976322 -0.0111519885 0.0015063678
-0.1813865977 1.0016558391 -0.4022988506 -0.0042728736 0.0027635172 0.0110540460
-0.0406775747 0.2824335632 0.1182399540 -0.0081746437 -0.0110799655 0.0012833448
0.1047444713 0.4176413908 0.4827586207 -0.0060613333 0.0031420920 0.0098454598
-0.2063435517 0.3666587011 0.0979320920 -0.0010253563 0.0102344138 -0.0019874483
0.2644317931 0.8394196552 -0.3449971609 -0.0092742989 0.0023770230 0.0106663333
0.1469856207 0.4712643678 -0.2280824368 -0.0057471264 -0.0018026322 0.0000000000
-0.3346090000 1.0658762299 -0.4259784253 -0.0103601954 -0.0034234943 -0.0099492759
-0.3026339195 1.0023576552 -0.4262692644 -0.0106444253 -0.0023999885 -0.0100992759
0.4482099195 0.5229225632 0.1721846897 0.0039314828 -0.0061608161 0.0003403103
-0.2532626667 0.5214054483 -0.2868062414 -0.0017896667 0.0023817931 0.0104943103
0.3861228276 0.4732584023 0.3110000805 0.0034524828 -0.0065407931 0.0021585517
-0.3847380920 0.4249679770 -0.0368225747 -0.0146813908 -0.0071705172 -0.0003527931
0.2701070115 0.5632183908 -0.2671809310 -0.0057432529 -0.0028082759 -0.0000061954
0.3204192414 0.5087088276 -0.2413793103 -0.0064452069 -0.0006980805 0.0063758046
-0.0427997356 0.3793103448 0.2747314943 -0.0071685287 -0.0110888966 0.0025908391
0.3538773218 0.4969508276 0.1151701724 0.0048105977 -0.0043648736 -0.0002917471
0.1271735862 0.4991692759 -0.1494252874 -0.0057471264 0.0000000000 0.0114942529
-0.1113807241 0.3890421609 0.2590805402 -0.0064434368 -0.0110340000 0.0030031839
0.3526286667 0.5537781149 0.3205105977 -0.0121683793 0.0092528621 0.0000000000
0.1738988736 0.4691333103 -0.0353228161 -0.0083555287 0.0111370115 -0.0003404598
-0.1824513448 0.6586921494 -0.3924129080 -0.0090177701 -0.0017096322 -0.0108822529
0.0408972759 0.3333333333 -0.0689134138 -0.0057254253 -0.0114932299 -0.0000144598
0.0613531954 1.0901922414 -0.4580083333 -0.0064517011 0.0058564023 0.0098104828
-0.2157252069 0.3936126552 -0.2209254253 -0.0003766092 0.0089897816 0.0046905402
0.1589419655 0.2928696092 0.0783296897 -0.0024890115 -0.0109119770 0.0011106782
-0.1344598966 0.8963859770 -0.4470549885 -0.0082235402 -0.0029199080 -0.0108034713
0.1190185977 0.7388676667 -0.3563218391 -0.0073462529 0.0016432529 0.0112432069
-0.2117433218 0.8090540575 -0.3563218391 -0.0043681839 0.0020416207 0.0112175172
-0.0057471264 0.9441983448 -0.4573529080 -0.0057471264 0.0000000000 0.0000000000
-0.3474863908 0.5037611149 -0.2074477126 0.0021673333 0.0055644138 0.0060558851
0.2926911954 0.5114117816 -0.2593627126 -0.0128737356 0.0036411379 0.0080784943
