-0.3260869282 0.9630254597 0.0101884991 0.0214432590 -0.0029878910 0.0000000000
-0.0909182530 1.4999998696 0.2205325243 -0.0039116736 -0.0188379984 0.0078233471
0.0217391285 1.0134156293 0.3464044916 0.0217391285 0.0000000000 0.0000000000
0.0407356269 0.4946451961 -0.3913043138 -0.0019393259 0.0039737823 0.0204466287
0.2391304140 1.5049029126 0.2159979160 0.0149845422 -0.0036005432 0.0139391944
0.2173913072 1.4808583930 0.0623411468 0.0156560421 -0.0145955639 0.0010604782
0.3663598812 0.7921062355 0.0217391285 -0.0041058692 -0.0010264782 0.0190881940
0.1010485130 0.4857126317 -0.4206905721 0.0133844554 0.0000000000 -0.0168043464
-0.3001258000 0.4782608280 0.3080184297 0.0000000000 -0.0217391285 0.0000000000
0.0698226244 1.2011660477 0.0217391285 0.0000000000 0.0000000000 0.0217391285
0.0434782571 1.2293512627 0.0151034769 0.0217391285 0.0000000000 0.0000000000
0.4452958743 0.5996071653 -0.0135313249 0.0213313460 0.0041854996 0.0000000000
-0.0207247808 1.1693782679 -0.0697521026 -0.0053418256 -0.0152337813 0.0136066945
-0.0115572164 0.2549078039 -0.4782608280 0.0000000000 0.0000000000 0.0217391285
-0.0156521291 0.5226484763 0.4606876339 0.0000000000 0.0043580214 0.0212964329
0.3708311634 0.9731968502 -0.0162918464 0.0211032590 0.0052137387 0.0000000000
-0.4999999565 0.1668521594 -0.0027142606 -0.0217391285 0.0000000000 0.0000000000
0.2855971056 1.0434781701 0.0067249125 -0.0132587380 -0.0162471725 0.0000000000
-0.4297972235 0.6795935279 -0.0005032391 -0.0213508025 0.0040901083 0.0000000000
-0.3556642299 0.8727356632 -0.0217391285 0.0000000000 0.0000000000 -0.0217391285
-0.0217391285 1.2106863730 -0.0337663014 -0.0217391285 0.0000000000 0.0000000000
-0.0018734781 0.4780928932 0.4695988070 0.0000000000 0.0044578909 0.0212762155
-0.1753700934 1.4782607410 0.0473632568 0.0000000000 -0.0217391285 0.0000000000
-0.4999999565 0.0396878879 -0.0003667174 -0.0217391285 0.0000000000 0.0000000000
-0.0106846078 0.7757231934 0.3665944464 -0.0040956083 -0.0046365213 -0.0202718895
-0.4425945702 0.5761619499 0.0217391285 0.0000000000 0.0000000000 0.0217391285
0.0077890428 0.1252589674 0.4782608280 0.0000000000 0.0000000000 -0.0217391285
0.3487473392 0.9597747644 -0.0217391285 0.0000000000 0.0000000000 -0.0217391285
0.2059181343 1.4999998696 -0.1329958363 0.0000000000 -0.0217391285 0.0000000000
0.0712703199 1.4994022827 -0.1086956427 -0.0110918034 0.0000000000 0.0171447594
-0.4187035505 0.4999999565 -0.0385943879 0.0000000000 0.0217391285 0.0000000000
0.1513240955 1.4999998696 0.2154389378 0.0000000000 -0.0217391285 0.0000000000
0.0124852163 1.0014479999 -0.3260869282 0.0000000000 -0.0010239564 0.0213149981
0.0198531939 1.5434779527 0.1730969415 0.0000000000 0.0217391285 0.0000000000
-0.3692857070 0.7622668468 0.0104020861 0.0201625635 -0.0046561735 0.0045398474
0.0415178877 1.5434781267 -0.2818618233 0.0000000000 0.0217391285 0.0000000000
-0.2534682388 1.4999998696 0.0069428690 0.0000000000 -0.0217391285 0.0000000000
-0.0006441086 1.4782607410 -0.1976204176 0.0000000000 -0.0215313242 -0.0008802391
0.0217391285 1.1859254186 0.0749304283 0.0217391285 0.0000000000 0.0000000000
-0.0158689117 1.2866115186 -0.0434782571 0.0000000000 0.0000000000 -0.0217391285
0.2100093948 1.4926179354 -0.0802289495 0.0119293903 -0.0171394985 -0.0042586518
0.0135546945 0.3086042775 0.4782608280 0.0010323477 0.0000000000 -0.0216120416
-0.0166994333 0.9192119201 -0.3354143621 0.0000000000 -0.0043884996 0.0212910634
0.2826086711 1.5233915849 -0.1537306605 0.0196084113 0.0000000000 -0.0090258253
0.2287954149 1.4896648705 -0.0208833243 0.0126858902 -0.0173078463 0.0000000000
-0.4304836147 0.6758181369 -0.0170025420 -0.0213514112 0.0040869996 0.0000000000
-0.1807083756 1.5434781267 -0.2700264330 0.0000000000 0.0217391285 0.0000000000
-0.0544936257 1.4792205453 -0.1304347713 -0.0049262170 0.0000000000 -0.0205762156
-0.3264222760 0.4782608280 0.2654581508 0.0000000000 -0.0217391285 0.0000000000
0.0217391285 1.0755451021 0.2736943675 0.0217391285 0.0000000000 0.0000000000
0.4013437694 0.8360871882 0.0007988260 0.0213258025 0.0042181953 0.0000000000
0.2315961755 1.5434781267 0.1435252266 0.0000000000 0.0217391285 0.0000000000
0.3248329718 0.4999999565 0.3026380172 0.0125169120 0.0092222166 0.0125169120
0.1134430988 1.5434781267 -0.1248222500 0.0000000000 0.0217391285 0.0000000000
-0.0179066289 1.5434369962 -0.3260869282 0.0000000000 0.0000000000 -0.0217391285
0.0056738473 1.1086827949 0.2391557618 0.0000000000 0.0186416288 0.0111838469
0.1245958805 1.5098713035 -0.2983189958 0.0079858906 -0.0119417816 -0.0159717812
-0.0086899558 0.3476649698 0.4999999565 0.0000000000 0.0042318040 0.0213201068
-0.0119447381 1.1999399609 0.0000000000 0.0000000000 0.0000000000 0.0217391285
-0.0217391285 0.9221943546 0.3640690336 -0.0217391285 0.0000000000 0.0000000000
-0.4999999565 0.1213340547 0.0082344341 -0.0217391285 0.0000000000 0.0000000000
-0.2502043913 1.5434781267 -0.2018200694 0.0000000000 0.0217391285 0.0000000000
0.0297620192 1.4952653265 -0.1304347713 0.0061340864 0.0000000000 -0.0202910635
-0.0099981078 1.4782607410 -0.1475863133 0.0000000000 -0.0217391285 0.0000000000
0.0656294291 0.4782608280 0.3984205958 0.0000000000 -0.0217391285 0.0000000000
-0.0178346289 0.5100046730 -0.4339550710 -0.0038143040 -0.0055371952 0.0202009113
-0.0217391285 1.2218387198 0.0296136496 -0.0217391285 0.0000000000 0.0000000000
-0.4782608280 0.0321125842 0.0082808254 0.0217391285 0.0000000000 0.0000000000
0.1355182926 1.4947944570 -0.1853632665 0.0072606298 -0.0175814550 -0.0103208252
0.1091660557 1.4782607410 -0.1428997919 0.0000000000 -0.0217391285 0.0000000000
0.1748943978 1.1190745114 0.0198084548 -0.0086703906 -0.0182826723 0.0067059994
-0.1298252931 1.5434781267 -0.1899517444 0.0000000000 0.0217391285 0.0000000000
-0.3148877335 0.4858814360 -0.3043477996 -0.0150637161 0.0025402172 -0.0150637161
-0.4610943077 0.5206152373 -0.0136386075 -0.0212954981 0.0043625648 0.0000000000
0.2959892569 1.0434781701 -0.0066115864 -0.0059103908 -0.0192909548 0.0000000000
-0.2344282622 1.5434781267 0.0999940565 0.0000000000 0.0217391285 0.0000000000
0.0079222819 0.3170353203 0.4999999565 0.0000000000 0.0000000000 0.0217391285
0.0061127821 0.6008179912 0.4450537222 0.0000000000 0.0041827822 0.0213318894
-0.0217391285 0.9397878313 -0.3439994701 -0.0217391285 0.0000000000 0.0000000000
0.2513339129 1.4999998696 -0.1679621376 0.0000000000 -0.0217391285 0.0000000000
-0.3317607320 0.9338264405 -0.0080190863 0.0213012155 -0.0043394996 0.0000000000
-0.0089544557 0.9138545944 -0.3856667273 0.0000000000 0.0045250866 -0.0212581286
-0.1129737945 1.4782607410 -0.0721119285 0.0000000000 -0.0217391285 0.0000000000
0.1595437905 1.5434781267 -0.1865031360 0.0000000000 0.0217391285 0.0000000000
0.0072958689 1.5434781267 0.2024746346 0.0000000000 0.0217391285 0.0000000000
-0.1598135948 1.5434781267 0.1722162242 0.0000000000 0.0217391285 0.0000000000
-0.4782608280 0.0867335359 -0.0083035428 0.0217391285 0.0000000000 0.0000000000
0.1819315929 1.4782607410 -0.0883443619 0.0007418478 -0.0214640416 -0.0003709130
0.0142366292 0.9244076370 0.3830284884 0.0000000000 0.0046475648 0.0212305851
0.0082049558 0.5592694514 0.4533634606 0.0000000000 0.0042759127 0.0213130416
-0.0491844957 1.4782607410 0.0282688236 0.0000000000 -0.0217391285 0.0000000000
0.0217391285 0.8700725765 0.3638517292 0.0217391285 0.0000000000 0.0000000000
-0.0072279559 0.3028537345 -0.4999999565 0.0000000000 0.0000000000 -0.0217391285
-0.0217391285 0.0232901936 0.4831035015 -0.0217391285 0.0000000000 0.0000000000
-0.1972570046 0.4782608280 -0.3481661436 0.0000000000 -0.0217391285 0.0000000000
-0.3508753608 0.9419015920 -0.0217391285 0.0000000000 0.0000000000 -0.0217391285
-0.1620191381 1.5434781267 -0.2009475260 0.0000000000 0.0217391285 0.0000000000
-0.2587237166 1.4999998696 0.0864451881 0.0000000000 -0.0217391285 0.0000000000
0.0434782571 1.2491576740 -0.0188699114 0.0217391285 0.0000000000 0.0000000000
0.3392006444 1.0303644104 -0.0029139128 0.0153718900 0.0153718900 0.0000000000
0.0482189523 0.4856953491 0.3913043138 0.0000000000 0.0018031520 -0.0215171503
0.0217391285 0.4473025698 0.4706136547 0.0217391285 0.0000000000 0.0000000000
0.2234958067 1.4999998696 -0.1314212712 0.0000000000 -0.0217391285 0.0000000000
0.3831360536 0.4802251104 0.2173912854 0.0162791290 0.0011340869 0.0135046293
0.4656809595 0.3851460752 0.0000000000 -0.0153003465 -0.0038218692 0.0109322817
0.1752100282 1.5434781267 0.2094321774 0.0000000000 0.0217391285 0.0000000000
-0.3935021180 0.5000000000 0.0673712333 0.0000000000 0.0217391285 0.0000000000
0.0639260379 0.4782608280 -0.4189277679 0.0000000000 -0.0217391285 0.0000000000
-0.4011106608 0.6463905307 0.0217391285 0.0114253903 -0.0028563476 0.0143623901
-0.1347664013 1.4782607410 0.0763392325 0.0000000000 -0.0217391285 0.0000000000
0.0098296948 1.5434781267 0.0565229081 0.0000000000 0.0217391285 0.0000000000
-0.0594802774 1.5434781267 -0.1947645265 0.0000000000 0.0217391285 0.0000000000
0.4130557467 0.7716712372 -0.0166192159 0.0213360851 0.0041654779 0.0000000000
0.0160616073 0.5647414944 -0.4175340072 0.0064444777 -0.0052233691 0.0196998026
-0.4308141582 0.4999999565 -0.0014900868 0.0000000000 0.0217391285 0.0000000000
0.1112612729 1.5434781267 0.1035868171 0.0000000000 0.0217391285 0.0000000000
0.0217391285 0.1931234397 -0.4860853490 0.0217391285 0.0000000000 0.0000000000
0.0217061720 0.0105634556 0.4782608280 0.0000000000 0.0000000000 -0.0217391285
0.1995617218 1.4999998696 0.1185456201 0.0035847171 -0.0206041069 0.0035847171
0.2811246495 1.4999998696 -0.0817168190 0.0000000000 -0.0217391285 0.0000000000
-0.2132369380 1.5434781267 -0.1976531350 0.0000000000 0.0217391285 0.0000000000
0.0217391285 0.4970513698 -0.3984615958 -0.0159587160 0.0067164559 0.0088014340
-0.1567069646 1.4999998696 -0.2312012842 0.0000000000 -0.0217391285 0.0000000000
-0.0425022137 1.5434781267 -0.1545543561 0.0000000000 0.0217391285 0.0000000000
0.0300474322 1.3339841014 -0.0217391285 0.0000000000 0.0000000000 -0.0217391285
0.4179657245 0.7389855879 0.0217391285 0.0000000000 0.0000000000 0.0217391285
0.3479459263 0.4999999565 -0.1904293313 -0.0177188245 0.0104523687 0.0029461954
0.0753173848 1.5434781267 0.0754304065 0.0000000000 0.0217391285 0.0000000000
0.0000000000 1.2514746086 -0.0202837808 0.0217391285 0.0000000000 0.0000000000
0.4406254399 0.4877700011 -0.0061585647 -0.0202935852 -0.0056329778 -0.0044328040
-0.2161929160 1.4782607410 -0.0617745381 -0.0145245205 -0.0157228682 0.0000000000
0.4520145042 0.5660142769 0.0071910863 0.0213161068 0.0042608040 0.0000000000
-0.0582146689 0.4794625018 0.4347825709 0.0000000000 0.0000000000 0.0217391285
-0.1981596567 1.1074418385 0.0157635638 0.0095810426 -0.0184124984 0.0042771953
-0.4014098129 0.4782607845 0.1392834879 0.0000000000 -0.0217391285 0.0000000000
-0.0023715433 0.8877967489 -0.3432681441 0.0000000000 -0.0044938474 0.0212692373
0.4153638117 0.6621181163 0.0217391285 0.0000000000 0.0000000000 0.0217391285
-0.4782608280 0.1633469423 -0.0071486516 0.0217391285 0.0000000000 0.0000000000
-0.3981687697 0.5000000000 -0.0394941270 0.0000000000 0.0217391285 0.0000000000
-0.1020596216 1.5434781267 -0.0651567769 0.0000000000 0.0217391285 0.0000000000
-0.1533860954 1.4999998696 -0.1924967876 -0.0010386738 -0.0213539547 -0.0005193478
-0.0196623244 1.1407041834 -0.1213653155 -0.0102513469 -0.0168984333 0.0077649993
0.0108881077 0.9387470705 -0.3305305800 0.0000000000 -0.0043229996 0.0213046286
0.0098883687 1.2132623728 0.0000000000 0.0000000000 0.0000000000 0.0217391285
-0.0091703905 1.3551207517 0.0000000000 0.0000000000 0.0000000000 0.0217391285
-0.2606977165 1.5434781267 0.0054334560 0.0000000000 0.0217391285 0.0000000000
-0.0006835869 1.0417361703 -0.3043477996 0.0000000000 -0.0012318042 0.0212288895
-0.4056030082 0.6910299834 0.0217391285 0.0000000000 0.0000000000 0.0217391285
0.4999999130 0.3030562345 -0.0074910863 0.0217391285 0.0000000000 0.0000000000
-0.1786556149 1.1402895313 -0.0217391285 0.0000000000 0.0000000000 -0.0217391285
0.0000000000 1.1110417512 -0.0025201954 0.0217391285 0.0000000000 0.0000000000
-0.0118338903 1.4782607410 0.0104190426 0.0000000000 -0.0217391285 0.0000000000
0.0217391285 0.5432026919 0.4295313974 0.0187486940 -0.0011579347 -0.0046316952
-0.4999999565 0.1513995086 -0.0035208258 -0.0217391285 0.0000000000 0.0000000000
-0.3648034465 0.7846783448 -0.0115802599 0.0203658461 -0.0046287387 -0.0037047605
-0.1518566172 1.5434781267 0.0332287362 0.0000000000 0.0217391285 0.0000000000
0.3282844062 0.4999999565 -0.2701419548 0.0000000000 0.0217391285 0.0000000000
0.3986085523 0.4782608280 -0.0892514705 0.0000000000 -0.0217391285 0.0000000000
0.2715179547 1.5083266949 -0.1715914199 0.0148402378 -0.0123886294 -0.0090763036
-0.3534104910 0.8505332956 0.0217391285 0.0001092391 -0.0000273043 0.0216686068
0.0287256714 1.2260814151 0.0217391285 0.0000000000 0.0000000000 0.0217391285
0.3342763840 0.5000000000 0.2627611076 0.0000000000 0.0217391285 0.0000000000
-0.0179385202 1.5434781267 0.2952886917 0.0000000000 0.0217391285 0.0000000000
0.2391304140 1.5106949556 -0.2141496336 0.0145188248 -0.0079211515 -0.0122386294
0.4313908973 0.6416132486 0.0217391285 0.0000000000 0.0000000000 0.0217391285
0.2021873955 1.5434781267 0.1227709241 0.0000000000 0.0217391285 0.0000000000
-0.0217391285 1.2088322644 -0.0634195380 -0.0217391285 0.0000000000 0.0000000000
0.0217391285 0.0253063021 -0.4800794365 0.0217391285 0.0000000000 0.0000000000
-0.3102900165 1.5434781267 -0.0213701286 0.0000000000 0.0217391285 0.0000000000
-0.1624294641 1.4951751091 0.1521738998 -0.0088709558 -0.0136597162 0.0116118686
-0.0206319330 1.1745924631 0.1402852052 0.0000000000 0.0183732375 0.0116080425
-0.0272727802 1.4999998696 0.3179998202 0.0000000000 -0.0217391285 0.0000000000
-0.0217391285 0.5848305144 0.4473550263 -0.0217391285 0.0000000000 0.0000000000
0.0017101738 1.1597387687 0.0434782571 0.0000000000 0.0000000000 0.0217391285
-0.2006574173 1.4782607410 0.0105060643 -0.0022384346 -0.0212107155 0.0000000000
-0.0277964541 1.4981052828 0.1304347713 0.0000000000 0.0000000000 -0.0217391285
0.2376112837 1.5202197591 -0.2252431761 0.0119932598 -0.0151987813 -0.0093563688
0.4347825709 0.4911426964 -0.0736847327 0.0208452156 0.0000000000 -0.0037867171
-0.1211490112 1.4856168056 -0.1812689842 -0.0057568473 -0.0170840855 -0.0113272381
0.0217391285 1.2745182805 0.0365633229 0.0217391285 0.0000000000 0.0000000000
0.3970580307 0.4782608280 0.1168976855 0.0000000000 -0.0217391285 0.0000000000
0.4415053529 0.5509995608 -0.0217391285 0.0000000000 0.0000000000 -0.0217391285
-0.2338166753 1.4999998696 -0.0542229735 -0.0023763694 -0.0211781503 0.0000000000
-0.2757577586 1.5434781267 0.0294799757 0.0000000000 0.0217391285 0.0000000000
-0.3260869282 1.5294652583 -0.0589898862 -0.0217391285 0.0000000000 0.0000000000
0.2608695425 1.5287266932 0.2027619606 0.0193741288 0.0023292172 0.0047448039
-0.1304347713 1.4948588265 0.0313120625 0.0217391285 0.0000000000 0.0000000000
0.0180773680 0.4105223339 0.4843258709 0.0000000000 0.0044736300 0.0212734329
-0.4277637672 0.6907772225 -0.0088970644 -0.0213490199 0.0040992605 0.0000000000
-0.4782608280 0.0682785593 -0.0029148693 0.0217391285 0.0000000000 0.0000000000
0.0659126682 1.4999998696 -0.2897248444 0.0000000000 -0.0217391285 0.0000000000
0.0082883906 0.0000000000 -0.4841944144 0.0000000000 -0.0217391285 0.0000000000
-0.0159857812 1.4782607410 0.1150181204 0.0000000000 -0.0217391285 0.0000000000
-0.0189186505 0.4646006118 0.4722972633 0.0000000000 0.0044881300 0.0212701068
-0.4992303044 0.0000000000 0.0205225852 0.0000000000 -0.0217391285 0.0000000000
0.3812673799 0.7023585259 0.0049247387 -0.0206494547 -0.0049871083 0.0021493259
-0.1106072078 1.5434781267 0.3038764736 0.0000000000 0.0217391285 0.0000000000
-0.2411173921 1.4999996957 0.1208274678 0.0000000000 -0.0217391285 0.0000000000
-0.3078676689 1.5035196736 -0.0752545152 -0.0150866509 -0.0131182163 -0.0066923907
0.0962067308 1.5345557144 -0.3168367116 0.0097220426 0.0000000000 -0.0194440635
-0.3040257562 1.0655392986 0.0157832595 -0.0153718900 0.0153718900 0.0000000000
-0.1430550528 0.4937572832 0.3695651853 0.0064479994 0.0000000000 -0.0190682810
0.3989588349 0.6266587499 0.0055898256 -0.0205015200 -0.0052121735 0.0027868258
0.0026848259 0.9953780004 -0.3524479694 0.0000000000 0.0109232382 -0.0185782810
-0.3078012558 0.4831633710 0.2574160646 0.0153718900 0.0000000000 -0.0153718900
0.3803971408 0.9163212247 -0.0217391285 0.0000000000 0.0000000000 -0.0217391285
0.0013487390 1.4999998696 -0.3136918205 0.0000000000 -0.0217391285 0.0000000000
-0.1795268757 1.5434781267 0.0573311907 0.0000000000 0.0217391285 0.0000000000
-0.4207669634 0.4999999565 -0.1003389913 0.0000000000 0.0217391285 0.0000000000
-0.0278700845 1.4783171323 0.2174475680 -0.0013378912 -0.0193013679 0.0096705861
0.0113830642 0.2227958719 -0.4999999565 0.0000000000 0.0000000000 -0.0217391285
-0.0217391285 1.1423722050 0.1681832245 -0.0217391285 0.0000000000 0.0000000000
0.0217391285 0.5048009996 0.4452872874 0.0217391285 0.0000000000 0.0000000000
-0.4379315271 0.5900507748 0.0217391285 0.0000000000 0.0000000000 0.0217391285
-0.4087875731 0.4782608280 -0.0620387772 0.0000000000 -0.0217391285 0.0000000000
0.4695787418 0.4045164431 0.0217391285 0.0000000000 0.0000000000 0.0217391285
0.2233395241 1.5434781267 0.0818399929 0.0000000000 0.0217391285 0.0000000000
0.1304347713 0.4928515441 -0.3857551838 -0.0153718900 0.0000000000 0.0153718900
-0.0189970853 0.7106655252 0.3796059670 -0.0069349559 -0.0046930431 -0.0195892157
-0.0944709700 1.5434783006 -0.0803561017 0.0000000000 0.0217391285 0.0000000000
0.3032588432 0.4782608280 -0.2778884976 0.0000000000 -0.0217391285 0.0000000000
0.0194662809 0.1339072492 0.4999999565 0.0000000000 0.0000000000 0.0217391285
0.4988343914 0.0000000000 -0.0174054115 0.0000000000 -0.0217391285 0.0000000000
0.0090827601 0.6995884609 0.4261617238 0.0000000000 0.0041064562 0.0213476068
0.0217391285 0.8623898598 0.3808441625 0.0217391285 0.0000000000 0.0000000000
-0.0217391285 1.1019731433 0.2270932411 -0.0217391285 0.0000000000 0.0000000000
0.0217391285 0.0939217527 -0.4831530015 0.0217391285 0.0000000000 0.0000000000
0.2757955195 1.0903629487 0.0212264329 0.0099512383 0.0193182592 0.0000000000
-0.4686567419 0.4779597193 -0.0217391285 0.0000000000 0.0000000000 -0.0217391285
-0.1302610756 1.5434781267 0.0714115807 0.0000000000 0.0217391285 0.0000000000
0.2329769580 1.5434781267 -0.1151202943 0.0000000000 0.0217391285 0.0000000000
-0.0212316068 1.0882581445 -0.2365270229 -0.0002717826 -0.0186266288 0.0110827816
-0.2254036326 1.4862730882 -0.0142563466 -0.0118043903 -0.0179431941 0.0000000000
0.1868915707 1.5434781267 -0.0672255811 0.0000000000 0.0217391285 0.0000000000
0.0387531923 1.4800841756 -0.1304347713 0.0000000000 0.0000000000 0.0217391285
-0.1046510779 0.4945680005 0.4170880072 -0.0143207379 0.0000000000 0.0161295203
0.0564687777 1.5434779527 0.1635735293 0.0000000000 0.0217391285 0.0000000000
-0.0476056915 1.4782607410 -0.1651812248 0.0000000000 -0.0217391285 0.0000000000
-0.1821901363 0.4999999565 -0.3757247499 0.0000000000 0.0217391285 0.0000000000
-0.4131369858 0.6542574214 0.0217391285 0.0000000000 0.0000000000 0.0217391285
0.1028483389 1.4996067826 -0.0928038180 0.0153718900 0.0000000000 -0.0153718900
0.0039493910 0.8788822931 -0.3935628571 0.0000000000 0.0042532170 -0.0213189547
0.1322646842 1.5112130860 0.2938218223 0.0080281732 -0.0109268686 0.0166081073
0.2303914582 1.1145215987 -0.0078259558 0.0113018034 0.0185670419 0.0000000000
-0.1854176795 1.4997238913 -0.1403932921 -0.0103276948 -0.0175806506 -0.0072529559
-0.0217391285 0.8561687516 -0.3620428598 -0.0217391285 0.0000000000 0.0000000000
-0.2004556130 1.5434781267 0.1422888789 0.0000000000 0.0217391285 0.0000000000
-0.4851027839 0.1918866137 0.0217391285 0.0000000000 0.0000000000 0.0217391285
-0.3859117056 0.6791368757 -0.0136303684 0.0197848678 -0.0048520648 -0.0059487821
-0.4121627033 0.6365547490 0.0217391285 0.0034954780 -0.0008738695 0.0194823027
-0.3978087915 0.6355590317 -0.0217391285 0.0161984116 -0.0040496083 -0.0112807381
-0.2716584329 0.4782608280 -0.2955059091 0.0000000000 -0.0217391285 0.0000000000
-0.2947782570 0.4910577182 0.2704390417 0.0153718900 0.0000000000 -0.0153718900
-0.1616406164 1.5434781267 0.2162983290 0.0000000000 0.0217391285 0.0000000000
-0.0217391285 0.1849855491 -0.4966578699 -0.0217391285 0.0000000000 0.0000000000
-0.3043477996 1.0365859316 0.0072009342 0.0197204331 -0.0048735648 0.0000000000
0.1638431597 1.4999998696 -0.2665747594 0.0073049341 -0.0164866290 -0.0097928252
0.2692968679 1.4999998696 0.1503733348 0.0000000000 -0.0217391285 0.0000000000
-0.2608695425 1.5239049110 -0.2033204823 -0.0194055418 0.0007219782 -0.0053347169
0.1222694459 0.4945470874 0.4130434423 0.0000000000 0.0000000000 0.0217391285
0.2444988918 0.4975438698 0.3502821435 0.0119619555 0.0102252600 0.0141536292
0.2308017625 1.5434781267 -0.0660059508 0.0000000000 0.0217391285 0.0000000000
-0.4647500031 0.4372164620 0.0217391285 0.0000000000 0.0000000000 0.0217391285
0.3291921670 0.4806696756 0.2795034322 0.0153718900 0.0000000000 0.0153718900
-0.4514499825 0.5688369940 -0.0006769130 -0.0213173895 0.0042544779 0.0000000000
0.1852952230 1.5195629548 0.2690504766 0.0132392380 -0.0099091078 0.0137031727
0.0600582556 1.5434781267 -0.1946008092 0.0000000000 0.0217391285 0.0000000000
-0.0177216724 1.4782607410 -0.1918232877 0.0000000000 -0.0217391285 0.0000000000
0.4208935069 0.7285637410 0.0061248038 0.0213429764 0.0041301736 0.0000000000
-0.3681033593 0.7681786289 -0.0143547596 0.0201927156 -0.0046430648 -0.0044248692
-0.0244674109 1.4782607410 -0.1775600933 0.0000000000 -0.0217391285 0.0000000000
-0.4019601390 0.8326971667 -0.0089475427 -0.0213263460 0.0042154127 0.0000000000
-0.0869565142 1.4820729581 0.0921355355 0.0168887811 0.0000000000 -0.0117097599
-0.0296093453 1.5434781267 -0.0529109737 0.0000000000 0.0217391285 0.0000000000
-0.4885189575 0.2991088001 0.0217391285 0.0000000000 0.0000000000 0.0217391285
-0.0642808857 1.4999998696 0.3106837773 -0.0021119998 -0.0196271287 0.0042239996
0.3744881848 0.7362545012 0.0136690423 -0.0198577374 -0.0046708039 0.0058181517
-0.0020055433 1.4999998696 0.2930731267 0.0000000000 -0.0217391285 0.0000000000
0.1155361421 1.5434781267 0.0746923413 0.0000000000 0.0217391285 0.0000000000
-0.0217391285 1.0597481035 0.3079264950 -0.0217391285 0.0000000000 0.0000000000
-0.3057966473 1.5434781267 -0.0009967825 0.0000000000 0.0217391285 0.0000000000
0.4504700043 0.4998538478 -0.0217391285 0.0000000000 0.0000000000 -0.0217391285
0.1525715954 1.1664014638 -0.0040104344 0.0117726946 0.0182690419 0.0000000000
0.0571533646 1.5434781267 0.2554819778 0.0000000000 0.0217391285 0.0000000000
-0.0589989297 1.4999998696 -0.2208869591 -0.0020728259 -0.0161442812 -0.0126485859
-0.0083503254 0.0507571912 -0.4999999565 0.0000000000 0.0000000000 -0.0217391285
-0.2360725882 0.4782608280 -0.3453384700 0.0000000000 -0.0217391285 0.0000000000
-0.0434782571 1.1700712026 -0.0139136727 -0.0217391285 0.0000000000 0.0000000000
0.1602440730 1.4999998696 0.2613758903 0.0036478475 -0.0187377375 0.0053684126
0.0072150646 1.0838814492 0.2856836273 0.0000000000 0.0153718900 0.0153718900
-0.0024789128 0.2635928032 -0.4999999565 0.0000000000 0.0000000000 -0.0217391285
-0.1810274408 1.5434781267 0.2058860908 0.0000000000 0.0217391285 0.0000000000
0.4954763482 0.0240101501 -0.0217391285 0.0000000000 0.0000000000 -0.0217391285
0.2381014576 1.4999998696 0.1748762022 0.0000000000 -0.0217391285 0.0000000000
-0.1739130284 0.4986881958 -0.3563408821 0.0138261510 0.0068777385 0.0138261510
-0.0046816518 0.4942693266 0.4347825709 0.0000000000 0.0000000000 0.0217391285
-0.0707775808 1.5434781267 0.1035364040 0.0000000000 0.0217391285 0.0000000000
0.4999999565 0.1884791793 0.0208921286 0.0217391285 0.0000000000 0.0000000000
-0.0217391285 0.4363952012 0.4630182858 -0.0217391285 0.0000000000 0.0000000000
-0.0180990419 1.0540752344 -0.2826086711 0.0000000000 -0.0153718900 0.0153718900
0.2533086954 0.4991353914 0.3119086468 -0.0153718900 0.0000000000 -0.0153718900
-0.0586458645 1.5434781267 -0.2402994791 0.0000000000 0.0217391285 0.0000000000
0.1711850069 1.1209291199 -0.0009706521 -0.0091016079 -0.0196068896 -0.0004053261
0.0875559924 1.4999998696 0.2720386285 0.0000000000 -0.0217391285 0.0000000000
-0.4024681824 0.8299030800 0.0202984113 -0.0213267808 0.0042131301 0.0000000000
0.2322888494 0.4999999565 -0.3345624492 0.0000000000 0.0217391285 0.0000000000
0.0940993179 1.4999998696 -0.2202198504 0.0031450649 -0.0194065635 -0.0062901299
0.3072652559 1.4999998696 0.0126912815 0.0000000000 -0.0217391285 0.0000000000
-0.4377391358 0.6373911620 -0.0124761293 -0.0213484764 0.0041007823 0.0000000000
0.3489427305 0.9883273488 0.0217391285 0.0000000000 0.0000000000 0.0217391285
0.0217391285 0.8308883408 -0.3925409441 0.0217391285 0.0000000000 0.0000000000
-0.2091566122 1.5434781267 -0.1685873766 0.0000000000 0.0217391285 0.0000000000
-0.0819162972 1.4782607410 -0.1281574454 0.0000000000 -0.0217391285 0.0000000000
-0.0941174918 1.5282757367 0.3189259288 -0.0097220426 0.0000000000 0.0194440635
-0.0305206060 1.2475637828 0.0217391285 0.0000000000 0.0000000000 0.0217391285
-0.4859178708 0.2477548698 0.0217391285 0.0000000000 0.0000000000 0.0217391285
0.0067499777 0.2731148023 -0.4782608280 0.0000000000 0.0000000000 0.0217391285
0.0217391285 0.7253315239 -0.4170416159 0.0217391285 0.0000000000 0.0000000000
-0.0036350432 0.0000000000 -0.4959556308 0.0000000000 -0.0217391285 0.0000000000
0.3611987295 0.9866272403 -0.0122831294 0.0169390855 0.0131974989 0.0000000000
-0.4581182428 0.4108427034 0.0000000000 0.0161248899 -0.0045113040 -0.0076501080
0.4136835727 0.7682184332 -0.0012171955 0.0213366286 0.0041626518 0.0000000000
0.2772644107 1.5434781267 0.1257234021 0.0000000000 0.0217391285 0.0000000000
0.0119447598 0.6903478965 0.3836695319 0.0052131300 -0.0048560431 -0.0199574113
0.0217391285 1.1081587515 0.2287954149 0.0217391285 0.0000000000 0.0000000000
-0.2950609526 1.5124521946 0.1351939230 -0.0174905202 -0.0095370209 0.0080277819
-0.0915047747 1.4999998696 0.2368193707 0.0000000000 -0.0217391285 0.0000000000
0.0070953037 0.9164587899 -0.3850156622 0.0000000000 0.0045553040 -0.0212513242
0.0418630181 1.5434781267 -0.0519491477 0.0000000000 0.0217391285 0.0000000000
0.1304347713 0.4949138917 -0.3709611199 -0.0153718900 0.0000000000 0.0153718900
0.4630518728 0.5108272382 0.0202325417 0.0212910634 0.0043845214 0.0000000000
-0.3097516470 0.4782608280 0.2869154316 0.0000000000 -0.0217391285 0.0000000000
0.1938783744 1.5434781267 0.0880739271 0.0000000000 0.0217391285 0.0000000000
-0.3611700773 0.8028450171 0.0205883678 0.0205564765 -0.0046129561 0.0029119128
-0.0164651073 1.2571860429 0.0434782571 0.0000000000 0.0000000000 0.0217391285
-0.0724865807 1.5434781267 0.2637748466 0.0000000000 0.0217391285 0.0000000000
0.0217391285 0.8476460567 -0.3676217724 0.0217391285 0.0000000000 0.0000000000
-0.0568213211 1.5434781267 -0.2967735394 0.0000000000 0.0217391285 0.0000000000
-0.0115765425 0.4804994800 -0.4691174592 0.0000000000 0.0044524996 -0.0212773025
0.2605952599 1.5434783006 -0.1575454211 0.0000000000 0.0217391285 0.0000000000
0.1565613560 1.5434781267 -0.2258411325 0.0000000000 0.0217391285 0.0000000000
0.0771416237 1.1619887033 0.0027139128 -0.0122435642 -0.0175762376 0.0004724347
0.0103191513 1.4999998696 -0.2469843698 0.0000000000 -0.0217391285 0.0000000000
-0.0217391285 0.8200821461 -0.4035380084 -0.0217391285 0.0000000000 0.0000000000
0.0492721696 0.4782608280 -0.4070577255 0.0000000000 -0.0217391285 0.0000000000
0.0217391285 0.6207671199 0.4146208553 0.0190881940 -0.0010264782 -0.0041058909
0.3998814435 0.6235833153 -0.0197316505 -0.0192109766 -0.0049002822 -0.0085131297
0.0035071084 1.1901572443 0.0489730827 0.0060252821 -0.0146771074 -0.0146771074
0.2015061347 1.4999998696 -0.2314693929 0.0000000000 -0.0217391285 0.0000000000
-0.1495274653 1.4999998696 0.2679565637 0.0000000000 -0.0217391285 0.0000000000
-0.2683288245 1.0652172987 0.0068468038 0.0116606512 -0.0180467810 0.0000000000
0.1344478144 1.5412173442 -0.3003347348 0.0143289118 0.0000000000 -0.0161236073
0.0215453242 1.4782607410 0.0389465184 0.0000000000 -0.0217391285 0.0000000000
-0.0018229346 1.5434781267 -0.0518854085 0.0000000000 0.0217391285 0.0000000000
-0.0043935214 0.2595831513 0.4999999565 0.0000000000 0.0000000000 0.0217391285
-0.3061425386 0.4782608280 -0.2907756486 0.0000000000 -0.0217391285 0.0000000000
0.0217391285 0.8072198863 -0.3686064897 0.0217391285 0.0000000000 0.0000000000
-0.2179627854 1.5434781267 -0.2335197188 0.0000000000 0.0217391285 0.0000000000
0.2593920209 0.4999999565 0.3439869701 0.0000000000 0.0217391285 0.0000000000
0.4347825709 0.4801347191 0.0417743877 0.0217391285 0.0000000000 0.0000000000
0.3352352969 0.9199281809 -0.0136966945 -0.0212915634 -0.0043861083 0.0000000000
-0.0759666021 1.4999998696 0.2896878009 0.0000000000 -0.0217391285 0.0000000000
-0.1485799001 0.4922188920 -0.4130434423 0.0000000000 0.0000000000 -0.0217391285
-0.0275708454 1.4999998696 0.2560393908 0.0000000000 -0.0217391285 0.0000000000
-0.1538267040 1.5434781267 -0.1160735334 0.0000000000 0.0217391285 0.0000000000
0.4246889631 0.6149658378 -0.0217391285 0.0000000000 0.0000000000 -0.0217391285
0.4999999565 0.1776633106 -0.0109919338 0.0217391285 0.0000000000 0.0000000000
0.3260869064 1.5278639106 0.0154150639 0.0217391285 0.0000000000 0.0000000000
-0.0894266227 1.1531347910 -0.0217391285 0.0066718472 -0.0134419336 -0.0148824552
0.1848337665 1.4999998696 0.2164864160 0.0000000000 -0.0217391285 0.0000000000
-0.0049270213 0.7014241564 -0.3814542712 -0.0021503259 -0.0049901517 0.0206485199
-0.1128416424 1.4891621531 -0.1956521569 -0.0086508688 -0.0086508688 -0.0154062595
0.4999999565 0.0507014739 -0.0215073242 0.0217391285 0.0000000000 0.0000000000
-0.0852908187 1.4782607410 0.0521889302 0.0000000000 -0.0217391285 0.0000000000
-0.4702447417 0.4748629370 0.0176892159 -0.0212747590 0.0044651300 0.0000000000
0.1894601140 1.5434781267 0.1781730497 0.0000000000 0.0217391285 0.0000000000
0.0789616018 1.5434781267 0.2734183675 0.0000000000 0.0217391285 0.0000000000
-0.0217391285 0.3519051651 0.4868645011 -0.0217391285 0.0000000000 0.0000000000
0.1897345487 1.1416261833 -0.0153957161 0.0118466729 0.0182222375 0.0000000000
-0.0217391285 0.8515679912 0.3901963574 -0.0217391285 0.0000000000 0.0000000000
-0.3266915803 0.9541029823 -0.0155524334 0.0213152808 -0.0042714996 0.0000000000
0.1627626163 1.5434781267 -0.2392120879 0.0000000000 0.0217391285 0.0000000000
0.0054860430 0.1668228551 -0.4782608280 0.0000000000 0.0000000000 0.0217391285
0.0117704990 1.3349611448 0.0000000000 0.0000000000 0.0000000000 -0.0217391285
0.0151612161 0.4382111575 -0.4554931343 0.0010447825 -0.0059360212 0.0208134547
-0.0661689290 1.5434781267 -0.0124487598 0.0000000000 0.0217391285 0.0000000000
0.3300920365 1.0394730618 0.0061070864 0.0153718900 0.0153718900 0.0000000000
0.0873858185 1.4782607410 0.1014323825 0.0000000000 -0.0217391285 0.0000000000
0.1869645055 1.4913121529 -0.1184509027 0.0136836292 -0.0156713247 -0.0038897388
-0.0744002761 1.5434781267 -0.1040722301 0.0000000000 0.0217391285 0.0000000000
-0.3913043138 0.4928316528 -0.1155202073 0.0197402592 0.0000000000 0.0048256952
-0.1125555554 1.4851320013 0.1956521569 -0.0108124773 -0.0108124773 0.0138238466
0.1199353374 1.4999998696 -0.2190316114 0.0000000000 -0.0217391285 0.0000000000
0.1405223356 1.5434781267 0.0110317599 0.0000000000 0.0217391285 0.0000000000
-0.0073901298 1.1307537060 -0.1512166390 -0.0030859997 -0.0193529331 0.0083144993
-0.4999999565 0.1201141635 -0.0061044995 -0.0217391285 0.0000000000 0.0000000000
-0.0217391285 1.0804057539 0.2878773880 -0.0217391285 0.0000000000 0.0000000000
0.4130234206 0.4782608280 -0.0904495139 0.0000000000 -0.0217391285 0.0000000000
0.2707344330 0.4783349149 0.3379611880 0.0153718900 0.0000000000 0.0153718900
-0.4782608280 0.2705583678 0.0071027820 0.0217391285 0.0000000000 0.0000000000
0.2039889170 1.5434781267 0.2526738693 0.0000940652 0.0216450633 0.0000940652
0.2603939556 1.5295370626 0.2173912854 0.0150565204 0.0025993476 0.0150565204
-0.3773380541 0.4912288921 -0.2173912854 -0.0138761944 0.0074871080 -0.0134297597
0.0403495400 1.5434781267 0.2599993035 0.0000000000 0.0217391285 0.0000000000
0.2010095695 1.5434781267 -0.1780779628 0.0000000000 0.0217391285 0.0000000000
0.4840191970 0.0900424704 -0.0217391285 0.0000000000 0.0000000000 -0.0217391285
0.4766048281 0.3594162296 -0.0217391285 0.0000000000 0.0000000000 -0.0217391285
0.0074953689 0.0733596241 0.4999999565 0.0000000000 0.0000000000 0.0217391285
-0.1190132723 1.4999998696 0.2385008706 0.0000000000 -0.0217391285 0.0000000000
0.1927059615 1.1329451624 0.0217391285 0.0000000000 0.0000000000 0.0217391285
-0.1550817474 1.1566985516 -0.0217391285 0.0000000000 0.0000000000 -0.0217391285
0.3260869282 1.5065006081 0.0092246296 0.0214637155 -0.0022373042 0.0000000000
0.1525608780 1.5434781267 0.0485919306 0.0000000000 0.0217391285 0.0000000000
0.0406701921 1.4999998696 0.2472511742 0.0000000000 -0.0217391285 0.0000000000
-0.0593236905 1.5434781267 0.3212208416 0.0000000000 0.0217391285 0.0000000000
-0.0211715416 1.0262514977 0.3043477996 0.0000000000 -0.0121810859 -0.0166935638
0.4325901146 0.5145546074 -0.0063686951 -0.0202288678 -0.0055254126 -0.0046522822
-0.4878815011 0.1710252677 -0.0217391285 0.0000000000 0.0000000000 -0.0217391285
-0.4347825709 0.4993468479 -0.0507515608 -0.0217391285 0.0000000000 0.0000000000
0.0819062537 1.4999998696 -0.2785865193 0.0000000000 -0.0217391285 0.0000000000
-0.0217391285 0.7450953048 0.4018017477 -0.0217391285 0.0000000000 0.0000000000
-0.3655851639 0.4999999565 0.2349696535 0.0000000000 0.0217391285 0.0000000000
0.0714573416 1.5434781267 0.2475406524 0.0000000000 0.0217391285 0.0000000000
-0.1548486170 1.4999998696 0.1889117879 -0.0021731737 -0.0209332590 0.0010865869
-0.0079849123 0.4059265082 0.4637357423 -0.0018717172 -0.0053699995 -0.0209171504
-0.0217391285 1.1630679206 0.0894396444 -0.0181938897 -0.0068176298 -0.0033594345
-0.0512270608 1.4782607410 0.2156514160 0.0000000000 -0.0138676292 0.0155931073
0.0215362373 0.7761374108 0.3665115986 0.0040775214 -0.0046361518 -0.0202762156
0.1293319670 1.5434781267 0.2943896266 0.0000000000 0.0217391285 0.0000000000
-0.0609696904 1.5434781267 0.0577466254 0.0000000000 0.0217391285 0.0000000000
0.1760408325 1.4913904355 -0.1414366181 0.0091436514 -0.0177186072 -0.0085749775
0.0324218667 1.5434781267 -0.1568879429 0.0000000000 0.0217391285 0.0000000000
-0.0064144125 1.2445402396 0.0434782571 0.0000000000 0.0000000000 0.0217391285
-0.0724656024 0.4782608280 0.4243718109 0.0000000000 -0.0217391285 0.0000000000
0.3050974083 0.4999999565 0.2844351927 0.0000000000 0.0217391285 0.0000000000
-0.0191038896 1.2948909091 0.0000000000 0.0000000000 0.0000000000 0.0217391285
-0.3346383405 0.9223160068 -0.0193100853 0.0212932155 -0.0043780866 0.0000000000
0.2213198068 1.0958617525 -0.0157988899 -0.0104875643 -0.0185417593 -0.0018593694
-0.0217391285 0.8261742108 0.3832282710 -0.0217391285 0.0000000000 0.0000000000
0.1882958097 1.5434781267 -0.1079260993 0.0000000000 0.0217391285 0.0000000000
-0.3260869282 1.5079953037 -0.0517277781 -0.0177136724 -0.0097183035 0.0000000000
0.0217391285 1.3326897537 -0.0335310406 0.0217391285 0.0000000000 0.0000000000
-0.0434782571 1.3102974730 -0.0057677386 -0.0217391285 0.0000000000 0.0000000000
0.0217391285 0.8745172718 -0.3489292523 0.0217391285 0.0000000000 0.0000000000
0.0217391285 1.1745572022 -0.0704490156 0.0217391285 0.0000000000 0.0000000000
0.1972007437 1.4782607410 -0.0229952806 0.0006789999 -0.0215485633 -0.0002741087
0.2014359825 1.5434781267 0.1514648129 0.0000000000 0.0217391285 0.0000000000
-0.3945760744 0.8356471012 -0.0217391285 0.0000000000 0.0000000000 -0.0217391285
0.3239284284 1.5434781267 -0.0429879745 0.0000000000 0.0217391285 0.0000000000
-0.0386360401 0.4924748485 -0.4347825709 0.0000000000 0.0000000000 -0.0217391285
0.0217391285 0.3173348202 0.4920154572 0.0217391285 0.0000000000 0.0000000000
-0.1304347713 1.4961805221 -0.0530105606 0.0217391285 0.0000000000 0.0000000000
0.3913043138 0.4993622392 0.0597473644 -0.0215758025 0.0013266738 0.0000000000
0.0210261286 0.1191022288 0.4782608280 0.0000000000 0.0000000000 -0.0217391285
-0.3608003817 0.9737485023 -0.0217391285 0.0000000000 0.0000000000 -0.0217391285
-0.3849626187 0.7790655192 -0.0217391285 0.0000000000 0.0000000000 -0.0217391285
-0.3074596907 0.4869016533 -0.2577576515 0.0153718900 0.0000000000 0.0153718900
0.0175622376 0.4971961959 0.4657781117 0.0000000000 0.0044150648 0.0212848895
-0.1674282898 1.4999998696 0.2641734118 -0.0078532819 -0.0156352160 0.0111055208
-0.2187225679 1.4999998696 0.1571149211 0.0000000000 -0.0217391285 0.0000000000
0.1926061137 0.4954367830 0.3478260567 -0.0021538694 0.0076813037 -0.0190336505
-0.0168373246 0.1539975083 -0.4782608280 0.0000000000 0.0000000000 0.0217391285
0.0217391285 0.8008705825 -0.4003535304 0.0217391285 0.0000000000 0.0000000000
0.1147141857 0.4782608280 -0.4071625950 0.0000000000 -0.0217391285 0.0000000000
-0.0217391285 0.0447248005 0.4952559569 -0.0217391285 0.0000000000 0.0000000000
-0.0989344697 1.4782607410 0.0778328845 0.0000000000 -0.0217391285 0.0000000000
-0.0192214983 0.1366161838 0.4782608280 0.0000000000 0.0000000000 -0.0217391285
0.3572836863 0.8222768415 0.0153355856 -0.0207603678 -0.0045960648 0.0020638259
0.0041457605 0.5603824295 -0.4531408736 0.0000000000 0.0042734127 -0.0213135416
-0.3737607718 0.4782608280 0.1768913324 0.0000000000 -0.0217391285 0.0000000000
0.3695651853 0.4807234582 0.1314293581 -0.0156631943 0.0000000000 -0.0146686074
0.0133851727 0.3411446225 0.4782608280 0.0027914780 -0.0028592389 -0.0207781938
0.2300743713 1.4999998696 0.1537750953 0.0000000000 -0.0217391285 0.0000000000
0.4347825709 0.4853464143 0.0843744057 0.0197166722 0.0000000000 0.0085672819
-0.1368179229 1.4782607410 -0.1315099668 0.0000000000 -0.0217391285 0.0000000000
-0.2277880454 1.5434781267 0.1638728336 0.0000000000 0.0217391285 0.0000000000
0.1306463582 1.5215097807 -0.3041185605 0.0088510644 -0.0088569340 -0.0177659115
0.1939919179 1.1095256644 -0.0210277808 -0.0094179122 -0.0183892375 -0.0047122822
0.3411085573 0.8964351177 0.0152462595 -0.0212752373 -0.0044648692 0.0000000000
0.0125113902 1.2408152617 0.0434782571 0.0000000000 0.0000000000 0.0217391285
0.0217391285 1.2005988304 0.0318927364 0.0217391285 0.0000000000 0.0000000000
0.1527182476 1.5434781267 -0.0545095387 0.0000000000 0.0217391285 0.0000000000
0.3380110358 0.4814562190 -0.2706845634 0.0153718900 0.0000000000 -0.0153718900
-0.0906689921 1.5415301486 0.3223744502 -0.0097220426 0.0000000000 0.0194440635
0.4196099418 0.4782608280 0.0397899313 0.0000000000 -0.0217391285 0.0000000000
0.0154507813 0.7954753439 0.3626439902 0.0032335432 -0.0046193474 -0.0204791504
-0.3864590751 0.9106852469 -0.0143883901 -0.0212663895 0.0044883040 0.0000000000
0.0434782571 1.3140904509 -0.0095532166 0.0217391285 0.0000000000 0.0000000000
-0.1258237499 1.4999998696 0.2151512856 0.0000000000 -0.0217391285 0.0000000000
-0.1170975768 1.5434783006 -0.0016249781 0.0000000000 0.0217391285 0.0000000000
-0.3917905964 0.7595717600 -0.0217391285 0.0000000000 0.0000000000 -0.0217391285
0.1544160518 1.4999998696 0.2319675016 0.0000000000 -0.0217391285 0.0000000000
-0.1751956369 1.4782607410 0.1086822949 -0.0006855869 -0.0214848894 0.0003428043
-0.4782608280 0.2144803944 0.0113710860 0.0217391285 0.0000000000 0.0000000000
0.1985245697 0.4999999565 0.3614014034 0.0000000000 0.0217391285 0.0000000000
0.0226630632 1.3061019734 -0.0217391285 0.0000000000 0.0000000000 -0.0217391285
-0.0759279717 1.5434783006 -0.0872001881 0.0000000000 0.0217391285 0.0000000000
-0.0409121921 1.4782609149 -0.0083971514 0.0000000000 -0.0217391285 0.0000000000
0.4936666962 0.0366653446 0.0217391285 0.0000000000 0.0000000000 0.0217391285
0.0045411518 1.5434781267 0.0211977808 0.0000000000 0.0217391285 0.0000000000
-0.1279615106 1.5282140410 0.3043477996 -0.0011060869 0.0000000000 0.0214780199
-0.0174625420 0.9327638102 0.3320263624 0.0000000000 -0.0043430648 -0.0213004764
-0.4789800670 0.3053214517 -0.0217391285 0.0000000000 0.0000000000 -0.0217391285
0.0869565142 1.4887407184 0.0893179053 -0.0160635203 0.0000000000 -0.0137021292
0.0197334765 0.3219547329 0.4782608280 0.0004864347 0.0000000000 -0.0216792372
0.2377501532 1.5434781267 0.2316001755 0.0000000000 0.0217391285 0.0000000000
0.0217391285 0.0299769539 0.4980423480 0.0217391285 0.0000000000 0.0000000000
0.0000000000 1.2039456344 0.0079486515 0.0217391285 0.0000000000 0.0000000000
-0.2380696097 1.5434781267 -0.2123407207 0.0000000000 0.0217391285 0.0000000000
0.0012080216 1.0850231230 0.2410637616 0.0000000000 -0.0187125636 -0.0110546077
0.1857185273 1.4999998696 0.1670987246 0.0000000000 -0.0217391285 0.0000000000
-0.0133306510 0.6358623795 -0.4380448315 0.0000000000 0.0041042170 -0.0213477808
0.3896356400 0.7576582602 -0.0217391285 0.0000000000 0.0000000000 -0.0217391285
-0.2855938882 1.5434781267 0.1463724438 0.0000000000 0.0217391285 0.0000000000
-0.0837137536 0.4999999565 0.4101052469 0.0000000000 0.0217391285 0.0000000000
0.0217391285 0.5921687094 -0.4327278537 0.0217391285 0.0000000000 0.0000000000
0.2821188450 0.4782608280 -0.3045483431 0.0000000000 -0.0217391285 0.0000000000
0.0472376046 1.5113198903 0.3260869282 0.0012531086 -0.0072153472 0.0185354332
-0.0695111679 1.5434781267 -0.2888376488 0.0000000000 0.0217391285 0.0000000000
0.1098625122 1.1948741135 -0.0097144774 0.0112003251 0.0186312592 0.0000000000
-0.0997710131 1.1845897883 0.0217391285 0.0000000000 0.0000000000 0.0217391285
-0.3912628573 0.4840692405 0.1304347713 0.0153718900 0.0000000000 -0.0153718900
-0.0063407821 1.5434783006 -0.1597320731 0.0000000000 0.0217391285 0.0000000000
0.1799654844 1.5434781267 0.1631983771 0.0000000000 0.0217391285 0.0000000000
0.0672072985 1.5434781267 0.3200937765 0.0000000000 0.0217391285 0.0000000000
-0.1408981182 1.5434781267 0.1779829845 0.0000000000 0.0217391285 0.0000000000
0.3344913840 0.4797746322 -0.2173912854 -0.0153718900 0.0000000000 0.0153718900
0.2338996536 1.5434781267 0.0474283654 0.0000000000 0.0217391285 0.0000000000
-0.0158984117 0.9829463058 0.3648796639 0.0000000000 0.0141541509 0.0162495855
0.1609928121 1.4964760873 -0.1521738998 0.0086847601 -0.0147429118 -0.0110417164
-0.5000000000 0.0033072823 -0.0217268242 -0.0217391285 0.0000000000 0.0000000000
0.0023449563 0.8934512049 0.3907675965 0.0000000000 0.0042883040 0.0213113677
-0.3831450536 0.9239413979 0.0082898471 -0.0212318025 0.0046421518 0.0000000000
0.3890638792 0.9002660739 0.0066755212 0.0212935851 0.0043673909 0.0000000000
0.2735878893 0.4782608280 0.3070411690 0.0000000000 -0.0217391285 0.0000000000
0.0105900426 0.2282993715 0.4782608280 0.0000000000 0.0000000000 -0.0217391285
-0.0600393426 1.1806157886 0.0217391285 0.0000000000 0.0000000000 0.0217391285
0.4689046114 0.4753080891 -0.0217391285 0.0000000000 0.0000000000 -0.0217391285
-0.2239461327 1.5434783006 -0.0745416457 0.0000000000 0.0217391285 0.0000000000
0.1273630107 0.4782608280 -0.4011121390 0.0000000000 -0.0217391285 0.0000000000
-0.1697295070 1.4880668271 -0.1444243787 -0.0074924341 -0.0176056506 -0.0101132165
-0.3260869282 0.4891794357 -0.2909989312 -0.0189423679 0.0027967606 -0.0055935213
-0.0326698015 1.5434781267 0.2153104595 0.0000000000 0.0217391285 0.0000000000
-0.0044324996 0.1392775966 -0.4782608280 0.0000000000 0.0000000000 0.0217391285
-0.1274361411 1.4999998696 -0.2635413032 0.0000000000 -0.0217391285 0.0000000000
-0.0217391285 1.1951870048 -0.0454302569 -0.0217391285 0.0000000000 0.0000000000
-0.3260869282 1.0087078688 -0.0179297158 0.0191886070 -0.0061574995 0.0000000000
0.1085827297 1.4999998696 -0.2331480232 0.0000000000 -0.0217391285 0.0000000000
0.3020373868 1.4999998696 -0.0186893027 0.0000000000 -0.0217391285 0.0000000000
-0.0377252793 1.4784803280 -0.2176107854 -0.0034884562 -0.0190583679 -0.0096067818
-0.0105261513 0.4717979807 -0.4454170700 -0.0031413693 -0.0057343908 0.0204742374
-0.0217391285 0.8147973639 0.3979718132 -0.0217391285 0.0000000000 0.0000000000
0.4556182430 0.4377941576 0.0157678247 -0.0208225851 -0.0059399125 0.0009440217
-0.1670041159 1.5087698471 -0.2765484325 -0.0089849775 -0.0130975641 -0.0138573466
0.0048770213 1.4790104149 -0.1472968785 0.0141043901 0.0000000000 -0.0162854551
0.0044141518 0.6728252241 -0.4310277451 0.0000000000 0.0040845649 -0.0213518894
-0.2862204534 1.4999998696 -0.0832915145 0.0000000000 -0.0217391285 0.0000000000
-0.2693369331 1.4999998696 -0.0731904067 0.0000000000 -0.0217391285 0.0000000000
0.1662165073 1.4999998696 -0.2498886522 0.0000000000 -0.0217391285 0.0000000000
0.0898822748 0.4782608280 0.4163735508 0.0000000000 -0.0217391285 0.0000000000
0.4781613932 0.4352797230 -0.0080386080 0.0212568025 0.0045538692 0.0000000000
-0.0775893193 1.4999998696 0.3038919953 0.0000000000 -0.0217391285 0.0000000000
0.1099529252 1.4782607410 0.1311262929 0.0000000000 -0.0217391285 0.0000000000
0.4999999565 0.2044838300 0.0118376729 0.0217391285 0.0000000000 0.0000000000
-0.1007462521 1.5434781267 0.2632669988 0.0000000000 0.0217391285 0.0000000000
-0.1491338783 1.5434781267 0.2686760201 0.0000000000 0.0217391285 0.0000000000
0.0062388690 0.8717454894 0.3472809698 0.0000000000 -0.0045476735 -0.0212580851
-0.3260869282 0.4897485009 0.2339318927 0.0202165200 0.0000000000 -0.0036759127
0.1602571382 1.5434781267 0.1254107934 0.0000000000 0.0217391285 0.0000000000
0.0373357359 0.4896701313 -0.4347825709 0.0000000000 0.0000000000 -0.0217391285
-0.0032959345 1.4782607410 -0.1303058582 0.0000000000 -0.0217391285 0.0000000000
0.3913043138 0.4968062611 0.1023360128 -0.0217391285 0.0000000000 0.0000000000
-0.3709101199 0.9728808937 -0.0119466077 -0.0211040851 0.0052100865 0.0000000000
0.3029023650 0.4929553267 -0.3260869499 0.0137555423 0.0048981517 -0.0152009987
-0.1384780314 1.5434781267 0.1138292510 0.0000000000 0.0217391285 0.0000000000
0.0936902092 1.5434781267 0.1065270560 0.0000000000 0.0217391285 0.0000000000
-0.0022728476 0.8076742559 -0.3602042513 -0.0009919564 -0.0047039996 0.0209880851
0.4782608280 0.1561697690 -0.0140791292 -0.0217391285 0.0000000000 0.0000000000
-0.2164659377 1.1238052284 -0.0216098025 -0.0114884338 0.0184489332 0.0000000000
-0.1603623121 1.5434781267 -0.0966879481 0.0000000000 0.0217391285 0.0000000000
-0.3837455753 0.6899677226 0.0057476734 0.0205599113 -0.0050079996 0.0025084998
-0.1441045962 1.4782607410 -0.0354963665 0.0000000000 -0.0217391285 0.0000000000
-0.0010756738 0.6197013374 -0.4010460521 -0.0009113695 -0.0053425648 0.0209283895
-0.0961221003 1.2017794607 0.0217391285 0.0000000000 0.0000000000 0.0217391285
-0.4704040026 0.4740666979 0.0021536737 -0.0212743895 0.0044669127 0.0000000000
-0.0698874504 1.5180722376 -0.3224202111 -0.0067432385 -0.0142055857 -0.0149246726
0.0049774343 0.8997735522 -0.3402739487 0.0000000000 -0.0044536735 0.0212775634
0.3035391475 1.0434781701 0.0139835205 -0.0005718260 -0.0215022807 0.0000000000
0.3186306245 1.0482054089 -0.0217391285 0.0000000000 0.0000000000 -0.0217391285
-0.1667817464 1.5257664978 0.2826086711 -0.0031891954 0.0000000000 0.0209862590
-0.0892132096 1.5434781267 0.0001898043 0.0000000000 0.0217391285 0.0000000000
-0.1921572442 1.5434781267 0.0760272543 0.0000000000 0.0217391285 0.0000000000
0.4297196365 0.6800199843 0.0087589992 0.0213507373 0.0040904562 0.0000000000
-0.0018091085 1.5133751945 -0.3260869064 0.0000000000 -0.0004387608 -0.0216851068
0.0820958407 1.4963060873 -0.2136975032 0.0025303259 -0.0181524549 -0.0109570208
-0.0820879711 0.4999999130 -0.4334930275 0.0000000000 0.0217391285 0.0000000000
0.2829886710 0.4987104566 0.2822286711 -0.0153718900 0.0000000000 -0.0153718900
0.0081748036 1.2001384826 0.0997227522 0.0000000000 0.0188068462 0.0108828251
-0.1747574631 1.5434781267 0.0215808025 0.0000000000 0.0217391285 0.0000000000
0.1545759648 0.4782608280 0.3976790089 0.0000000000 -0.0217391285 0.0000000000
-0.2680790419 1.5382646054 -0.1884426575 -0.0153718900 0.0000000000 -0.0153718900
