0.1428571905 1.3471372619 -0.3772641667 0.0237844286 -0.0003537619 0.0714285714
0.0000000476 1.5060160476 -0.4297679762 0.0238095714 0.0000000000 0.0714285714
0.1299005476 1.4794396905 -0.3820353810 0.0000000476 0.0068572619 0.0942290000
-0.3263796667 1.0935100476 -0.2142857143 0.0000000476 0.0025148095 0.0950299524
-0.1023517143 1.0476190476 -0.2399499524 -0.0008676190 0.0235428333 0.0691975952
0.4053242143 1.0714285714 0.3246320000 0.0000000476 0.0238095238 0.0714285714
-0.3754766190 1.0096734286 0.4285714048 0.0000000476 0.0000000000 0.0952380952
0.2737726190 1.6902545714 -0.3944589524 0.0171090000 0.0007751429 0.0819928333
-0.3809523333 0.9848331190 0.1712928571 -0.0238094762 0.0000000000 0.0714285714
-0.3498225476 0.9905817857 -0.2692250238 -0.0157969048 -0.0042689524 0.0545020714
-0.4161306905 0.1939297619 -0.3811903571 -0.0193601429 0.0050041905 0.0640177143
-0.4318409286 1.0476190476 -0.1923870476 0.0000000476 -0.0238095238 0.0714285714
0.2658084762 1.7275049048 -0.3990285952 0.0000000476 0.0053266667 0.0946203810
0.2960255476 0.8050726905 -0.2008902143 -0.0191973095 0.0002771429 0.0581536190
0.4000137381 1.4607427619 -0.3056618810 0.0018411429 -0.0046484762 0.0485543571
-0.2683282619 0.9523809524 -0.2487075476 0.0000000476 -0.0238095238 0.0714285714
-0.3333333095 0.6029694524 0.3821497143 0.0197622857 -0.0035419762 0.0592432143
-0.2724139524 1.8116600476 -0.4512087857 0.0231937619 0.0017470000 0.0684086190
-0.2322053095 1.2085545000 -0.2857142857 0.0000000476 0.0029235714 0.0949961429
0.1407515238 1.0238095238 -0.1476750714 0.0010348810 -0.0231033571 0.0676664048
0.3169482857 0.5819256190 0.4028057619 -0.0232304048 -0.0034755000 0.0735817381
-0.3052944524 0.7228821905 -0.1955472381 0.0119430714 -0.0070815238 0.0897273333
0.2877090000 0.8279282619 -0.1963190952 -0.0190646190 -0.0003239762 0.0587046905
0.0275861429 1.0238095238 -0.1262201667 0.0000000476 -0.0214558095 0.0631006429
0.0000000476 1.1341447381 -0.3250152857 0.0238095714 0.0000000000 0.0714285714
-0.3507684048 0.2826309524 -0.3634320714 0.0236666190 -0.0018325714 0.0695960000
0.3095238571 1.1025381429 -0.2357079048 -0.0238094762 0.0000000000 0.0714285714
-0.2114481667 1.0238095238 -0.0984255952 -0.0027756190 -0.0230087381 0.0666188810
0.3352757143 0.4907439524 0.4542321667 0.0000000476 0.0041122143 0.0948747143
-0.4105531190 1.0476190476 0.3434186190 0.0000000476 -0.0238095238 0.0714285714
0.2006473571 1.0296293095 -0.2998830952 -0.0005031667 -0.0228836190 0.0769457143
-0.0831973571 1.9123902143 -0.5434786429 -0.0072314286 -0.0133343810 0.0534061905
-0.2536502143 1.0714285714 0.4662157619 0.0000000476 0.0238095238 0.0714285714
-0.2960433571 0.9245450238 -0.1900785000 0.0147575952 0.0027808571 0.0548240714
-0.0620126429 1.0000000000 -0.0539580714 0.0000000476 -0.0231402857 0.0685936667
0.2896230238 1.0476190476 0.2853678810 0.0000000476 0.0238095238 0.0714285714
0.3598793810 0.3908032857 -0.3551726667 -0.0084095238 0.0044666190 0.0500390000
-0.4267676667 0.0000000000 -0.4140665952 0.0000000476 -0.0238095238 0.0714285714
0.3270973333 0.5103557143 -0.2544747143 -0.0197125238 -0.0061090952 0.0830349286
-0.4761904286 1.0617375238 0.1074842143 -0.0139093571 0.0131287143 0.0708044524
0.3809524286 0.9925376429 0.3127881190 0.0238095714 0.0000000000 0.0714285714
0.2303860952 1.0476190476 0.5220918095 0.0000000476 0.0238095238 0.0714285714
-0.1389202857 1.8741297143 -0.5238095238 -0.0034908095 -0.0052362857 0.0489716905
-0.4257319762 1.0648538571 0.0886633333 0.0019911190 0.0200601905 0.0598110952
0.0535520238 1.0476190476 0.1987516190 0.0000000476 0.0238095238 0.0714285714
-0.3685222143 1.0476190476 -0.0318121905 0.0000000476 0.0238095238 0.0714285714
0.2380952857 0.9833551190 -0.0100859286 -0.0238094762 0.0000000000 0.0714285714
-0.1421198810 1.0714285714 0.4282315714 0.0000000476 0.0238095238 0.0714285714
-0.3809523333 0.4688370952 0.3889543333 -0.0215649524 0.0007001667 0.0660834286
-0.3809523333 0.9861358571 -0.1307516905 -0.0238094762 0.0000000000 0.0714285714
0.4475458810 1.0714285714 0.3065450238 0.0000000476 0.0238095238 0.0714285714
0.3374545238 0.3603466667 0.4563024524 -0.0234011429 -0.0043225000 0.0714285714
-0.3554840000 0.4747587857 0.4574292143 0.0015838095 0.0039896190 0.0946385476
0.2726180714 1.0291661667 0.1400413333 0.0063775714 -0.0229153333 0.0714285714
-0.1901535714 1.0026042619 -0.3333333333 -0.0006863095 -0.0007347143 0.0478004286
0.3930619524 0.4634860238 -0.2765551667 0.0171546667 -0.0032045714 0.0874514048
0.3809524286 0.6880825476 -0.2266162619 0.0237373333 0.0015669524 0.0719739762
-0.2332081905 1.2439358095 -0.2857142857 0.0000000476 0.0009846905 0.0951565952
-0.3333332857 0.3988229762 0.4336387619 0.0215511905 -0.0022140952 0.0746712381
0.1272211905 0.9748075476 -0.1918590714 0.0000000476 -0.0171699524 0.0877239048
-0.2639638095 1.6526225952 -0.3865481667 0.0000000476 0.0043515000 0.0948231905
0.2857143333 1.7648106429 -0.4274194762 0.0237290000 -0.0019370476 0.0714285714
-0.4047618571 0.2801341667 -0.3325573095 -0.0221691667 0.0000579048 0.0783281905
0.2818766905 0.9523809524 -0.2756951190 0.0000000476 -0.0238095238 0.0714285714
0.3278330952 0.6157472143 0.4330897619 -0.0055180000 0.0029045714 0.0932814762
0.4369701190 1.0476189524 -0.0298359762 0.0000000476 0.0238095238 0.0714285714
-0.2038379762 1.0240678333 -0.3437810714 -0.0084353333 -0.0057873810 0.0506183810
0.1240383810 1.0476190476 0.1743005952 0.0000000476 0.0238095238 0.0714285714
0.2322289762 1.0476190476 0.1145239762 0.0000000476 0.0238095238 0.0714285714
-0.3811566905 0.3208475000 -0.3662167143 -0.0096260952 0.0048470714 0.0510616667
-0.3333332857 1.0857697381 -0.2423346905 -0.0211089286 -0.0026418333 0.0655940000
0.3809524286 0.9977569524 0.1876735476 0.0238095714 0.0000000000 0.0714285714
0.1318294524 1.0476190476 0.0259300238 0.0000000476 0.0238095238 0.0714285714
-0.1479141429 1.0476190476 0.3696389524 -0.0008375476 -0.0236219286 0.0731037857
-0.3794244762 1.5557930238 -0.3227908810 0.0005650476 -0.0032193333 0.0479596429
-0.2945964286 0.7601918333 0.3723556905 0.0177356190 -0.0032630000 0.0560526190
-0.2894134524 1.0068009762 -0.3095238095 -0.0017812857 -0.0008906667 0.0482009286
-0.2142856667 1.2391771667 -0.3228105476 0.0214477619 -0.0017380238 0.0662145000
0.1634350714 1.0505918810 0.5000000000 0.0000000476 0.0000000000 0.0952380952
-0.2406205238 0.9761904762 0.1324669048 0.0000000476 -0.0238095238 0.0714285714
0.0468208333 1.0238095238 0.2946084762 0.0000000476 -0.0238095238 0.0714285714
0.1190476667 1.0726262143 -0.2803350714 0.0238095714 0.0000000000 0.0714285714
0.3637209762 0.5458203333 0.4447442143 0.0053559524 0.0038668810 0.0926964048
0.4761905238 1.9390923571 -0.3726907381 0.0146951429 -0.0078951667 0.0556382381
-0.3980891429 0.4478389286 -0.3063967619 -0.0197908095 0.0048011429 0.0594257381
-0.2802595952 1.7291770238 -0.4081838810 -0.0207041667 -0.0007200476 0.0762540238
-0.3363421905 1.3643951429 -0.2857142857 0.0084537619 -0.0020230238 0.0499099524
-0.0807661905 1.0602389762 0.5000000000 0.0000000476 0.0000000000 0.0952380952
-0.2328037857 1.1758646190 -0.3095238095 0.0000000476 -0.0021141667 0.0477380476
0.0294064762 0.9523809524 -0.2281693333 0.0000000476 -0.0229439286 0.0767626190
-0.3970892857 1.0476190476 -0.0532080952 0.0000000476 -0.0238095238 0.0714285714
-0.2421113571 1.0476190476 0.1935135952 0.0000000476 0.0238095238 0.0714285714
-0.3278345952 0.6057659286 -0.2883706190 0.0000000476 0.0067772619 0.0486047619
0.1206366905 1.2690900238 -0.3349223810 0.0035142381 0.0055096667 0.0939665714
0.3897601190 1.5371511667 -0.2945219762 0.0097040714 0.0024460952 0.0903610476
0.2679640000 1.8940720238 -0.4916254286 0.0072280952 -0.0070729048 0.0502098333
-0.1314095476 1.0238095238 0.1941601190 0.0000000476 -0.0238095238 0.0714285714
0.3149101190 0.8125703810 0.4201271429 -0.0101685238 0.0015250952 0.0916298333
0.0781969524 1.0000000000 0.0627657381 0.0000000476 -0.0238095238 0.0714285714
-0.4028882857 1.9337837619 -0.3809523810 0.0136631667 0.0000000000 0.0908910714
-0.2883426667 1.0476190476 -0.1245537857 -0.0029673571 -0.0235250000 0.0723078333
-0.2325442143 1.0476190476 -0.3454406905 0.0000000476 0.0238095238 0.0714285714
0.0360542857 1.0476190476 0.0812655000 0.0000000476 0.0238095238 0.0714285714
-0.3438954762 1.4225972381 -0.2961254762 0.0064033810 -0.0038224286 0.0496521429
-0.2721548571 1.6805485238 -0.3924127381 -0.0162123571 0.0011480000 0.0834238810
-0.3884810952 1.4292178333 -0.2977806429 -0.0087527857 -0.0058675476 0.0525942619
-0.2508258571 1.0476190476 -0.2865816667 -0.0013034048 0.0229222143 0.0670213095
-0.1463331905 0.9523809524 -0.3040342381 0.0000000476 -0.0238095238 0.0714285714
0.2633507857 1.7456743095 -0.4311001190 -0.0178863810 -0.0023723810 0.0558940952
-0.3569236905 0.2630003571 0.4748838571 0.0236567619 -0.0026818095 0.0714285714
0.3588611190 1.0476190476 -0.1227698571 0.0000000476 0.0238095238 0.0714285714
-0.3992178810 2.0000000000 -0.4344017381 0.0000000476 0.0238095238 0.0714285714
0.3993793333 1.0424849286 -0.2434778571 0.0111531905 0.0152212143 0.0600997381
0.3442568333 0.5644303333 0.3746255000 -0.0164862381 -0.0031684048 0.0581145952
-0.3158549048 0.7961707381 0.4228604286 0.0017960714 0.0022372381 0.0948408571
-0.3946218571 1.0371449762 0.4170948810 -0.0162605000 -0.0166453095 0.0747968095
0.1653698095 1.0476189524 -0.2183354286 0.0000000476 0.0238095238 0.0714285714
-0.2113238810 0.9523810476 -0.2342353810 0.0000000476 -0.0229765952 0.0761564762
0.0723944762 1.0189437857 -0.0903723333 0.0002912619 -0.0230229286 0.0664188571
0.2142857381 1.1811553333 -0.3095069286 -0.0122641905 -0.0030524286 0.0531140000
0.1045455238 1.2187211190 -0.3189388095 0.0000000476 0.0068354286 0.0942183095
0.3571429048 0.6098481190 0.2919891667 0.0238095714 0.0000000000 0.0714285714
-0.1428570952 1.7217592619 -0.4671582619 -0.0238094762 0.0000000000 0.0714285714
-0.3726924762 0.7991597381 0.3726925238 -0.0169304048 0.0000000000 0.0547064048
0.2380952857 1.0014741190 -0.1636466667 -0.0238094762 0.0000000000 0.0714285714
-0.1152528810 1.5962795000 -0.4424139762 0.0215455238 -0.0005640476 0.0630097143
-0.3629710952 1.0714285714 0.2386258095 0.0000000476 0.0238095238 0.0714285714
0.3809524286 0.9829250476 0.1522658095 0.0238095714 0.0000000000 0.0714285714
0.5000000000 1.9487619048 -0.3526910952 0.0238095714 0.0000000000 0.0714285714
0.0732093571 1.0476190476 -0.0019928571 0.0000000476 0.0238095238 0.0714285714
-0.1060019524 1.0476189524 0.3574336667 -0.0028423333 -0.0228345238 0.0771133095
0.0806393333 1.0476191429 -0.1066291905 0.0000000476 0.0238095238 0.0714285714
-0.3545300714 0.8702065714 -0.1410074762 -0.0236843810 0.0022852619 0.0714285714
0.2530370238 0.9922795952 -0.3106712619 0.0085465714 -0.0065062857 0.0508616190
0.4315720952 1.9013092381 -0.3565674286 0.0000000476 0.0039142619 0.0949141429
-0.2168697143 1.3403353095 -0.3529409762 0.0149263810 -0.0026254048 0.0539797143
-0.3847354286 1.0238094286 0.1608372619 -0.0168318333 -0.0168318810 0.0719340476
-0.0105662381 1.0476190476 0.0522000000 0.0000000476 0.0238095238 0.0714285714
0.3333333810 0.6820513810 0.3613360476 -0.0174807857 -0.0029100714 0.0599622857
-0.3714958333 1.3431263810 -0.2641243810 -0.0181617857 -0.0010159524 0.0846560714
0.3809524286 0.0310764762 -0.4128958333 -0.0221181667 -0.0009710952 0.0743418333
-0.1268491190 1.0135860476 -0.1904761905 0.0000000476 0.0000000000 0.0952380952
-0.4047618571 1.9336972857 -0.4258124048 -0.0202830952 -0.0034257619 0.0661373810
-0.0420761190 1.0238095238 -0.2997916429 0.0000000476 -0.0238095238 0.0714285714
0.0000000476 1.4681553571 -0.4209814524 -0.0238094762 0.0000000000 0.0714285714
-0.3625368333 1.9139055476 -0.4450480238 -0.0058768333 -0.0079398810 0.0506025714
-0.2718481429 0.9264734286 -0.1745748095 0.0224905476 -0.0027193571 0.0669817381
-0.2905497857 1.9018767143 -0.4285714286 0.0105792143 0.0092887857 0.0881336190
-0.2159142857 1.9042525476 -0.4756811667 0.0007295714 0.0165965476 0.0882740000
0.3778302381 0.5255499762 0.4481226190 0.0091266190 0.0054242619 0.0926248571
0.2492953810 1.3423011429 -0.3207239048 0.0192072381 0.0011698810 0.0847325952
-0.0194680952 1.0144228333 -0.1096609048 0.0000000476 -0.0203962381 0.0592303810
-0.2380952143 0.9975995476 0.1230326190 0.0238095714 0.0000000000 0.0714285714
0.4047619524 1.0243969762 0.0831084048 0.0238095714 0.0000000000 0.0714285714
-0.3072610238 0.9761904762 0.1839456905 0.0000000476 -0.0238095238 0.0714285714
0.2380952857 1.5009188810 -0.3680979048 -0.0213832619 0.0010428095 0.0663776190
0.3416725476 0.5714285714 -0.0635298810 0.0000000476 -0.0236868810 0.0733985476
0.3377864524 0.9761904762 0.3292097857 0.0000000476 -0.0238095238 0.0714285714
-0.3415416429 0.5763772857 0.4396514048 0.0090011905 0.0019820476 0.0913309762
-0.4641371667 1.9047619048 -0.3156046667 0.0088534286 0.0127988095 0.0850814286
0.4099716429 0.0466965476 -0.3933184048 0.0019023571 -0.0083318810 0.0932088095
-0.3616805238 1.0476190476 0.2416059286 0.0000000476 -0.0238095238 0.0714285714
-0.1373825714 1.8481051190 -0.5109135714 0.0234856190 0.0039142619 0.0714285714
-0.3364262857 0.6190476190 0.0139478333 0.0000000476 0.0235032143 0.0677308571
0.3767846667 0.4436798095 -0.3362196429 0.0139359524 0.0061317619 0.0536664762
-0.3327594048 1.0476190476 0.2265520952 0.0000000476 0.0238095238 0.0714285714
-0.0463008333 1.0476190476 -0.1487024762 0.0000000476 0.0238095238 0.0714285714
-0.3809523333 0.9931171905 0.2539641429 -0.0238094762 0.0000000000 0.0714285714
-0.2747180000 0.9761904762 -0.0851670952 0.0000000476 -0.0238095238 0.0714285714
0.2347127857 1.0476190476 0.4619299048 0.0000000476 -0.0238095238 0.0714285714
0.2380952857 1.0166106429 -0.1081663810 -0.0238094762 0.0000000000 0.0714285714
-0.1843445476 1.0238095238 0.0351238333 -0.0014451905 -0.0234588571 0.0699833333
-0.1462869286 1.9047619048 -0.4892012619 0.0000000476 0.0238095238 0.0714285714
-0.3758818571 1.0476190476 -0.0904634762 0.0000000476 -0.0238095238 0.0714285714
0.3885833571 1.8809523810 -0.3961787857 0.0000000476 -0.0238095238 0.0714285714
0.3809178095 1.2677118095 -0.2618701429 0.0192674286 0.0005441429 0.0843393571
-0.1836304762 1.0476190476 0.2361055238 0.0000000476 0.0238095238 0.0714285714
-0.2077262143 1.0970712381 -0.2619047619 0.0005416905 0.0000000000 0.0950137381
0.4761905238 1.0617737619 0.1144351190 0.0238095714 0.0000000000 0.0714285714
-0.2288048095 1.0988226429 -0.2551630952 0.0000000476 0.0075292381 0.0940162619
0.1496653095 1.0714285714 0.3705685476 0.0000000476 0.0238095238 0.0714285714
0.4350450238 1.0714285714 0.1393302619 0.0000000476 0.0238095238 0.0714285714
0.0812444286 1.0000000000 0.1068476667 0.0000000476 -0.0238095238 0.0714285714
0.4211224524 1.0714285714 0.3551371429 0.0000000476 0.0238095238 0.0714285714
0.1106793095 1.0714285714 0.4881296667 0.0000000476 0.0238095238 0.0714285714
-0.2380951905 1.5009952619 -0.3628139524 0.0237952857 0.0003433095 0.0714285714
-0.3032170238 0.9379412381 0.3984551429 0.0118301190 0.0013365238 0.0912778333
-0.1456639048 1.0476190476 -0.2116220952 0.0000000476 0.0238095238 0.0714285714
0.3981433571 1.6885695714 -0.3211107619 0.0000000476 0.0040913333 0.0948832857
-0.3734389286 0.3953131667 0.4733183333 0.0014561429 0.0040384048 0.0946368571
0.1707278571 1.9026616429 -0.5227594286 0.0059568810 -0.0057944524 0.0491508333
0.4047619524 0.3269111429 0.4656375714 0.0198171667 0.0017375476 0.0807853810
-0.1076779524 1.0375617857 -0.3765799286 -0.0083756429 -0.0130074524 0.0540579048
-0.3846402857 0.4762569524 0.4534416190 -0.0115510714 0.0038665476 0.0913086190
-0.1341265238 1.0714285714 0.4583153571 0.0000000476 0.0238095238 0.0714285714
-0.2857142381 0.9088065714 0.3964737381 0.0192121905 -0.0005153571 0.0829192143
-0.2024728333 1.0032203333 -0.1904761905 0.0000000476 0.0000000000 0.0952380952
0.3006989524 0.7822198333 -0.2182837381 -0.0221698095 -0.0013364524 0.0659841667
0.3798357143 0.1511196190 0.4800772381 -0.0165005476 0.0008006667 0.0884254762
-0.3571428095 0.6044820952 0.2757854048 -0.0237099048 -0.0001579524 0.0714549048
0.2458820714 1.9324511667 -0.4722833095 -0.0106763571 0.0106764048 0.0895938571
0.3333333810 0.4106343571 -0.2969084286 -0.0234398571 -0.0026752143 0.0722566190
-0.2730582619 1.0419718333 -0.0195237857 -0.0042270714 -0.0230359762 0.0682325000
-0.2690090714 1.0299508333 0.1956543810 -0.0079306190 -0.0220496667 0.0751475952
0.0000000476 1.6809449048 -0.4731751429 -0.0238094762 0.0000000000 0.0714285714
0.2928208095 0.8554009048 0.3980397619 -0.0195125000 -0.0010067143 0.0832452143
0.3089635476 0.6693028095 0.4042015952 -0.0214559048 -0.0011028810 0.0805975238
-0.2619047143 1.3063817619 -0.3243609762 -0.0237040238 -0.0016054762 0.0714285714
-0.3460502619 0.6864113571 -0.2698614048 -0.0137794524 0.0064409524 0.0535326667
-0.3913035238 2.0000000000 -0.4132705000 0.0000000476 0.0238095238 0.0714285714
-0.2380951905 1.0111877857 0.0123053333 0.0238095714 0.0000000000 0.0714285714
-0.4047618571 1.0351869524 0.1629779524 -0.0201668095 -0.0087894524 0.0715665714
-0.3586884524 0.9761904762 0.2517040476 0.0000000476 -0.0238095238 0.0714285714
-0.1206525714 1.0714285714 0.3991970714 0.0000000476 0.0238095238 0.0714285714
-0.0620335238 1.0238095238 0.2360670000 0.0000000476 -0.0238095238 0.0714285714
0.1417971190 1.5912286667 -0.4192984524 0.0000000476 0.0073953333 0.0940586667
-0.2408110714 1.0503349286 0.2294895714 0.0074659762 0.0205111667 0.0650960238
0.3809524286 0.6190298571 -0.2704635476 0.0227860952 0.0015067619 0.0676614524
0.1038156905 1.0476190476 -0.1411602619 0.0000000476 0.0238095238 0.0714285714
-0.0948057381 0.9761904762 -0.3485351667 -0.0049231429 -0.0187597143 0.0612765238
-0.4037405238 1.0238095238 0.0148338810 -0.0168316667 -0.0168317143 0.0718334524
0.1115067619 1.0714285714 0.3360085714 0.0000000476 0.0232958333 0.0692525714
0.3343726667 0.5278966905 -0.2412222381 -0.0043544048 -0.0073536429 0.0930377381
-0.2857142381 1.8411118571 -0.4450291190 -0.0238094762 0.0000000000 0.0714285714
0.3385422143 0.8707891190 -0.2115564762 0.0060881667 0.0049837381 0.0511875952
0.3449365476 0.4112367619 0.4463240714 -0.0154284762 0.0005267143 0.0855931667
0.1093319048 1.0476190476 0.4471730000 0.0000000476 -0.0238095238 0.0714285714
-0.4063870000 0.1819907381 -0.3969351905 -0.0058364524 0.0051928095 0.0502878095
-0.3530794762 1.0476190476 0.3850431905 0.0000000476 0.0238095238 0.0714285714
0.3333333571 0.7005578095 -0.2566332381 -0.0181146190 0.0022905952 0.0576016429
0.3416045476 0.9761904762 0.0376107619 0.0000000476 -0.0238095238 0.0714285714
0.2979418571 1.0714285714 0.4941378095 0.0000000476 0.0238095238 0.0714285714
-0.3249234286 1.0707139524 0.4999999524 0.0000000476 0.0000000000 0.0952380952
0.3234514048 0.9343996429 -0.1119544048 0.0000000476 -0.0088426429 0.0935351667
-0.3915541429 1.0476190476 -0.2059243095 0.0000000476 -0.0238095238 0.0714285714
-0.3371245952 1.0476190476 0.4465342857 0.0000000476 -0.0238095238 0.0714285714
0.0181302857 1.0476190476 0.1025596190 0.0000000476 0.0238095238 0.0714285714
0.3383745476 0.4747942143 0.3905436190 -0.0163731190 -0.0041456190 0.0557052381
-0.3964025952 0.1799981905 -0.3478576190 -0.0085452857 -0.0057846905 0.0916311190
0.1342479524 1.8292970238 -0.4916402619 -0.0234855238 0.0039142619 0.0714285714
-0.3961085714 1.6581215714 -0.3160361429 0.0000000476 0.0041648333 0.0948704762
0.3161081667 1.9240770000 -0.4739433571 0.0007439524 -0.0102009048 0.0500968571
0.2377873333 1.3076900238 -0.3447795952 0.0000000476 -0.0061725714 0.0484365000
-0.1224642381 1.0238095238 -0.1510827619 -0.0036207857 -0.0230018333 0.0700826905
0.0000000476 1.8033599762 -0.5057570238 -0.0238094762 0.0000000000 0.0714285714
-0.3510868571 0.7506213810 -0.1715582381 -0.0184960238 -0.0012868333 0.0813722381
0.3904528333 0.4524980238 0.4488128571 0.0230773571 0.0027510000 0.0733460238
0.3628486190 0.5771342619 -0.0768406429 0.0157153571 -0.0150271905 0.0725436190
-0.3809523333 1.9233031429 -0.3888787857 0.0187933095 0.0028369524 0.0818145238
0.3759673571 1.0714285714 0.2082015238 0.0000000476 0.0238095238 0.0714285714
0.3544595714 0.4151472381 0.4693515000 0.0000000476 0.0029120238 0.0950435714
-0.3720124762 1.0714285714 0.4796640238 0.0000000476 0.0238095238 0.0714285714
0.3545606905 0.7430976667 0.4285714286 0.0026380714 0.0022947143 0.0940323571
0.3383880952 1.2989086905 -0.2413938571 0.0000000476 0.0033440952 0.0949812143
-0.2430437143 1.0714285714 0.2933777857 0.0000000476 0.0238095238 0.0714285714
-0.3333332857 0.6048800238 0.1763994524 0.0238095714 0.0000000000 0.0714285714
0.0173577619 1.0476190476 0.4896661667 0.0000000476 -0.0238095238 0.0714285714
0.3458627619 0.6537714524 0.4411008333 -0.0064326905 0.0015248333 0.0924869048
0.3113944048 1.9840345952 -0.4981294286 0.0111341190 0.0000000000 0.0504830714
-0.3309921429 0.7914693095 -0.2441134286 -0.0031060000 0.0065380952 0.0493622143
0.3564618095 0.9525725952 -0.2149668333 0.0044535952 -0.0216828095 0.0800166190
-0.3643421190 0.5282947857 -0.3148161667 -0.0152243095 0.0064571190 0.0546820000
-0.3571428095 0.1816352143 0.4548890714 0.0236088810 -0.0018172143 0.0732457857
0.3648227857 1.0476190476 0.4418344524 0.0000000476 -0.0238095238 0.0714285714
0.2857143095 0.9330179048 0.3680643333 -0.0198955238 0.0022435238 0.0804026429
-0.3064307619 0.7549064286 -0.1769359762 0.0140180000 -0.0057988095 0.0895385714
0.3714718333 1.0476190476 -0.1459046429 0.0000000476 -0.0238095238 0.0714285714
-0.2737148095 1.9540038333 -0.4761904762 0.0049384524 0.0003825000 0.0940697857
0.3809524286 0.2457377143 0.4912326905 -0.0105211905 0.0002465952 0.0859767857
0.0674550952 1.0476190476 -0.3587961667 0.0000000476 0.0238095238 0.0714285714
0.3287149524 1.0476190476 0.4651351190 0.0000000476 -0.0238095238 0.0714285714
-0.3333332857 0.5576988333 -0.1532697619 0.0238095714 0.0000000000 0.0714285714
0.2977577381 1.9285714286 -0.4493577143 0.0000000476 0.0238095238 0.0714285714
0.0391331905 1.0238095238 -0.1953987143 0.0000000476 -0.0238095238 0.0714285714
-0.0732765000 1.0000000000 0.0538286905 0.0000000476 -0.0238095238 0.0714285714
-0.3647415000 0.9761904762 -0.0620320714 0.0000000476 -0.0238095238 0.0714285714
0.3843764286 1.0034239524 0.2258904048 0.0168354048 -0.0168353571 0.0714997619
-0.4047618571 1.0239457619 0.3170763333 -0.0168695000 -0.0167333333 0.0720506667
-0.3973083810 1.0238095238 0.2781997143 -0.0168302619 -0.0168303095 0.0720183810
-0.3287923810 0.6070649286 0.0714285714 0.0000000476 0.0000000000 0.0952380952
0.3146756905 0.6035633571 -0.2296133095 -0.0172190714 -0.0060920238 0.0866586429
0.3957059524 1.0476190476 0.2639784048 0.0000000476 -0.0238095238 0.0714285714
0.2773893333 1.0162433333 -0.3095238095 0.0029780476 -0.0008795476 0.0482289286
-0.2767023333 1.7704783810 -0.4577781190 -0.0029736429 -0.0039765238 0.0545544762
-0.1458443571 1.0267967857 -0.2325229048 -0.0092234286 -0.0216880238 0.0735975952
0.3637461190 0.6673618571 0.3728999762 0.0075432857 -0.0026216667 0.0518234048
-0.1463185000 1.0476190476 0.1072146429 0.0000000476 0.0238095238 0.0714285714
-0.2395528333 0.9795975476 -0.3114732619 -0.0095162619 -0.0091774286 0.0517176905
0.2806585714 0.9900580000 -0.3095238095 0.0037130000 -0.0064370952 0.0501159048
-0.1015542143 1.0371660476 -0.3003041190 -0.0019509048 0.0229173810 0.0654389762
0.3939653095 0.0325717143 0.5194284286 -0.0074571429 0.0062932381 0.0909679286
-0.1053877619 1.9523807619 -0.5142863571 0.0018676905 0.0158884286 0.0885580952
-0.3923057381 1.5654738333 -0.2988090476 0.0000000476 0.0044438095 0.0948188095
-0.3571428095 0.5818568095 -0.1760207857 -0.0238094762 0.0000000000 0.0714285714
0.1890967143 1.0645005476 0.2787862143 -0.0027180952 0.0208905000 0.0609240714
-0.2633599286 0.9523809524 -0.2699381905 0.0000000476 -0.0238095238 0.0714285714
-0.3928290238 1.0195344286 -0.0101667381 -0.0168257857 -0.0168258333 0.0721890476
0.3624264286 2.0000000000 -0.4639512857 0.0000000476 -0.0122391905 0.0714285714
0.4703202381 1.0476190476 0.2995806190 0.0000000476 -0.0238095238 0.0714285714
0.4242655000 0.1833419286 0.4713359048 0.0234106190 0.0029694762 0.0684590952
0.3333333810 0.6198235952 0.1554346905 -0.0238094762 0.0000000000 0.0714285714
-0.2724166190 1.0295684524 -0.3333333333 -0.0044575476 0.0000000000 0.0487128333
0.3031709524 1.0714285714 0.3057195000 0.0000000476 0.0238095238 0.0714285714
0.2788342857 1.6115106905 -0.4035057857 0.0015082381 -0.0042289286 0.0480661429
-0.3892446667 1.4290213810 -0.2739220238 -0.0135484762 0.0001869048 0.0879884286
-0.3679376667 1.8875369048 -0.3939670476 0.0130229524 0.0030740714 0.0905995952
-0.4427727619 1.0493961429 0.0732056190 0.0016726190 0.0169541667 0.0549672619
0.3777400714 0.7779665476 0.3557477381 0.0198389286 0.0003184286 0.0583510476
-0.3740893095 1.0714285714 0.1630806905 0.0000000476 0.0238095238 0.0714285714
-0.2092845476 1.0238095238 0.0099672619 0.0000000476 -0.0237609762 0.0719189762
-0.3557085952 0.9761904762 0.0535659524 0.0000000476 -0.0238095238 0.0714285714
0.3686301905 0.4864437381 -0.2578034524 0.0000000476 -0.0070139524 0.0941737619
0.3142098095 0.7665543333 0.4277965000 -0.0132600238 0.0005194524 0.0897837857
0.0402480476 1.0238095238 -0.3255024762 0.0000000476 -0.0238095238 0.0714285714
0.3571429048 0.4110865714 -0.3396153571 -0.0111854762 0.0045507857 0.0523526429
-0.3919479762 0.0497969762 -0.3917681905 0.0000000476 -0.0099514048 0.0930473095
0.2380953095 1.1512121429 -0.2954925476 0.0235638810 -0.0022762857 0.0714285714
0.3571429048 0.9560703095 -0.1689421429 0.0237895952 0.0004004048 0.0714285714
0.0125405238 1.9746642381 -0.5335523095 -0.0084310476 0.0149801667 0.0870318333
-0.2380952143 1.1430764048 -0.2910854762 -0.0236456667 -0.0015989286 0.0714285714
0.3556934762 0.5545450952 -0.1627721429 0.0000000476 -0.0235179048 0.0751092381
-0.4033751667 1.0476189524 -0.2622264762 0.0000000476 -0.0238095238 0.0714285714
0.3305428333 0.6306012381 -0.2029309762 -0.0118910000 -0.0073992857 0.0903671190
-0.4695035476 1.0714284762 0.2617227857 0.0000000476 0.0238095238 0.0714285714
-0.3571428333 0.8528960952 0.4007668095 -0.0196068095 0.0029914762 0.0841899524
0.4315719286 1.0476190476 -0.1162786429 0.0000000476 -0.0238095238 0.0714285714
-0.2381389286 1.0476190476 0.0218089524 0.0000000476 0.0238095238 0.0714285714
-0.2473935476 1.0238095238 0.1945413810 -0.0036253810 -0.0231662857 0.0744191190
-0.3685156429 0.3717085238 -0.3589916190 0.0038639286 0.0047174048 0.0487269762
0.3778095238 0.6408963333 -0.2228758333 0.0166985238 -0.0031870476 0.0863595952
0.1014064286 1.0476190476 0.1283851190 0.0000000476 0.0238095238 0.0714285714
-0.0477442381 0.5766735000 0.0714285714 0.0000000476 0.0000000000 0.0476190476
-0.3333332857 1.2645846667 -0.2716788571 0.0214034524 -0.0003494524 0.0644351190
-0.1920036190 1.0238095238 0.1116493571 0.0000000476 -0.0238095238 0.0714285714
0.3754420000 1.0476190476 0.1852627381 0.0000000476 0.0238095238 0.0714285714
0.4515378095 1.0476190476 -0.1728408095 0.0000000476 -0.0238095238 0.0714285714
-0.0152968333 1.0238095238 -0.2856531667 0.0000000476 -0.0238095238 0.0714285714
-0.3195254286 0.9235550952 0.4047619048 0.0000000476 0.0021548810 0.0951042143
0.1762158095 0.9672085000 -0.1994582143 0.0000000476 -0.0190057143 0.0847535714
0.4747235000 1.0476190476 -0.0884968333 0.0000000476 -0.0238095238 0.0714285714
0.2830751667 0.9761904762 0.1639626667 0.0000000476 -0.0238095238 0.0714285714
0.2297678571 1.0476190476 -0.1939280714 0.0000000476 0.0238095238 0.0714285714
-0.1957509524 1.0300370238 -0.1904761905 0.0000000476 0.0000000000 0.0952380952
-0.3739969762 0.6300148333 -0.2105235714 -0.0168724048 -0.0025678810 0.0867729048
0.3809524286 0.7088895476 0.3683553333 0.0212242143 0.0002151667 0.0617987857
0.3571428810 1.1697593810 -0.2538890714 0.0234856190 -0.0039142619 0.0714285714
0.3984304524 1.7239158333 -0.3440764286 -0.0234695476 0.0040059762 0.0714285714
0.2691850476 1.6907072619 -0.4263740714 -0.0150993095 -0.0030186190 0.0537103571
-0.0386965238 1.0476190476 -0.1015842857 0.0000000476 0.0238095238 0.0714285714
0.3270246905 1.2099181667 -0.2619047619 -0.0078977381 -0.0017876190 0.0510174762
0.3107517143 1.0439001667 0.4285714048 0.0000000476 0.0000000000 0.0952380952
0.2816273571 1.8718479762 -0.4810922619 0.0038524286 -0.0072290714 0.0497413810
0.1421389048 1.9761902857 -0.5431470476 0.0000000476 0.0238095238 0.0714285714
0.2338000476 1.8847925000 -0.5000000000 0.0063786905 -0.0039405000 0.0490753810
0.2418925000 0.9761904762 0.2078470714 0.0000000476 -0.0238095238 0.0714285714
0.4047619524 1.0241670238 0.4128674048 0.0205364524 -0.0118961190 0.0714285714
-0.1124359048 1.0065307619 0.1493878810 0.0000000476 -0.0168358810 0.0882644524
-0.4254307857 1.0476190476 0.3745172143 0.0000000476 -0.0238095238 0.0714285714
-0.3426211190 0.5609446905 0.3687634762 0.0010270000 -0.0033358095 0.0481283571
-0.3679100000 0.1678705714 -0.3684456667 0.0125255238 -0.0085302143 0.0871572381
-0.3317614286 1.0476190476 0.2765056905 0.0000000476 0.0238095238 0.0714285714
0.3226423095 0.9534612381 0.3152061190 0.0000000476 -0.0057746667 0.0483299286
-0.2485406905 1.0703015952 0.2546592619 0.0001905476 0.0206582381 0.0603789048
0.0207230000 0.6121931905 0.0714285714 0.0000000476 0.0000000000 0.0476190476
-0.1656071429 1.0238095238 -0.0871118571 0.0000000476 -0.0238095238 0.0714285714
-0.2630423571 0.9705022143 -0.1645051429 0.0232491905 -0.0044463333 0.0709198095
-0.1724410714 1.0395813810 0.5238095238 0.0000000476 0.0000000000 0.0476190476
0.0434339048 1.0476190476 -0.2721903095 0.0000000476 0.0238095238 0.0714285714
0.2426044048 1.0476190476 0.3371802381 0.0000000476 -0.0238095238 0.0714285714
0.3542045000 1.1149245714 -0.2142857143 0.0147581429 0.0002571429 0.0891038095
0.3434758333 1.3262841429 -0.2504467619 -0.0196092619 0.0047190952 0.0789883333
-0.1190475714 1.0998074762 -0.3268473571 -0.0238094762 0.0000000000 0.0714285714
0.4262335238 0.0000000000 -0.4426582857 0.0000000476 -0.0238095238 0.0714285714
0.3582988810 0.6235104048 -0.2839291667 0.0003855714 0.0068164524 0.0487070476
-0.2857142381 0.7581380238 -0.1868624286 0.0164879524 -0.0054400714 0.0875020476
-0.3809523333 0.9949262619 0.1510005714 -0.0238094762 0.0000000000 0.0714285714
-0.4047618571 1.0294736190 0.0615372619 -0.0184925952 -0.0128285714 0.0716402857
-0.3548439762 1.0476190476 0.0442822857 0.0000000476 0.0238095238 0.0714285714
0.4246555952 1.8050410000 -0.3643321905 0.0000000476 -0.0039142619 0.0479430000
0.3117498333 0.6079178333 0.3935937619 -0.0228093571 -0.0031966190 0.0695616429
-0.1190475714 1.7193694286 -0.4636678333 0.0222264762 0.0000000000 0.0642314286
0.3808596905 1.6185838571 -0.3130054524 -0.0234249048 0.0042585952 0.0714179048
-0.0924162381 1.0000000000 0.1060667381 0.0000000476 -0.0238095238 0.0714285714
-0.1895805476 1.0476189524 -0.1326800238 0.0000000476 0.0238095238 0.0714285714
-0.1288237381 1.0476190476 0.1765230476 0.0000000476 0.0238095238 0.0714285714
-0.1737076190 0.9761904762 -0.3264842143 -0.0032270476 -0.0102681190 0.0552930714
0.0951506429 0.9720646190 -0.1946020476 0.0000000476 -0.0178325952 0.0866517381
0.3490455238 0.8304960952 -0.1517394048 0.0109387619 -0.0051883333 0.0918219762
0.2200638333 0.9590351429 -0.3095238095 0.0064024762 -0.0064024286 0.0496604762
-0.3730575000 1.9719761429 -0.4523809524 0.0000000476 0.0000000000 0.0476190476
0.4285714762 0.0515460714 0.5024074286 0.0142730238 0.0021658571 0.0844237381
-0.2014123810 1.0476190476 0.0031258095 0.0000000476 0.0238095238 0.0714285714
-0.2380951905 1.0075454762 0.3296603095 0.0238095714 0.0000000000 0.0714285714
0.0644985714 1.0476190476 0.4791403333 0.0000000476 -0.0238095238 0.0714285714
0.1124400714 1.1918236905 -0.3505352619 -0.0140522857 -0.0016267143 0.0524538095
-0.1473447619 0.5727796667 0.0714285714 0.0000000476 0.0000000000 0.0476190476
0.0721640952 1.0714286667 0.4582545952 0.0000000476 0.0238095238 0.0714285714
0.0349719762 1.0714285714 0.4133240952 0.0000000476 0.0238095238 0.0714285714
-0.3717655714 0.2146512381 0.4880038571 0.0000000476 0.0041899286 0.0948120000
0.3938090000 1.4853728095 -0.2872446667 0.0021430476 0.0043642619 0.0946427857
-0.3336467143 0.6233242619 0.0851986667 -0.0001390000 0.0236648095 0.0691879524
-0.2345402381 0.9523809524 -0.2313365000 0.0000000476 -0.0232572619 0.0740762381
0.0721325238 1.8571428571 -0.4843426667 0.0000000476 0.0088560952 0.0714285714
0.2504831905 1.0437395952 -0.3351647619 0.0048329524 -0.0095317857 0.0503211190
-0.3490342143 1.0476190476 0.1757133095 -0.0005028333 -0.0237782143 0.0714285714
-0.0311753571 1.0000000000 -0.0767295714 -0.0037211190 -0.0224409762 0.0657224048
-0.1173170952 0.9523809524 -0.2997655952 0.0000000476 -0.0238095238 0.0714285714
0.1387418810 1.9047619048 -0.4893155714 0.0000000476 0.0226041905 0.0743385238
-0.0952380476 1.2281557619 -0.3345249286 0.0238095714 0.0000000000 0.0714285714
-0.1280273333 1.9149000952 -0.5238095238 -0.0054234048 -0.0054234524 0.0489524762
0.3514707143 0.8138584762 0.3467521190 0.0019066429 -0.0041075476 0.0483993095
0.3719238810 0.9761904762 0.2991867857 0.0000000476 -0.0238095238 0.0714285714
-0.0609285238 1.0476190476 0.0122040952 0.0000000476 0.0238095238 0.0714285714
0.3336920476 0.5952380952 0.1683827381 0.0000000476 -0.0236343571 0.0738932857
0.3964440952 1.0476190476 0.0296106667 0.0000000476 -0.0238095238 0.0714285714
0.2370569286 1.0711945952 -0.2857142619 0.0007146905 -0.0002382143 0.0479427619
0.4047619524 0.3545569286 0.4688337381 0.0188482857 0.0025369286 0.0829845952
0.3546167143 1.2167141429 -0.2380952381 0.0000000476 0.0032531190 0.0950140714
-0.4111436190 1.0714285714 0.2558754286 0.0000000476 0.0238095238 0.0714285714
0.2640957857 1.0471189524 -0.1185474286 0.0034730714 -0.0233211429 0.0687725238
0.0094908333 1.0496421190 0.3115469048 0.0000000476 0.0212447857 0.0611535952
-0.1115030714 1.0476190476 0.4326258571 0.0000000476 -0.0238095238 0.0714285714
0.3921530238 1.0112005952 0.0566200238 0.0168318095 -0.0168317619 0.0718912857
-0.4029421667 1.0238095238 -0.0435523333 -0.0168293095 -0.0168293571 0.0720649762
0.0952381429 1.2583720714 -0.3346245714 -0.0238094762 0.0000000000 0.0714285714
-0.1759554286 1.9731944762 -0.5238095238 -0.0051813810 -0.0106204762 0.0522535714
0.3764663333 1.2873348095 -0.2714768810 0.0154620952 -0.0042292143 0.0540268095
0.3058426667 0.9748748571 -0.1907393095 -0.0065081905 0.0038641429 0.0494637143
0.3991189286 0.0056430000 0.5223564524 -0.0124966905 0.0000000000 0.0909923571
0.4033281190 0.2951509524 0.4761904762 0.0157857143 0.0008729762 0.0886409524
0.3412376667 0.4354570952 0.4414800000 -0.0169687143 -0.0002411667 0.0837766667
0.3363280000 0.9612172381 -0.1801171190 0.0206036667 0.0052982143 0.0647302143
-0.3894365952 1.0238095238 0.1048351429 -0.0168329286 -0.0168329762 0.0717995476
-0.3817559286 1.9998375952 -0.4523809524 -0.0003593333 0.0000000000 0.0477038810
-0.3809523333 0.9768399762 -0.1962919286 -0.0238094762 0.0000000000 0.0714285714
0.2670390238 1.7927100714 -0.4292360952 -0.0236751190 0.0023949524 0.0714285714
0.3163389524 1.1394929524 -0.2372428810 -0.0232285238 0.0049490000 0.0714285714
-0.3652648333 0.9761904762 0.3195871667 0.0000000476 -0.0238095238 0.0714285714
-0.4285713810 0.0268741905 0.4978742143 -0.0238094762 0.0000000000 0.0714285714
-0.2763574762 1.6913114286 -0.4306548095 -0.0169255000 -0.0067761190 0.0575032857
0.3254566190 0.7244703095 -0.1711485714 -0.0156790238 -0.0060425952 0.0880903571
0.4515655714 1.0714285714 0.1786042857 0.0000000476 0.0238095238 0.0714285714
-0.3178811190 0.9344094524 -0.1119504762 0.0000000476 -0.0088426429 0.0935351667
0.3819024762 1.0000000000 -0.0867392857 0.0168297857 -0.0168297381 0.0720170476
-0.1996046429 1.9407733810 -0.5000000000 0.0078183810 0.0107900238 0.0873862857
-0.0005985000 1.0476190476 0.2431734524 0.0000000476 0.0238095238 0.0714285714
0.0488452143 1.0238096190 -0.2634180238 0.0000000476 -0.0238095238 0.0714285714
0.4885219524 1.9242929762 -0.3448114286 0.0141926667 -0.0021310238 0.0529739048
-0.1053654524 1.0000000000 0.0260256429 0.0000000476 -0.0238095238 0.0714285714
-0.4584018571 1.0476190476 -0.0256890476 0.0000000476 -0.0238095238 0.0714285714
-0.2987805476 1.0476190476 0.2854545238 0.0000000476 0.0238095238 0.0714285714
-0.3719897143 1.2649101905 -0.2604154524 -0.0076263571 0.0041865476 0.0931883810
0.4761905714 1.0648199762 0.2117032381 0.0238095714 0.0000000000 0.0714285714
0.4065510952 1.0714286667 0.1014517619 -0.0052460238 0.0193288571 0.0609364286
0.0677940476 1.0238095238 -0.3082537619 0.0000000476 -0.0238095238 0.0714285714
-0.1553040952 1.0238095238 0.2049927619 0.0000000476 -0.0238095238 0.0714285714
0.3706395238 0.2059256667 -0.3413757143 -0.0030641190 -0.0070287857 0.0935362857
0.3622442857 0.9761904762 -0.2468737143 0.0000000476 -0.0238095238 0.0714285714
-0.1163424524 1.1558145714 -0.3455889524 0.0041013810 -0.0046516667 0.0507042619
0.1352270238 1.4576963810 -0.4211738333 0.0110801667 -0.0064372381 0.0531213810
-0.3167309286 0.9887694286 -0.2910861190 -0.0111350238 -0.0111827857 0.0546099286
-0.3898680952 0.0290232619 0.5212026429 0.0000000476 0.0064316905 0.0943358810
-0.3849575952 0.0000000000 -0.4364738571 0.0000000476 -0.0238095238 0.0714285714
0.0046405000 1.0216096190 0.5476190952 0.0000000476 0.0000000000 0.0952380952
-0.3809523333 0.9788707619 -0.1665174048 -0.0238094762 0.0000000000 0.0714285714
0.0793373571 1.0000000000 0.0139549762 0.0000000476 -0.0238095238 0.0714285714
0.2418999286 0.9523809524 -0.2451680000 0.0000000476 -0.0238095238 0.0714285714
0.1621204048 0.9881776190 -0.1904761905 0.0000000476 0.0000000000 0.0952380952
-0.3478802143 0.3911278571 -0.3458145238 0.0025194286 0.0061742619 0.0495111429
0.1590453810 1.0238095238 -0.0473384048 0.0000846667 -0.0237827381 0.0713439524
-0.1332298095 1.9379724762 -0.5332104762 -0.0063131429 -0.0080589048 0.0506140476
-0.4344528333 1.0476190476 0.1819845714 0.0000000476 -0.0238095238 0.0714285714
-0.3072624524 0.8587914524 -0.2136262857 0.0110693571 0.0041110714 0.0508731905
-0.3964864048 1.7044347143 -0.3475645238 0.0000000476 -0.0039142619 0.0479430000
0.3971626190 0.5455961190 0.4108199048 0.0235364762 0.0028694048 0.0697360476
0.0280100000 1.0000000952 -0.0037907381 0.0000000476 -0.0238095238 0.0714285714
0.3713713571 1.5114208333 -0.2879984286 0.0000000476 0.0046694286 0.0947757381
-0.3720495000 0.4322789048 0.3944965952 -0.0006068571 -0.0045235952 0.0482036429
0.1654460238 1.0406481429 0.2968027381 0.0067503810 -0.0217680952 0.0781789048
0.4795640238 1.9915735238 -0.3367068810 0.0168359286 0.0000000000 0.0882644524
0.3040430000 1.0714285714 0.3322993095 0.0000000476 0.0238095238 0.0714285714
-0.1428570952 1.8666957619 -0.4880158571 -0.0238094762 0.0000000000 0.0714285714
-0.4107891667 0.1425574286 0.4862864286 -0.0171836429 0.0048484048 0.0868039762
-0.2592650714 1.0343945000 0.2390527143 -0.0066209524 -0.0226639524 0.0736492381
-0.5000000000 1.9498705238 -0.3456388571 -0.0238094762 0.0000000000 0.0714285714
0.2070184048 0.9627141429 -0.2039525000 0.0000000476 -0.0199716429 0.0833406905
-0.0699085000 1.0000000000 0.0072621905 0.0000000476 -0.0238095238 0.0714285714
0.3809524286 0.3862679286 -0.3514507857 0.0162365000 0.0033938810 0.0654101429
0.2568474286 0.9761904762 -0.1297719048 0.0000000476 -0.0238095238 0.0714285714
0.4275321905 0.0452288333 -0.4416712857 0.0000000476 0.0088426429 0.0493219762
0.4523810000 1.9836355000 -0.3965006429 0.0213899048 0.0000000000 0.0655869762
-0.2439250476 0.9761904762 -0.0103945238 0.0000000476 -0.0238095238 0.0714285714
-0.0965810952 1.1442162619 -0.3346763810 0.0166280714 -0.0001236429 0.0544296429
0.1138150238 1.0476190476 -0.1097371905 0.0000000476 0.0238095238 0.0714285714
-0.3571428095 0.8460944048 0.3411071429 -0.0224155476 0.0017708571 0.0671531429
0.2424452143 1.0259844524 0.2375428333 0.0072465000 -0.0224008095 0.0747210476
-0.3532048333 0.6517154524 -0.2765851190 -0.0120016667 0.0067857857 0.0523756190
0.4062612143 0.1856109762 0.4937646429 0.0165788810 0.0041447143 0.0880074048
0.3939859286 1.6972487381 -0.3441817857 -0.0234583333 0.0040703571 0.0714285714
0.3095238571 0.6757827143 -0.2479406429 -0.0216588571 0.0007120952 0.0640382619
0.4761905238 1.9222352143 -0.3105492857 -0.0238094762 0.0000000000 0.0714285714
0.1590092143 1.0345348095 0.5368938333 0.0000000476 0.0168358810 0.0882644524
0.0913196429 1.0238095238 0.2285735000 0.0000000476 -0.0238095238 0.0714285714
0.1834018810 1.0238095238 -0.1020428095 0.0010300238 -0.0236817619 0.0703985952
-0.2040260714 1.9245376667 -0.4761904762 0.0000000476 0.0000000000 0.0952380952
0.4000408571 0.1903168571 -0.3452779286 0.0000000476 -0.0066490000 0.0942725952
-0.3044207143 0.9761904762 0.2875328571 0.0000000476 -0.0238095238 0.0714285714
0.3333333810 0.6049428571 0.1034157143 -0.0238094762 0.0000000000 0.0714285714
-0.3295496190 0.4363658095 0.4285714286 0.0193934286 -0.0014225714 0.0780507143
-0.0131605952 0.9523809524 -0.2184203571 0.0000000476 -0.0226937857 0.0783040714
0.3297116667 0.9761904762 0.0983592143 0.0000000476 -0.0238095238 0.0714285714
0.4047619524 1.0327162143 -0.1564767857 0.0238095714 0.0000000000 0.0714285714
0.0513932381 1.9045095952 -0.5437186905 0.0064373810 -0.0122974524 0.0521165714
0.3333333810 0.4074667619 0.4281985714 -0.0237446429 -0.0017235476 0.0714516429
0.1921567381 1.9468033095 -0.5238095238 0.0007334762 -0.0017195000 0.0479992143
-0.3726800238 1.5388990238 -0.2934940952 0.0000000476 0.0046694286 0.0947757381
-0.2184725714 0.9797268810 -0.3291464286 -0.0073523095 -0.0134919286 0.0541120714
0.4553778095 1.0714285714 0.2151060952 0.0000000476 0.0238095238 0.0714285714
-0.3208008333 1.2355844524 -0.2530036429 0.0233469048 0.0045074524 0.0714285714
0.2888304048 1.8778363095 -0.4482653095 -0.0076222857 -0.0189195000 0.0834815000
0.0030919524 1.0238094286 -0.2710010952 0.0000000476 -0.0238095238 0.0714285714
-0.2167572619 1.2479272619 -0.3023930000 0.0166718571 0.0058204048 0.0873059762
0.2522388095 1.5453850952 -0.3686752857 -0.0034581667 0.0052398810 0.0939505952
0.1449662857 1.0118131190 0.0931289762 0.0109081667 -0.0143813571 0.0857346667
-0.2093415000 0.9813952619 -0.1904761667 0.0000000476 0.0000000000 0.0952380952
0.0363638095 1.0476190476 -0.0938414286 0.0000000476 0.0238095238 0.0714285714
0.0198220714 0.9750575952 -0.1916090714 0.0000000476 -0.0171095476 0.0878216429
-0.2399225238 1.5468517381 -0.3689197381 0.0000000476 0.0052161190 0.0946528095
-0.1214717619 0.9931299048 -0.3490607381 -0.0066021429 -0.0108667381 0.0513494524
0.3348767143 0.4667958333 -0.3166011667 -0.0199185238 0.0007749286 0.0588027143
-0.2699240714 1.5441710952 -0.3684729524 -0.0014643810 0.0044847381 0.0944469762
0.3571429048 0.6269085714 0.1665342381 0.0159486190 0.0078299048 0.0707847381
0.0979740952 1.0476190476 0.1049539762 0.0000000476 0.0238095238 0.0714285714
0.1101537143 1.0000000000 0.0479765714 0.0000000476 -0.0234360000 0.0691267381
-0.1428570952 1.3670022143 -0.3722671429 -0.0238094762 0.0000000000 0.0714285714
0.3546642381 1.0476190476 -0.0902657143 0.0000000476 -0.0238095238 0.0714285714
-0.3243372381 1.0476190476 0.1813995714 0.0000000476 0.0238095238 0.0714285714
-0.1623844762 1.0387204524 -0.1815775476 -0.0011626905 -0.0227164762 0.0651138333
0.2094320952 1.0238095238 -0.1042669286 0.0023992619 -0.0233569762 0.0683389524
0.2556870714 1.6182056667 -0.4046215714 -0.0027454286 -0.0038110476 0.0485737143
-0.1480373810 0.9567097143 -0.2099570000 0.0000000476 -0.0215419762 0.0806498095
-0.0706189762 1.0238095238 0.2143586429 0.0000000476 -0.0213035952 0.0820439048
0.3206455238 0.5578824524 -0.2419158095 -0.0183803095 -0.0060772381 0.0850081667
-0.3986348571 1.0476190476 -0.0226378571 0.0000000476 -0.0238095238 0.0714285714
0.1267126667 1.0714285714 0.3711329286 0.0000000476 0.0238095238 0.0714285714
0.4156961905 0.2166514524 0.4617988571 0.0231910000 0.0036780476 0.0677505238
-0.3582038095 0.3236564524 -0.2991088333 0.0147827857 -0.0065526905 0.0851735238
-0.2593701667 1.0285875238 -0.2929464286 0.0013983571 -0.0228538333 0.0774927857
0.3648429048 1.0476190476 0.1174104762 0.0000000476 0.0238095238 0.0714285714
-0.3668902143 0.6574550714 0.4256518333 -0.0069881905 0.0038502143 0.0926047619
-0.3452336429 0.4366172619 -0.3333244762 0.0171025476 0.0020244762 0.0555595952
-0.3650646667 0.8413431190 0.3837527619 -0.0178473571 0.0053930714 0.0841994048
-0.3333332857 0.9649822619 -0.2388969524 -0.0136933333 -0.0134261429 0.0623972381
0.3651812857 0.3388390238 -0.2930358333 0.0000000476 -0.0069473333 0.0942005000
0.0656437381 1.0267846190 0.3363084048 0.0012624048 -0.0219877143 0.0800428810
0.3337164048 0.9761904762 0.1773977143 0.0000000476 -0.0238095238 0.0714285714
-0.3208198333 0.7393046905 -0.2491897381 0.0170476905 0.0029710952 0.0550876190
-0.2412372619 1.5639699286 -0.3955822381 0.0000000476 -0.0039142619 0.0479430000
-0.0264452857 1.0238095238 -0.3465879524 0.0000000476 -0.0238095238 0.0714285714
0.2123875714 0.6159417381 0.0714285714 0.0000000476 0.0000000000 0.0952380952
-0.1525623095 1.0335146667 -0.2568801190 -0.0070690952 -0.0223040714 0.0748245238
-0.1275203095 1.2540215952 -0.3545151667 0.0000000476 -0.0066500476 0.0485688810
-0.3481768095 0.6274584762 0.1411918333 -0.0065846429 0.0220489286 0.0683116429
-0.4040377857 1.0714285714 0.1828273810 0.0000000476 0.0238095238 0.0714285714
-0.0936346190 1.0238095238 -0.2699212143 0.0000000476 -0.0238095238 0.0714285714
-0.3948197619 0.0106452143 0.4761904762 0.0043391190 -0.0023918810 0.0489190476
-0.1420424286 1.0266178571 -0.3134107619 0.0000133810 0.0225530238 0.0642370000
0.3586816429 1.0476190476 0.0298320714 0.0000000476 0.0238095238 0.0714285714
0.3691031905 0.4493900952 -0.2672648095 0.0000000476 -0.0068416190 0.0942339524
0.1364923095 1.0476190476 0.2127880238 0.0000000476 0.0238095238 0.0714285714
0.3749395476 0.3649413095 -0.2841545952 0.0000000476 -0.0068416190 0.0942339524
0.3683832619 1.0238095238 -0.2546013810 0.0144793095 -0.0132849524 0.0620806429
-0.3612931429 0.5499410238 -0.3092065952 -0.0139318095 0.0066456905 0.0537486429
-0.4022767143 0.5106591190 0.4267949048 -0.0101618095 0.0037910476 0.0922793333
-0.1148277381 1.9297986667 -0.5000000000 0.0020400714 0.0034210238 0.0934527857
-0.4042687619 0.0536957381 0.5088664048 0.0000000476 0.0064603333 0.0940907143
-0.2730074524 1.0385180952 -0.2582989048 -0.0021548333 -0.0227703571 0.0774400238
0.3571428810 0.6356309762 0.3804926905 0.0238095714 0.0000000000 0.0714285714
0.3730502143 0.7549343095 -0.1837405476 0.0108645000 -0.0052002857 0.0908801667
0.0497839048 1.0374943810 0.3585382619 0.0052759048 -0.0218058095 0.0789138095
0.2715021190 1.0476190476 -0.1822215238 0.0000000476 0.0238095238 0.0714285714
-0.0471719524 1.0476190476 -0.2385844048 0.0000000476 0.0238095238 0.0714285714
-0.2387318810 1.6228677619 -0.3998206905 0.0237208571 0.0020290714 0.0714285714
0.3404707619 0.5812008810 0.1007454762 0.0000000476 -0.0235203095 0.0751182857
0.1428571905 1.3826159524 -0.3825995238 0.0238095714 0.0000000000 0.0714285714
-0.3892939524 0.2285382619 0.4929832381 -0.0106811667 0.0026350000 0.0872428095
-0.3672309048 1.4377752143 -0.2732693333 0.0000000476 0.0049284762 0.0947210476
0.4285714762 0.0670605714 -0.4217897143 0.0238095714 0.0000000000 0.0714285714
0.3468880952 0.2893693810 -0.3376217857 -0.0234953571 -0.0036786905 0.0714285714
0.2512438333 1.6979388333 -0.4145204524 -0.0183446667 0.0057643810 0.0825274286
-0.1232126667 0.9608730952 -0.2057935476 0.0000000476 -0.0205361905 0.0822772143
-0.0535169524 0.9523809524 -0.2511965714 0.0000000476 -0.0235347619 0.0731216905
0.0351291667 1.0476190476 -0.1790983095 0.0000000476 0.0238095238 0.0714285714
0.3637947857 1.0476189524 0.2599125238 0.0000000476 -0.0238095238 0.0714285714
0.1088755714 1.1271670238 -0.2884207619 0.0000000476 0.0075292381 0.0940162619
-0.3192899762 0.4562095476 -0.2937066667 0.0083317857 0.0002245476 0.0676954048
-0.3673440000 0.9761904762 0.0965303095 0.0000000476 -0.0238095238 0.0714285714
-0.3456593333 0.5952380952 0.3150771190 -0.0054520952 -0.0222935952 0.0743835000
0.3514941190 0.9761904762 -0.1602779048 0.0000000476 -0.0238095238 0.0714285714
0.2857143095 0.9590022619 -0.1253864286 -0.0237913810 -0.0003330714 0.0713841667
