-0.0909090909 0.4771982500 -0.0729300114 0.0113418182 0.0000526705 -0.0056818182
-0.4752064205 0.8068181818 0.0036102841 0.0000000000 -0.0113636364 -0.0056818182
-0.4204545455 1.0658607500 -0.0719560227 0.0085849659 0.0064751477 -0.0056818182
-0.4318181364 0.6934549545 -0.0072676818 -0.0110243523 -0.0027560909 -0.0056818182
0.3354217841 0.4292735227 0.2960470568 -0.0022087045 0.0096799773 -0.0111227159
0.2753761023 0.4798974545 0.4869037159 -0.0018553523 -0.0081083295 0.0020500682
-0.1277116364 0.4999999545 -0.1657380909 0.0000000000 0.0113636364 -0.0056818182
-0.2370637500 0.5338555227 -0.1917269205 0.0095271023 0.0055928977 -0.0082945795
-0.4075389318 0.7739252614 0.2494010114 -0.0092753068 -0.0018937273 -0.0001939773
0.1382875341 0.0250872045 -0.1584278295 -0.0037072273 -0.0103655227 -0.0069727045
-0.1343259659 0.0517650682 0.1226367386 -0.0012800114 0.0111256364 -0.0039398636
0.2061138750 0.4074261364 0.4000795114 0.0000293295 -0.0088048523 0.0014501705
-0.1414048182 0.4562304205 0.3596394659 -0.0035774773 -0.0055295114 0.0035532727
0.3500830682 0.4023142727 -0.2171829205 -0.0039313864 0.0105783750 -0.0051596023
-0.4739900455 0.8317928295 0.0657826591 -0.0101361705 -0.0041381136 -0.0033450795
-0.2144334091 0.0340690795 -0.2428425000 0.0080353068 0.0000000000 -0.0137171250
-0.3242173182 1.0060355455 -0.0928675682 -0.0085823295 -0.0067584886 -0.0082518523
-0.3977272727 0.8939316477 -0.0551566364 0.0103698750 0.0033845341 -0.0044815455
-0.1702129205 0.4601240568 0.2329545227 0.0059754205 0.0026547500 -0.0144935909
0.0053774659 0.1918373068 0.0838827614 0.0000000000 -0.0099120909 -0.0002504205
-0.2871778636 0.3698102727 -0.0138557614 -0.0095239318 -0.0060210682 -0.0067298068
-0.0021826477 0.4891911023 -0.4380546932 -0.0023084432 -0.0087913977 -0.0124690568
0.2938359432 0.3782483409 -0.1102891591 0.0028160341 -0.0109354545 -0.0064706364
-0.4545454545 0.7928227500 -0.0334527955 -0.0107804886 -0.0035935000 -0.0056818182
-0.4272941250 0.9841123068 -0.0183061705 -0.0092547955 -0.0062268977 -0.0066125000
-0.4441665682 0.7633330568 -0.0442904205 -0.0110032159 -0.0028286591 -0.0056818182
0.1286524886 0.3307629545 -0.0995362045 0.0036392159 -0.0107638182 -0.0057125795
0.5000000000 0.4176065227 -0.0567353977 0.0113636364 0.0000000000 -0.0056818182
-0.1038508636 0.4948729545 0.2742674545 0.0047045909 0.0035486023 -0.0152560227
0.4550159205 0.3522727273 0.0390984886 0.0032917045 -0.0108500795 -0.0052162045
-0.4192926705 1.0310584886 -0.1647727159 0.0000000000 0.0000000000 -0.0170454545
-0.0727971364 0.4154838182 0.3563579659 -0.0026989318 -0.0066996023 0.0030344773
-0.3536635114 0.5270775000 0.0867959659 -0.0095815114 -0.0054640568 -0.0029497841
0.2434849545 0.4605822159 0.0729573523 -0.0015368068 0.0109161023 -0.0082156477
-0.2680813409 0.3429808636 0.0180968523 -0.0098378977 -0.0056055227 -0.0052316023
0.3833787273 0.3247626023 -0.0863171136 0.0042203523 -0.0105508750 -0.0056818182
0.3418010114 0.4095368864 0.2470143068 -0.0043021477 0.0102549318 -0.0067073182
-0.3186640795 0.9767904318 0.0263043182 0.0098744545 -0.0055178977 -0.0048615000
0.3974813068 0.3294634773 -0.0573836136 0.0042203523 -0.0105508750 -0.0056818182
0.3992199886 0.3587009091 -0.2537466818 0.0038129432 -0.0100413750 -0.0092311250
-0.4527864886 1.0681818182 -0.0162281932 0.0067915227 0.0085505000 -0.0056818182
0.0347954545 0.5692271364 -0.4605795682 -0.0049864659 0.0001550795 -0.0158408409
-0.4901436023 1.0159773409 -0.1224246705 -0.0102523750 -0.0039984773 -0.0081109659
0.3821756136 0.4427514545 -0.4366393068 0.0018331250 -0.0095609091 -0.0114858295
-0.1326353977 0.4886363636 0.0542492159 0.0000000000 0.0113636364 -0.0056818182
-0.3534193523 0.8079648409 0.2730710682 0.0081367614 0.0045076591 -0.0009084886
-0.0340909091 0.3693970795 -0.1025400909 0.0113636364 0.0000000000 -0.0056818182
-0.1389306023 0.3321124205 0.0824611477 -0.0080353068 -0.0080353068 -0.0056818182
0.1173517955 0.5003102955 0.3481396591 0.0018744659 0.0066834659 -0.0146717727
-0.3195769773 0.6604860909 0.0286285341 0.0106205568 0.0039148409 -0.0057611705
0.0478662500 0.3511044318 -0.2512058523 0.0012349886 -0.0091550000 -0.0118307955
0.0652383636 0.4043218864 -0.1018175909 -0.0041825341 0.0105620795 -0.0054703295
-0.1547816250 0.3596233864 -0.3048117159 -0.0025832614 -0.0066959432 -0.0144157500
0.2640355909 0.2736179205 0.0644590455 0.0041761250 -0.0105674091 -0.0056405114
-0.0355300227 0.4108927045 -0.2329545455 0.0063513977 0.0063513977 -0.0123959091
0.3863636364 0.4973553750 -0.5174999659 0.0065188523 -0.0066290909 -0.0122006705
-0.3977272727 0.9372683409 -0.2082891023 0.0101402386 0.0046132955 -0.0040356591
0.2155822614 0.5065519205 -0.3927521705 0.0019703523 0.0080082386 0.0020114545
-0.4431818182 0.8981690000 -0.2651635682 -0.0084276364 -0.0004516250 -0.0125336818
-0.4339401932 0.7428803864 -0.0974646705 -0.0101398409 -0.0025831364 -0.0098340227
-0.3138660909 0.5152605227 -0.2525307500 -0.0086674205 -0.0062500455 -0.0091651591
-0.3509143295 0.7456220227 0.0979493295 0.0101642159 0.0034456136 -0.0092509886
0.2846207159 0.0113636364 0.2973106818 0.0000000000 0.0113636364 -0.0056818182
-0.2484108977 0.4684006477 0.3125000000 -0.0042280000 -0.0032229545 0.0013722727
0.1736451932 0.2673997841 0.1809314773 0.0024331023 -0.0103851705 -0.0018542614
-0.3278453182 0.4625088068 -0.1034989545 -0.0102015455 -0.0031440227 -0.0092569659
0.1466690000 0.4390411364 0.2182659205 -0.0037390568 0.0106912955 -0.0064211023
0.1229354091 0.0328240909 0.1016581932 0.0009991023 -0.0105481818 -0.0095350795
-0.4245969545 0.8691948977 -0.2699480227 0.0000000000 0.0039736932 -0.0163048295
0.4062965568 0.4062965568 -0.0537955568 -0.0058249659 0.0097018750 -0.0054675000
-0.3486344205 0.7540870114 0.1239946591 0.0099786705 0.0051554318 -0.0061747614
-0.3921744659 1.0454545455 -0.1350684205 0.0013088068 -0.0110460682 -0.0043730114
0.1892444432 0.3812632955 -0.2493274432 0.0025839886 -0.0106043182 -0.0088282045
-0.2674871364 0.5402144091 0.3302146705 -0.0051387159 -0.0070781136 0.0012945341
0.3380825682 0.3054049432 0.0200272386 0.0050819773 -0.0101639432 -0.0056818182
0.1776387955 0.4961936250 0.4941039545 -0.0018576705 -0.0075149659 0.0025963977
-0.2386363636 0.3392396023 0.1811115909 -0.0101002727 -0.0046176023 -0.0034684886
-0.3750000000 0.7973545227 0.0196662727 0.0107804886 0.0035935000 -0.0056818182
-0.4832612841 1.0173522727 0.1699042159 -0.0088204773 -0.0060346136 -0.0024922614
0.3665433409 0.3309989432 0.1563869773 0.0049023636 -0.0099822159 -0.0034382386
-0.4772727273 1.0095498295 0.1896909773 -0.0113636364 0.0000000000 -0.0056818182
0.5000000000 0.3884379659 0.0839527500 0.0113636364 0.0000000000 -0.0056818182
0.1792680341 0.4565237614 -0.3475800455 0.0007918068 0.0062001250 0.0037972841
-0.0918547727 0.4782184205 0.1172701136 0.0080250909 0.0080250909 -0.0058464432
0.4623246136 0.4204545455 -0.0136260795 0.0006292955 -0.0112495227 -0.0056818182
0.0308262045 0.0568181818 -0.0199661591 0.0002432500 -0.0112628750 -0.0056818182
0.4690665341 0.3554301477 -0.0547333409 0.0048112045 -0.0099683636 -0.0065627045
-0.3012215909 0.6875852273 0.2639292386 0.0092348636 0.0061700227 -0.0067685795
0.0206670682 0.4013208523 -0.3842753977 -0.0021786591 -0.0062862841 -0.0147572386
0.0834855341 0.4163113523 -0.2637650795 -0.0053435568 0.0079646023 -0.0112165000
0.0817279091 0.5132978182 -0.4950456591 -0.0040731364 -0.0003688977 -0.0161720682
-0.1931818182 0.4494440795 0.0634417727 -0.0113636364 0.0000000000 -0.0056818182
-0.3173131932 0.5830585341 -0.3055180455 -0.0086314545 -0.0042401250 -0.0115909545
-0.1890204659 0.4007681932 -0.0324591705 0.0099683636 0.0053922386 -0.0051087386
0.3458663295 0.5000000455 -0.3206633864 -0.0027560114 0.0110243523 -0.0056815000
0.0343395795 0.2955374545 0.0025044318 0.0022436136 -0.0111384432 -0.0056818182
-0.3068181818 0.5128009545 0.2486706477 -0.0100690682 -0.0039908523 -0.0023879773
-0.1435274432 0.0520941023 -0.1268508409 -0.0009373409 0.0111070909 -0.0076754545
-0.1136363636 0.3050439091 -0.0753745795 -0.0081322614 -0.0064627500 -0.0056818182
0.3215353750 0.4959950000 -0.3137348295 -0.0025701705 0.0110661477 -0.0056818182
0.0444322159 0.3977272727 0.2120581591 -0.0027560909 0.0110243523 -0.0056818182
-0.4204545000 1.0663875227 0.0514113409 0.0052924659 0.0095679773 -0.0042457614
-0.0900036023 0.1931818182 0.0425365568 -0.0008219318 -0.0112798409 -0.0050181023
0.2395780341 0.3563744773 -0.0247156136 0.0038197614 -0.0106976136 -0.0056818182
0.4293984886 0.3783904886 -0.2740830682 0.0036620682 -0.0102295568 -0.0088143864
0.1936242159 0.4509050227 0.0910628068 -0.0035935000 0.0107804886 -0.0056818182
0.0112374205 0.3806187045 0.0446063523 -0.0056994773 0.0098055909 -0.0056818182
0.0679135000 0.2002645568 0.1034053182 0.0015362500 -0.0102452727 -0.0010710455
0.1743993182 0.4520875795 0.4439327955 -0.0015032159 -0.0078709659 0.0023707159
-0.0788302955 0.3068181818 0.1229873182 0.0000000000 -0.0113636364 -0.0056818182
-0.3863636364 0.5912231932 0.0749326023 -0.0109978636 -0.0028571250 -0.0056818182
-0.4772727273 0.9081620341 0.0439561250 -0.0108159205 -0.0031122841 -0.0046329886
-0.0991488750 0.4772727273 -0.0951586818 0.0000000000 0.0113636364 -0.0056818182
0.4582796477 0.4318181818 -0.1350439205 -0.0009391250 0.0112471477 -0.0047426932
-0.4862857273 1.0795454545 0.0792390114 0.0000000000 0.0113636364 -0.0056818182
0.1635745227 0.4454236477 -0.2716712045 -0.0041663523 0.0105544545 -0.0054046932
0.1380642386 0.4361729205 -0.2682914091 -0.0038055000 0.0106943750 -0.0055369773
0.1598199659 0.3753645227 -0.2626794886 -0.0017266136 0.0100531477 -0.0009090568
-0.0454603182 0.4199211364 0.2221242727 0.0003579318 0.0080143636 0.0021523977
-0.1429158295 0.2277379091 0.1197833750 -0.0041475568 -0.0092786591 -0.0006522273
0.1594858409 0.0239398750 0.1371950455 0.0042589659 -0.0086680114 -0.0111191136
-0.3198607386 0.9755937386 -0.0953827727 0.0081261477 -0.0079189545 -0.0056818182
-0.0117820568 0.4567551136 0.4056187500 -0.0030732614 -0.0058834432 0.0035379659
0.3264864545 0.3777682159 -0.0231435568 0.0024411705 -0.0110486932 -0.0056818182
0.4970482045 0.4204545455 0.0864133409 0.0059451477 0.0088970000 -0.0056124091
0.4545454545 0.4875548068 -0.3214381818 0.0112391705 0.0000000000 -0.0064488182
0.5000000000 0.3962191250 -0.1535609205 0.0113636364 0.0000000000 -0.0056818182
-0.0341846477 0.2603984773 -0.2257781023 -0.0014845114 -0.0095906932 -0.0115740227
-0.4431818182 1.0830672045 0.0112911818 0.0090668295 0.0055450000 -0.0056818182
-0.1915858409 0.4772727273 -0.0761657386 -0.0028293182 0.0107027500 -0.0056818182
0.4782719659 0.3759992386 0.1549147841 0.0042539886 -0.0104587727 -0.0049585227
-0.3409090909 0.7665615114 -0.2416167727 0.0106004545 0.0035777727 -0.0039755682
-0.2255781136 0.5009265341 0.3465909091 -0.0057768068 -0.0057768068 0.0017720341
-0.3424656136 0.7644766932 -0.1871312273 0.0108881023 0.0030789318 -0.0054523182
-0.2954545455 0.6214137500 -0.1244726023 0.0104666932 0.0041648750 -0.0046678636
0.1385435341 0.4325448409 -0.0737582273 -0.0041802614 0.0105655568 -0.0056818182
0.2948896250 0.5542400568 -0.4917401023 0.0012090682 0.0092797841 0.0004352159
-0.0650773295 0.4484175795 0.3776584091 -0.0060942273 -0.0049712614 0.0024200114
-0.2521657727 0.6136363636 0.3349049773 0.0015314432 0.0107292955 -0.0056818182
0.1988660909 0.2986551023 -0.2620829205 0.0017352727 -0.0095893523 -0.0114840341
-0.1310252045 0.4895253636 -0.2731717727 0.0075190341 0.0032296023 0.0018569205
0.3371019773 0.3305997386 -0.2355308750 0.0038015341 -0.0100275341 -0.0092790227
-0.3110047955 0.5382775341 -0.2728683750 -0.0093341136 -0.0044256023 -0.0095547841
-0.4204545455 0.9821127955 0.0404671591 0.0113636364 0.0000000000 -0.0056818182
-0.0895229545 0.2954545455 -0.0466275909 0.0000000000 -0.0113636364 -0.0056818182
-0.3977272727 0.6914580114 0.2069156818 -0.0103188977 -0.0040540568 -0.0037158182
-0.2060880909 0.4664662955 -0.1952171591 0.0105437614 0.0038982045 -0.0071264773
0.0489883295 0.3759543295 -0.2707209318 0.0002223864 0.0079393636 0.0023995455
0.1534813409 0.3583049318 -0.3526231364 0.0000760000 -0.0089097500 -0.0126876477
0.4319801818 0.4204545000 -0.1438306250 0.0029970455 -0.0108550341 -0.0069759091
-0.0438964318 0.3898692614 0.2313964318 0.0083557727 0.0019505341 0.0012427955
0.4939794091 0.3750000000 -0.0268658750 0.0000000000 -0.0113636364 -0.0056818182
-0.2159090909 0.5897883523 -0.2789037273 0.0097135341 0.0055558977 -0.0054798977
0.2236123977 0.5567359545 -0.5379425795 -0.0039379091 0.0021949432 -0.0160698068
-0.3493259205 0.6077427386 -0.2674118864 -0.0094782273 -0.0053867159 -0.0087661818
-0.4051828409 0.8434672841 -0.2823171591 -0.0043674318 0.0016403295 -0.0149702159
0.2443216477 0.5568181364 0.5385888750 -0.0022700455 0.0068458750 0.0023460568
0.4723221591 0.4801536477 -0.0583606591 0.0058018295 0.0095283523 -0.0040571477
0.2506935795 0.3045517727 -0.2355350795 0.0030292045 -0.0096653636 -0.0107938182
-0.0381660341 0.3863636364 0.0590955568 0.0080353068 0.0080353068 -0.0056818182
-0.3311616705 0.4691414886 0.0993517045 -0.0101779886 -0.0048687500 -0.0049333977
-0.4216505000 0.7751191705 -0.2110223295 -0.0109986818 -0.0028442159 -0.0056818182
-0.4557240227 0.7978116818 -0.0098855568 -0.0108977159 -0.0032094659 -0.0056818182
-0.1686804886 0.3084358523 0.2345722159 0.0000000000 -0.0080353068 0.0023534886
0.2512332955 0.4350196705 -0.3221314205 -0.0004115341 -0.0057123523 -0.0146486250
0.4545454545 0.4840859545 0.2375036136 0.0096426023 0.0042285568 -0.0043283068
-0.1831832386 0.4004573864 0.0685604886 0.0101599318 0.0050799659 -0.0057924432
-0.0671961818 0.0636188636 0.0274234545 -0.0080353068 0.0000000000 -0.0137171250
0.0699898068 0.4955020341 -0.4759815000 -0.0024775000 -0.0058781023 -0.0143573068
0.4746867500 0.4457677500 -0.3488696023 0.0102832273 -0.0017271591 -0.0096852841
-0.3352830455 0.6819297614 0.0431402614 0.0102108636 0.0046115000 -0.0064913295
-0.2169177500 0.4521871477 -0.0433937386 0.0096092045 0.0058794432 -0.0043168977
0.4233978068 0.3764716477 0.2585284091 0.0039540341 -0.0101726023 -0.0025378864
-0.3895855795 0.9236765795 -0.2618975000 0.0100021364 0.0048529091 -0.0056818182
0.1035315568 0.5681818182 -0.4429792045 0.0000922500 0.0113184545 -0.0054665795
0.2595065682 0.3592294773 0.0314698182 -0.0029273977 0.0109386250 -0.0057579318
0.0206416477 0.4475176932 0.4123839886 -0.0033579091 -0.0060432727 0.0032516364
0.3687790909 0.5113636364 -0.3471433068 -0.0046045909 0.0097615795 -0.0088083523
0.0263443295 0.2294842955 0.1783479545 0.0012464091 -0.0094206477 0.0004973750
-0.0879379205 0.0426570568 -0.0871548636 0.0025646023 -0.0110537273 -0.0056818182
-0.3747001136 0.6755416591 0.2559816818 -0.0086771250 -0.0007356818 0.0014870341
0.2028956818 0.4853474886 0.4796656705 -0.0005076250 -0.0095611932 0.0001756932
-0.2019555795 0.4507405568 0.1775112159 0.0093040455 0.0046520227 -0.0102518182
0.3528336591 0.3127804886 -0.0044335795 0.0046298977 -0.0103669545 -0.0056818182
-0.4384051250 0.7745376023 -0.1530242386 -0.0108391818 -0.0031972045 -0.0062913864
-0.3977272727 0.6303171705 -0.0951185682 -0.0109417159 -0.0027354318 -0.0063943977
-0.2486659205 0.5086954773 -0.0202488182 0.0101761023 0.0050526023 -0.0056109091
0.0608367159 0.1931818182 -0.0389651591 0.0041800909 -0.0098620568 -0.0077295341
0.3649171477 0.4886363636 0.0023800455 -0.0026021705 0.0106644659 -0.0072123636
-0.3541812500 0.7765443068 0.1342106477 0.0103614205 0.0031419432 -0.0087834659
-0.3018822614 0.4802159432 0.2294700341 -0.0093068068 -0.0049154886 -0.0018250455
0.1407128750 0.3888749205 0.3831931023 -0.0010546932 -0.0086724091 0.0015112614
-0.3903198295 0.6946113750 0.2289983182 -0.0094641705 -0.0026612614 -0.0002878977
0.2506951023 0.5330533977 0.4240613409 0.0021241591 0.0097382386 -0.0110034773
0.1654863409 0.4415257159 0.0382367614 -0.0036620114 0.0107550909 -0.0057280000
-0.1690338864 0.4915246932 0.2443181818 0.0000000000 0.0022285909 -0.0168247841
0.0875223636 0.0603077500 0.1088494773 0.0000000000 0.0108816023 -0.0024151477
0.4057696932 0.3822809545 -0.3043960909 0.0035125909 -0.0098998068 -0.0098903977
-0.4090909091 0.9155651477 0.0588756364 0.0110243864 0.0023027386 -0.0056818182
-0.3698481250 0.6487871477 -0.2391319318 -0.0098420114 -0.0027904432 -0.0103454659
0.0877983182 0.5553244659 0.3874409432 0.0027193295 0.0102030568 -0.0098357727
-0.0454545455 0.4042873864 0.1054771364 0.0104821705 0.0019610341 -0.0076428523
-0.4772727273 0.9104143523 0.1306414318 -0.0104051364 -0.0030272386 -0.0026545795
-0.4772727273 0.8526235114 -0.0792179091 -0.0113636364 0.0000000000 -0.0056818182
0.1290490000 0.2509658523 -0.1967463523 0.0029665227 -0.0098898295 -0.0102682500
0.0731173523 0.4613109886 -0.4442655341 -0.0020862386 -0.0057747386 -0.0152026705
-0.3181818182 0.9987288409 -0.0296336364 0.0113636364 0.0000000000 -0.0056818182
-0.3702895455 0.5587609432 0.0318365000 -0.0101639432 -0.0050819773 -0.0056818182
-0.4090909091 0.7306700568 0.2087230909 -0.0106802500 -0.0027549318 -0.0038884318
0.0844448864 0.3206315455 0.1510390909 -0.0024795000 0.0110394773 -0.0061881477
0.0054458977 0.5038099773 -0.4620425909 -0.0038970227 -0.0056852614 -0.0141253295
-0.1108892614 0.4469395568 -0.2556818182 0.0000000000 0.0000000000 -0.0170454545
-0.4545455000 0.9435060682 0.2318271250 -0.0113636364 0.0000000000 -0.0056818182
-0.4271412727 0.6838280114 0.0381817614 -0.0099660114 -0.0036380227 -0.0022348864
0.5000000000 0.4053844545 -0.1281603295 0.0113636364 0.0000000000 -0.0056818182
-0.4886363636 0.9361629432 0.0499564318 -0.0113045227 -0.0007142614 -0.0056818182
-0.2719797273 0.5553231250 -0.1030256023 0.0103215795 0.0028948182 -0.0024795909
0.0655284091 0.4044185568 0.0485312386 -0.0042203523 0.0105508750 -0.0056818182
-0.3706342500 0.7282873523 -0.3055020682 -0.0072915114 -0.0024426818 -0.0129367955
-0.0292425455 0.4735321136 0.4134563068 -0.0032535114 -0.0047040000 0.0040787273
0.1499473295 0.3341553636 -0.3194997955 0.0014535682 -0.0092097159 -0.0121740341
-0.2813239773 0.3694661364 -0.0403393636 -0.0095663068 -0.0060382045 -0.0065071932
0.4671143636 0.4808382500 0.1850895000 0.0079584318 0.0079318977 -0.0042948409
-0.0375343182 0.5681818182 -0.3967294659 0.0006559659 0.0111725341 -0.0052445114
0.0198775909 0.2407872727 -0.2031654432 -0.0001798750 -0.0094223523 -0.0120233409
-0.4451945000 0.7653890114 0.0156521818 -0.0109811591 -0.0029044091 -0.0056818182
-0.1052418864 0.5000000000 0.1978544318 0.0000000000 0.0113636364 -0.0056818182
-0.2292780227 0.6022727273 0.3224664432 0.0000000000 0.0113636364 -0.0056818182
-0.1050770455 0.4999999545 -0.1996476477 0.0000000000 0.0113636364 -0.0056818182
-0.1202818068 0.3361829205 -0.2874096364 -0.0006610000 -0.0065393750 -0.0148298750
-0.0491205227 0.5046823636 0.4209627727 -0.0037978636 -0.0064201477 0.0027774545
-0.2161672500 0.2843490682 0.1167769318 -0.0078272500 -0.0078088523 -0.0030604773
-0.0823001136 0.4886363636 0.2105037500 0.0000000000 0.0113636364 -0.0056818182
-0.3413073636 1.0517680455 -0.1470956364 0.0068757955 0.0071574091 -0.0108742159
0.2061985795 0.4376072045 0.4319253864 -0.0012737500 -0.0082973977 0.0019591591
0.1766604773 0.5409080341 0.4102262614 0.0017518295 0.0092952045 -0.0118803068
-0.1116990114 0.5725573636 0.3352272727 0.0022553068 0.0106953750 -0.0075293523
0.2004790909 0.5681818182 -0.4821753977 0.0001427045 0.0112623068 -0.0053250682
-0.2182313977 0.4478264318 0.3152832955 -0.0072741591 -0.0049703295 0.0014805341
0.0375463977 0.2193645795 0.1462763409 0.0020213636 -0.0101259205 -0.0010279205
0.2954486023 0.4647347727 -0.3669695682 -0.0001376136 0.0087907273 0.0013259432
-0.0339393182 0.5634886591 -0.4375757727 -0.0050717500 0.0000118409 -0.0158489886
0.3476774432 0.3102023409 0.0625447045 0.0048253750 -0.0102791705 -0.0056818182
-0.0090340682 0.5277630227 -0.3352272727 0.0033662273 0.0061698750 0.0031976818
0.0999008750 0.4158772955 0.2976618068 0.0014385000 0.0064655682 -0.0148776705
0.3871764659 0.5448653523 0.5158670114 0.0002450795 0.0101721591 -0.0106453636
0.3400984205 0.4541205455 0.3343970568 0.0000322500 -0.0090425227 0.0011898750
-0.1912510341 0.5909090909 -0.3268130455 0.0047222614 0.0091760114 -0.0016031477
0.0258466250 0.3879233295 -0.0068923068 -0.0049637159 0.0102170568 -0.0056818182
0.3290764659 0.3122655227 -0.1761088182 0.0041567159 -0.0102451477 -0.0079513636
-0.1069180568 0.5550770341 -0.3107588977 0.0021481932 0.0071049886 0.0026131023
-0.4101095682 1.0557994886 0.0082304318 -0.0082199318 0.0077643636 -0.0055326705
-0.3568942386 1.0500760568 0.0432239091 0.0058016364 0.0095555795 -0.0066758977
0.1235692500 0.4275533977 -0.1654064886 -0.0039921477 0.0106334545 -0.0053781250
-0.0907254432 0.2759475114 -0.2361747614 -0.0006348636 -0.0081661477 -0.0134839773
-0.1366530227 0.5000000000 0.2027239318 0.0000000000 0.0113636364 -0.0056818182
-0.1277991023 0.4805445227 0.2573177159 0.0009717159 0.0046518182 -0.0158158409
-0.4656407614 1.0644422045 0.2026031932 -0.0020040909 0.0075848977 0.0019030795
-0.1575601705 0.0231099545 -0.1531327386 0.0002739545 -0.0110894205 -0.0034471250
0.0494413523 0.3990561705 -0.0130601591 -0.0041470455 0.0105777273 -0.0056818182
-0.4204545455 0.7950291250 -0.2412258750 -0.0098825568 -0.0024651477 -0.0099258409
-0.4710902273 0.8656917955 0.0996477386 0.0108853977 0.0030215341 -0.0067151818
0.1407780682 0.2316871591 0.1014006023 0.0058468295 -0.0097178068 -0.0056818182
0.2751738864 0.4241861477 0.4209056364 0.0012438523 -0.0097878295 -0.0002714432
-0.1437106023 0.4886363636 -0.0473356364 0.0000000000 0.0113636364 -0.0056818182
-0.4670038636 1.0898143636 -0.0396570795 -0.0080353068 0.0080353068 -0.0056818182
0.1936787273 0.3043385227 0.2617548977 0.0019577045 -0.0094633864 0.0002848068
-0.3018688523 0.6768688750 0.2195663068 0.0088328182 0.0069911591 -0.0056818182
-0.1932175341 0.4739373864 -0.3579188068 -0.0042871818 -0.0028300227 -0.0157348409
-0.1780828409 0.0254275568 0.1496737614 -0.0073910568 -0.0016868523 -0.0134945909
0.2031237159 0.3820566705 0.2291214659 0.0027906818 -0.0104569432 -0.0022231477
0.0582201364 0.2216604432 -0.1535481477 0.0023707614 -0.0098831477 -0.0106522159
-0.0499253977 0.3250746023 0.1458846136 0.0060447045 -0.0087593977 -0.0032866364
-0.2927639886 0.5855279886 -0.0316308864 0.0103644432 0.0041252841 -0.0047728295
0.4772727273 0.4637033295 0.1610414545 0.0113274091 0.0000000000 -0.0053159318
-0.5000000000 1.0342108977 0.1314035568 -0.0113636364 0.0000000000 -0.0056818182
-0.0113636364 0.1691528636 0.0125117500 -0.0100357500 0.0000000000 -0.0024760114
-0.1704545455 0.4825437273 0.1812759091 -0.0113636364 0.0000000000 -0.0056818182
0.1476056818 0.5021163295 0.4888182159 -0.0023364886 -0.0083383409 0.0016207727
-0.1818181818 0.4599674432 0.1312673295 -0.0102257614 0.0000000000 -0.0008616932
0.0423932727 0.4799330909 0.4375000000 -0.0026144545 -0.0054285455 0.0039407159
0.0314217727 0.3907109205 0.0369986705 -0.0047523523 0.0103119659 -0.0056818182
-0.3686679886 0.9843339091 0.1534090909 0.0000000000 0.0000000000 0.0056818182
0.1918054091 0.5113636364 0.5161530341 -0.0025936705 -0.0066027273 0.0030267614
-0.0445828636 0.3535576705 0.3137849659 -0.0014970000 -0.0074361250 0.0026888750
0.2725182841 0.4772727273 -0.2316185795 -0.0019167045 0.0110936023 -0.0045037500
-0.3880222955 0.7152995682 0.2540231591 -0.0090562159 -0.0023046932 0.0004351250
-0.1121433523 0.2954545455 -0.0460403977 0.0000000000 -0.0113636364 -0.0056818182
0.0009871477 0.3754935682 -0.0729748750 -0.0062503636 0.0094859091 -0.0056818182
-0.3493366932 0.7554916023 0.1458128750 0.0105404091 0.0038840341 -0.0056818182
0.2140176932 0.2807526591 0.1940785795 0.0035933182 -0.0102442273 -0.0023402614
-0.3971759205 1.0151454773 0.1534090795 0.0000000000 0.0000000000 0.0056818182
-0.2159090909 0.3188280000 -0.2017309659 -0.0070320909 -0.0071600909 -0.0106159545
0.4385125455 0.4407750455 -0.2532750455 -0.0027115341 0.0102633977 -0.0020217841
0.3855856932 0.4314292159 0.2515577386 0.0021225568 -0.0108255909 -0.0029671932
-0.2293618182 0.2861800000 0.0760074205 -0.0084144773 -0.0073931136 -0.0051900000
0.3230899205 0.5028693409 0.3949147955 0.0007421023 0.0086630000 -0.0128606250
-0.3631596136 0.5899555909 -0.1901107500 -0.0093753977 -0.0058074318 -0.0081413295
-0.2390420000 0.0141031364 -0.2291339091 0.0006401136 -0.0103823523 -0.0032033409
0.4666850341 0.3583425227 0.0699066932 0.0043863523 -0.0103379659 -0.0045710227
-0.0489155568 0.5459221932 -0.4375000000 -0.0018742614 0.0048511477 -0.0154941023
-0.4386780000 0.9645816591 -0.2556818182 -0.0027166818 0.0027166818 -0.0160991364
0.0091089091 0.5282838182 0.3339746250 0.0034779091 0.0059793750 -0.0145841136
-0.1144459432 0.3669470455 -0.2443181818 0.0000000000 0.0000000000 -0.0170454545
0.3132479205 0.4033064432 -0.2419696250 0.0023667273 -0.0107529091 -0.0084352955
-0.4204545909 1.0667060455 -0.1380098409 0.0081712159 0.0066953977 -0.0081245000
0.0374012386 0.0558604886 -0.0771739659 -0.0079245341 0.0000000000 -0.0138182727
0.2962559773 0.0000000000 0.2795271477 0.0000000000 -0.0113636364 -0.0056818182
-0.1999925909 0.3996347500 -0.3134537386 -0.0010019205 -0.0060805341 -0.0151508750
0.0733544773 0.2320504886 -0.1717419318 0.0016619205 -0.0100422159 -0.0107124886
-0.3598272614 1.0568181818 0.1167705227 0.0018014545 0.0106174432 -0.0056818182
-0.1704545568 0.4801668295 0.1210895909 -0.0085541364 0.0000000000 0.0011009091
-0.1931818182 0.4606267273 -0.0005374659 -0.0113636364 0.0000000000 -0.0056818182
0.1916174432 0.4540240114 0.1930411023 -0.0035935000 0.0107804886 -0.0056818182
-0.4740415909 0.8467306705 0.1111856932 -0.0101068295 -0.0026535568 -0.0015822500
-0.4178930682 0.9450237955 -0.2591619091 0.0007865455 0.0043362045 -0.0161290455
-0.1283244091 0.2045454545 0.0727289091 -0.0033168636 -0.0099823182 -0.0035445795
0.1421776591 0.5568181364 -0.4392074205 0.0008523068 0.0109776364 -0.0032752273
-0.3447620227 0.5545831136 0.2052568068 -0.0102599659 -0.0023441364 -0.0015775795
0.0568793068 0.4461032727 0.4233426591 -0.0013605682 -0.0062321705 0.0036356705
-0.3977272727 0.9225287045 0.2421116364 0.0113636364 0.0000000000 -0.0056818182
0.2189591818 0.5456265114 0.5299341477 -0.0047693523 0.0000191023 0.0045966477
0.1082020455 0.4186430795 0.0119331705 -0.0041279091 0.0105677500 -0.0059888182
0.2410046364 0.4575705114 0.3246530568 -0.0041651818 0.0002380227 0.0048501477
0.1555033864 0.4419859545 0.1722018636 -0.0036557841 0.0107503750 -0.0058695455
-0.3008719318 0.4881075568 -0.2347503977 -0.0098191705 -0.0044922386 -0.0086296364
-0.2521959659 0.5170642727 0.3295643068 -0.0052061023 -0.0061881705 0.0010315455
0.4342578523 0.3648562045 -0.2151498750 0.0045363750 -0.0103868295 -0.0062909773
-0.1955131818 0.2636950000 -0.1409856591 -0.0075394773 -0.0079988977 -0.0081536705
-0.2749971705 0.5590881023 0.0329267045 0.0094551136 0.0063034091 -0.0056818182
-0.4417464545 1.0795454545 -0.2060444091 0.0005860000 0.0094174545 -0.0103304205
0.2530187727 0.5121094545 -0.4041548636 0.0003071364 0.0081759773 0.0021640114
-0.3295454545 1.0180697045 0.1326131364 -0.0113636364 0.0000000000 -0.0056818182
-0.1005081250 0.2840909091 0.0710709091 0.0000000000 0.0111437159 -0.0070370000
-0.0235055455 0.0484130341 -0.0170454545 -0.0008900682 -0.0017801364 -0.0073501591
0.2379696136 0.4531219659 -0.3286304886 -0.0036280227 0.0053916250 -0.0146548750
0.3030042045 0.4886363636 -0.2720786477 -0.0015075795 0.0111180568 -0.0040057273
-0.1834851364 0.4010611932 -0.0834466250 0.0101547159 0.0050773523 -0.0054966023
-0.0459041477 0.4836880114 0.2893231136 0.0046233523 0.0023843182 -0.0157523182
0.2274765114 0.2557837045 -0.0663827955 0.0043966250 -0.0104604545 -0.0061586705
-0.3792861136 0.8906497955 -0.2619804432 0.0093610682 0.0061959091 -0.0056818182
0.3253282159 0.3785732045 -0.1212575909 -0.0030626136 0.0108489432 -0.0045728636
-0.0340909091 0.4051818409 0.1713622614 0.0113636364 0.0000000000 -0.0056818182
-0.0719319205 0.5252937386 -0.4375000000 -0.0023896932 0.0000000000 -0.0166576591
0.3209679091 0.3763930568 0.0616852955 -0.0047682614 0.0102988409 -0.0060629773
0.2074192045 0.3508048750 -0.1504733750 -0.0030821591 0.0107455341 -0.0039752614
0.4659090455 0.4880229318 -0.2884086932 0.0065756364 0.0089272727 -0.0058385114
0.4694187841 0.4783666818 -0.0987473864 0.0067497386 0.0089348523 -0.0072021591
0.5000000000 0.4106196023 0.0626351136 0.0113179886 0.0003707614 -0.0056818182
-0.0310332045 0.2985122614 0.1337186818 -0.0034409432 0.0103372841 -0.0088875568
0.0769925568 0.3117002159 -0.3058724659 0.0006720795 -0.0080823295 -0.0135865114
0.2534184205 0.4832158977 -0.4962887386 -0.0013447727 -0.0087862841 -0.0124391705
0.4090033409 0.4063113864 0.3509267500 0.0025921477 -0.0099538295 -0.0009554773
-0.1124781477 0.4615683977 0.2443181818 0.0000000000 0.0000000000 0.0056818182
0.1173744886 0.5321630114 -0.3806425909 0.0033290682 0.0067131250 0.0028495568
-0.2445886364 0.3585893409 0.2105916250 -0.0093242841 -0.0056670114 -0.0035493523
0.1659029205 0.0210242727 -0.1711087045 -0.0025838864 -0.0110580795 -0.0056818182
-0.1925501818 0.0342488182 0.2051729545 -0.0016132386 0.0110028182 -0.0048163068
-0.0279138409 0.0594514318 0.0563229318 0.0080353068 0.0000000000 0.0023534886
-0.1138655455 0.4886363636 0.0852844432 0.0000000000 0.0113636364 -0.0056818182
0.0994317614 0.5281799091 0.3592603864 0.0026779545 0.0059596818 -0.0149520114
0.3280145455 0.3912800000 -0.1638346705 -0.0043033636 0.0104562614 -0.0046060455
-0.1684727841 0.4886363636 -0.1065261364 0.0000000000 0.0113636364 -0.0056818182
-0.1851185455 0.5326312727 -0.3887450909 -0.0051312273 -0.0019428750 -0.0149895227
-0.1249222045 0.5623101705 0.2952647159 0.0016155795 0.0086261364 -0.0123974545
-0.3185636818 0.9708804205 -0.1253286477 0.0083395455 -0.0073645909 -0.0035332841
-0.2532842841 0.3536481477 0.1709432045 -0.0089457045 -0.0054465000 -0.0020769659
0.3769918409 0.3281828295 0.1373283409 0.0043198864 -0.0102646364 -0.0035218750
0.1418847727 0.4938432500 0.3519549318 0.0021143750 0.0067035114 -0.0145406023
-0.3921832614 0.6252755682 0.0568161136 -0.0104321818 -0.0039093523 -0.0043750795
-0.3281494091 1.0113635455 -0.0103299659 0.0080353068 0.0080353068 -0.0056818182
-0.0056142955 0.1401786591 -0.0284090909 0.0000000000 0.0000000000 -0.0170454545
0.3387955795 0.4443219773 0.4397803182 0.0006866818 -0.0096505682 0.0001609545
-0.4087678295 0.7042223295 -0.1767718977 -0.0104654659 -0.0040655909 -0.0073136023
-0.4431818182 0.7800734205 0.1014809091 -0.0106818068 -0.0034662273 -0.0045717273
-0.1931818182 0.2531039886 -0.1040806705 -0.0084932727 -0.0072094432 -0.0067071023
0.3999840114 0.4886363636 -0.1708212045 -0.0002385795 0.0112192955 -0.0043167841
-0.1123668750 0.0522522955 -0.0911103864 -0.0087517045 0.0000000000 0.0015548182
0.4534390227 0.4908122159 -0.2145789773 0.0050098068 0.0100438523 -0.0049208523
0.3011079318 0.0000000000 -0.3162908523 0.0000000000 -0.0113636364 -0.0056818182
-0.0133544886 0.1040635227 0.0056818182 -0.0066275682 0.0000000000 0.0029365909
0.1999402727 0.5220163977 -0.5276982159 -0.0004315682 -0.0081276364 -0.0135642500
-0.3712410455 0.9360652386 -0.0634763636 0.0014681250 -0.0108111818 -0.0079774545
-0.1809562955 0.5575122386 0.3701800455 -0.0054525000 0.0053774659 0.0026761250
-0.0932482159 0.0674021136 -0.0729883750 -0.0041773409 0.0105666250 -0.0056818182
0.1347405341 0.5568181818 0.4283957500 0.0010222614 0.0111735795 -0.0069255455
-0.0953745000 0.3340178636 0.2784161136 -0.0042164773 -0.0078372500 0.0013045909
-0.0764559659 0.4811723068 -0.2185014205 0.0077693068 0.0061773182 -0.0108293068
0.2413452273 0.4685300909 -0.1813783750 -0.0020253523 0.0110243636 -0.0039553636
-0.4246726023 0.7584361136 -0.1771512273 -0.0102404773 -0.0023945341 -0.0096123409
0.2755160795 0.3025307614 0.1935152841 0.0040296364 -0.0102322614 -0.0029321364
-0.0946371705 0.3535507159 -0.3137779659 -0.0004734659 -0.0070762386 -0.0144023182
-0.4064370909 0.6765105455 0.1443593864 -0.0101769091 -0.0049355795 -0.0052957159
-0.1306414318 0.3010959659 -0.0591795341 0.0080353068 0.0080353068 -0.0056818182
-0.0133027273 0.5240774205 0.3138501477 0.0043745682 0.0054843636 -0.0145955909
-0.0385454091 0.3556882727 0.2260454091 0.0059832273 -0.0059832273 0.0016957955
-0.3456955341 0.5209365341 0.1206956364 -0.0099762386 -0.0050643523 -0.0042700455
-0.1590909091 0.4250432386 0.2166373068 -0.0092269545 -0.0021366818 -0.0014084545
0.3158556818 0.3788226705 0.1179260114 -0.0028694205 0.0107840909 -0.0076954318
-0.3927165795 0.9444358182 -0.0650080341 0.0056375114 0.0092567955 -0.0040442159
-0.4448160227 0.8635344886 -0.1989654659 -0.0082802386 -0.0003934886 -0.0133122386
-0.3737384659 0.8055565568 -0.0845839545 0.0101050455 0.0037402159 -0.0021865909
-0.2415039318 0.5991631477 -0.3579545455 0.0000000000 0.0000000000 -0.0170454545
-0.5000000000 0.9892083977 0.0265160795 -0.0099372386 -0.0044217614 -0.0027440455
0.4545454545 0.4546662273 -0.4117343182 0.0107216136 0.0023249886 -0.0084869773
0.1800486477 0.3389147841 -0.0491420795 0.0020247045 -0.0110091250 -0.0073193523
0.1149487955 0.2045454545 0.0134049773 0.0035334432 -0.0107661932 -0.0051842159
-0.1647339091 0.4886363636 0.0574001477 -0.0036061364 0.0098699205 -0.0056818182
0.1658986136 0.4492389545 0.2780190568 -0.0042081591 0.0092297273 -0.0027873864
-0.0715377500 0.2790766818 -0.2473116591 -0.0022187386 -0.0080435000 -0.0132787614
-0.1729804659 0.5795454091 0.3654072955 0.0000000000 0.0113636364 -0.0056818182
-0.3912036591 0.8912036250 -0.1552599091 0.0107430909 0.0036955909 -0.0056818182
0.1229945227 0.4251336136 -0.0487462386 -0.0042536818 0.0105374318 -0.0056818182
0.4425320682 0.3519478523 -0.0836449545 0.0047110795 -0.0102844432 -0.0066359659
-0.0441152841 0.4279978068 -0.2821807045 0.0025547727 0.0037220455 0.0047230682
-0.1476797614 0.4886838750 -0.1610687841 -0.0056146023 0.0091611705 -0.0021352500
-0.3535064091 0.5706491932 -0.2006628977 -0.0095011023 -0.0061891818 -0.0060014091
0.3531907500 0.3193904091 -0.1435445795 0.0048062159 -0.0099282955 -0.0084007841
-0.0568181818 0.4591651364 0.2127622955 0.0093585568 0.0041146932 -0.0031070114
0.1666720909 0.3295454545 -0.0009584205 -0.0035918409 0.0107755227 -0.0058808977
-0.4308027386 0.7706963750 0.1616672045 -0.0097168068 -0.0055895568 -0.0048617386
0.1016957159 0.2047967045 -0.1079545455 0.0025582955 -0.0104830795 -0.0087586364
-0.5000000000 1.0629593295 -0.1247049432 -0.0113636364 0.0000000000 -0.0056818182
0.2935586364 0.3272702955 0.2572903182 0.0028220227 -0.0092627159 0.0000823182
-0.1704545455 0.3837822159 0.0837829432 -0.0106075568 -0.0018253523 -0.0056818182
-0.3712140455 0.7947555909 0.0659364545 0.0100286705 0.0031616705 -0.0098266136
0.2323381023 0.0190293750 -0.2152926250 0.0080353068 0.0000000000 0.0023534886
0.3118625341 0.3198632500 -0.2031536136 0.0032614432 -0.0104692727 -0.0085770455
-0.4772727273 0.9111967045 -0.1399310795 -0.0111237955 -0.0008070682 -0.0064705568
0.5000000000 0.3872103295 -0.1141970000 0.0113636364 0.0000000000 -0.0056818182
0.3214929773 0.3548272727 0.2948818182 0.0030622727 -0.0100853409 -0.0014490341
-0.3935816477 0.9121632955 0.2141279091 0.0107804886 0.0035935000 -0.0056818182
0.2515671932 0.3530563182 -0.0434423409 -0.0040668182 0.0105950568 -0.0055103068
-0.3670935682 0.5978234886 0.1953451250 -0.0096692045 -0.0055910568 -0.0036591705
-0.2500000000 0.5592068750 -0.1919386364 0.0096657614 0.0051455455 -0.0062225682
0.3921607614 0.4561348864 0.4406788523 0.0007928636 -0.0096883750 0.0001398295
0.2999857500 0.5454545455 0.4674539091 0.0015479773 0.0102236818 -0.0103205795
0.0875393409 0.1931817955 -0.0389942614 0.0038755114 -0.0103911250 -0.0069736591
0.4318181818 0.5047871023 0.2920413409 0.0068722045 0.0088969318 -0.0045005114
-0.4659090909 0.8427998750 -0.0596310568 0.0113636364 0.0000000000 -0.0056818182
-0.0100865341 0.3649134659 0.0051677273 -0.0078406705 0.0081948750 -0.0056818182
-0.4997084318 0.9883447955 -0.0307718523 -0.0109834659 -0.0017222727 -0.0070857841
-0.3977272727 0.9537747955 0.1215186818 -0.0074550909 -0.0084391818 -0.0055476705
0.3445721932 0.5645186705 -0.5276640114 0.0025487841 0.0080141477 0.0016255227
-0.2348971818 0.4260867727 -0.3011363409 -0.0078625114 -0.0048222159 -0.0105790227
-0.2792109545 0.5697855568 -0.0746261591 0.0104783977 0.0040199091 -0.0045127727
0.1388373636 0.0249497500 0.1490852955 -0.0032567955 -0.0106953295 -0.0049045341
-0.4659090909 0.9503042955 0.1843306364 -0.0100598523 -0.0012347614 -0.0017947500
-0.0683630227 0.3894220227 -0.2627116364 0.0036697500 0.0032067955 0.0044015227
0.1192244545 0.3552405455 -0.2472860000 0.0002025114 0.0084159545 0.0017022045
0.0322739091 0.5234498977 0.3359498977 0.0024948636 0.0059195682 -0.0149753750
0.2856186136 0.2808122614 0.0713882500 0.0042047273 -0.0105519318 -0.0054757273
0.3508013182 0.3162566932 0.1396666477 0.0049595000 -0.0099190000 -0.0032020682
-0.4206908864 0.8445035795 -0.2668091364 -0.0098782614 -0.0017131250 -0.0109883182
-0.0571921591 0.0555730682 -0.0515103409 -0.0079174205 -0.0001721023 0.0022929773
0.3390437955 0.4104843523 0.2223185000 0.0029296023 -0.0106283636 -0.0030378182
-0.3888377273 0.5958573182 -0.0950673523 -0.0102836477 -0.0045586705 -0.0062649773
0.0031013409 0.4975122500 0.4365628864 -0.0036205909 -0.0070416023 0.0023527386
0.2571285227 0.0276198750 -0.2572602386 0.0006160568 0.0109944432 -0.0081362841
-0.0476250568 0.2747664432 -0.2463573295 -0.0005055455 -0.0088161818 -0.0126421136
0.0193187614 0.3181818182 0.1901161477 0.0000000000 0.0113636364 -0.0056818182
0.4419417841 0.4785705000 0.4160127614 0.0102312273 0.0000000000 -0.0007622727
0.2201866705 0.4641198295 0.3011363636 -0.0047600455 0.0072926250 0.0016108068
-0.0088512955 0.5102197500 -0.3214209773 0.0035323295 0.0050825568 0.0038056023
-0.0340909091 0.4143095000 -0.1590911477 0.0092353295 0.0036900795 -0.0031409318
-0.0742182841 0.3068181818 -0.1247399886 0.0000000000 -0.0113636364 -0.0056818182
-0.1477272727 0.3769568068 0.1840244659 -0.0113636364 0.0000000000 -0.0056818182
0.2170077727 0.3829746250 -0.2405955341 0.0027624091 -0.0102065795 -0.0098416364
-0.0308218523 0.4069544659 0.3574526364 -0.0022110909 -0.0074406023 0.0025303750
-0.3446756477 0.7234422045 0.0454576477 0.0108325568 0.0031983864 -0.0067522841
-0.4684676250 0.9684676250 -0.1937771250 -0.0099027500 -0.0030772727 -0.0090080227
0.2763744318 0.5433853295 0.4542998409 0.0019223750 0.0093569886 -0.0116828068
-0.0618240795 0.3714320455 0.3316592955 -0.0039202045 -0.0070339318 0.0022191136
0.4590565909 0.4878606818 -0.1426639091 0.0046207614 0.0103316477 -0.0051026250
-0.1054132841 0.2188564659 -0.1363833750 -0.0019308636 -0.0100441136 -0.0104733636
0.3633647614 0.5568181818 -0.5175712727 0.0000858864 0.0113227159 -0.0055155455
0.1452150341 0.2250003182 0.0785291477 0.0037766477 -0.0102706136 -0.0032147386
-0.0957668295 0.4815552841 -0.1187430114 0.0070662273 0.0083421364 -0.0027866591
-0.2178834091 0.4814656023 0.1403153182 0.0101866477 0.0045019773 -0.0078565341
0.0080147955 0.2692249432 0.2373135568 0.0009729545 -0.0082587955 0.0020207841
-0.1718501818 0.3891549091 -0.1469506364 0.0100719773 0.0052017159 -0.0051445795
0.1470369659 0.2212457614 -0.0264210682 0.0048963068 -0.0101107045 -0.0059609773
0.1827031932 0.3522727273 -0.2125723750 -0.0025261250 0.0108363636 -0.0046583295
0.3205918409 0.3871876591 -0.1426154886 0.0025542386 -0.0109063636 -0.0074559545
-0.1942980341 0.2511162159 0.0229652955 -0.0079370455 -0.0080586477 -0.0056359886
-0.0389535341 0.3617275795 -0.2534246932 0.0020508977 0.0045418864 0.0044958977
-0.3536237159 1.0468055568 0.0728241591 0.0056024318 0.0097647159 -0.0045531818
0.3977272727 0.5239397386 0.5123420682 0.0104136136 0.0019472955 -0.0020862727
-0.2146981023 0.2823865682 -0.1188248523 -0.0077327727 -0.0078281023 -0.0085018750
-0.3164868750 0.6573959659 -0.1090202159 0.0097111705 0.0056145114 -0.0040497500
0.0738303636 0.4027516136 -0.3930516705 -0.0014249091 -0.0080681591 -0.0135464545
-0.2204347727 0.4556521932 0.0274465795 0.0095403182 0.0059649205 -0.0070717045
0.3456850000 0.4858355909 0.1364438864 -0.0009639091 0.0112293295 -0.0068964545
-0.0543516250 0.5211746932 -0.3117237045 0.0031285682 0.0056433977 0.0035687614
0.2204999886 0.3659318182 0.2152059773 -0.0033401250 0.0104499773 -0.0075787045
-0.3274030682 0.7002606818 0.1453393182 0.0102092159 0.0043370341 -0.0076040909
-0.3843672045 0.8255525909 0.0339516591 0.0109815000 0.0029032045 -0.0056818182
-0.3460179205 0.7943085795 -0.2718001250 0.0099548977 0.0053473750 -0.0056818182
-0.3450664659 0.7924056477 0.2549339432 0.0094402727 0.0036786364 -0.0093360568
-0.0219689432 0.0454545455 0.0137862727 -0.0056988409 -0.0076926023 -0.0009043068
0.2025111364 0.4538673523 -0.1458524432 -0.0037045568 0.0107324205 -0.0053055341
0.2096679432 0.2468794205 0.0500019432 0.0040678864 -0.0104806250 -0.0044497955
0.0249278750 0.5430208068 -0.4723244545 -0.0042203523 0.0000000000 -0.0162326932
-0.4090909091 0.9776382500 0.1499128523 -0.0112565568 -0.0002585114 -0.0056818182
-0.1124536932 0.2355710341 -0.1730710455 -0.0003182273 -0.0090967955 -0.0123627727
0.2231296591 0.4430852386 -0.4523773182 -0.0017924091 -0.0082558750 -0.0132434091
-0.2892143977 0.6598162614 -0.2278310341 0.0092345000 0.0024496364 -0.0004281023
0.4025148068 0.4020868182 -0.3553100114 0.0020977273 -0.0099058409 -0.0107769205
-0.2088652727 0.3789182955 0.2860500568 -0.0035271136 -0.0044786250 0.0025621136
-0.1333184773 0.3037730341 -0.0274374432 0.0080353068 0.0080353068 -0.0056818182
0.0266352727 0.2993625341 -0.0188874091 -0.0035935000 0.0107804886 -0.0056818182
-0.1931818182 0.4637776250 0.0873076705 -0.0113636364 0.0000000000 -0.0056818182
-0.3977272727 0.6448101591 0.1256719886 -0.0108430341 -0.0032118636 -0.0046765795
0.2049113864 0.3751219886 0.2006702614 0.0035106023 -0.0107593636 -0.0053977500
-0.0826473182 0.4576473182 0.0156875682 0.0080353068 0.0080353068 -0.0056818182
0.0115014091 0.5232728182 -0.4715909091 -0.0028729318 0.0000000000 -0.0166508523
-0.4174741364 1.0370712273 -0.0029651477 0.0080353068 -0.0080353068 -0.0056818182
0.3267490227 0.4772727273 0.0793140341 -0.0021863523 0.0110567841 -0.0069805682
-0.0706847500 0.4116736364 0.2417354545 0.0053066023 0.0044457045 0.0032095909
-0.1138991591 0.2037696818 -0.0382211705 -0.0048112386 -0.0097946932 -0.0087677500
-0.3531746818 0.7290766477 0.0153892841 0.0098021136 0.0054785114 -0.0070650795
-0.1390830795 0.5367213182 -0.2810395000 0.0056305000 0.0045731136 0.0030385795
0.2941054205 0.5250775568 0.4398502841 0.0018335568 0.0099504432 -0.0103022273
0.1935206932 0.0212641250 -0.1779383750 0.0048710909 -0.0073208977 0.0004436705
0.3985986250 0.5000000000 -0.2276056023 0.0000000000 0.0113636364 -0.0056818182
-0.4431818182 0.7978461818 -0.1518922273 -0.0110902500 -0.0021694886 -0.0065669886
0.2151601705 0.5117882386 0.5174700568 -0.0008972614 -0.0093956023 0.0005715795
-0.0120765341 0.3617162955 -0.2547217727 -0.0001955114 0.0052088864 0.0043868409
0.1958551818 0.2727272727 -0.2050572955 0.0031178864 -0.0103788864 -0.0090222045
-0.0918322614 0.2840909318 0.0298095000 0.0000000000 0.0113636364 -0.0056818182
-0.3449743636 0.5308577841 -0.1814842841 -0.0100049432 -0.0047498409 -0.0079551477
0.4763300227 0.3779999091 0.1821361932 0.0054227727 -0.0096688864 -0.0033693409
0.4368447841 0.5000000455 0.4195203750 0.0000000000 0.0110241250 -0.0077739773
-0.5000000000 1.0006817955 0.0480702841 -0.0101953636 -0.0047568182 -0.0050701136
0.3651968295 0.5582903068 0.5284090909 0.0000000000 0.0069943523 -0.0141482955
0.4796263068 0.4318181818 0.0286563977 0.0010525455 0.0111151591 -0.0056818182
-0.0568181818 0.3226940455 0.0711581364 -0.0100128182 0.0031614318 -0.0061527841
0.3469992500 0.3846057955 -0.0286721932 0.0038564886 -0.0106526818 -0.0056818182
0.2021067614 0.0357436818 0.1808889318 0.0027398750 0.0104191250 -0.0064153636
-0.4772727273 0.8361334318 -0.0055538977 -0.0113636364 0.0000000000 -0.0056818182
-0.1235123523 0.4323280909 0.3471008182 -0.0005931932 -0.0060521591 0.0038029091
0.4795154205 0.4587004432 -0.1730826932 0.0085453523 0.0065251250 -0.0056818182
-0.2208207500 0.3018262841 0.1469571136 -0.0097754091 -0.0054853523 -0.0054402727
-0.4659090909 0.8164036477 0.0875286705 -0.0113636364 0.0000000000 -0.0056818182
0.4487450341 0.4695410682 -0.3388592500 -0.0003746477 0.0108618409 -0.0024797159
0.2722635682 0.3634045114 -0.0222818864 -0.0027857955 0.0110142727 -0.0056961364
-0.4431818182 1.0760605568 0.0487762386 0.0082286818 0.0066410909 -0.0087709318
-0.0139514318 0.1818181818 -0.0632685909 0.0000000000 -0.0113636364 -0.0056818182
0.0447290909 0.2666098409 0.2267642045 0.0010967386 -0.0088806250 0.0012833864
0.2354061591 0.0340909091 -0.2476618523 0.0013843182 0.0112436136 -0.0062093182
-0.2019080909 0.2587772500 0.1026798068 -0.0091990000 -0.0065742614 -0.0048785000
0.3108797727 0.4906671705 -0.2944266591 -0.0023421705 0.0110746705 -0.0048288295
-0.1818181818 0.4440715114 -0.1433640000 -0.0113636364 0.0000000000 -0.0056818182
-0.4659090909 0.9250966023 -0.1730072955 -0.0111756364 -0.0002211023 -0.0068924205
0.2884950455 0.4977457727 0.3874386023 0.0014072500 0.0078493750 -0.0137561136
-0.2282209205 0.5132599773 0.1458423182 0.0101016136 0.0045375000 -0.0062628636
0.1491693182 0.4272941250 0.4216123068 -0.0008109205 -0.0073305455 0.0029131705
-0.2566056705 0.0080607955 -0.2476104205 0.0022742500 -0.0109833636 -0.0039865682
0.0907166818 0.3294492386 -0.1310704205 0.0026761023 -0.0106979432 -0.0081894318
-0.3487305000 0.9467240227 -0.0007028182 -0.0080353068 0.0080353068 -0.0056818182
-0.1652053409 0.3645015682 0.0295580795 0.0101761023 0.0048576477 -0.0060815341
0.4021889091 0.4067902614 -0.0862873977 0.0027283750 -0.0108879773 -0.0070797955
-0.4431818182 0.7433429205 -0.0004113068 -0.0110243523 -0.0027560909 -0.0056818182
-0.3977272727 0.8981026705 -0.1749493409 0.0083018636 0.0003711364 0.0015735000
-0.2967966250 0.5273990682 -0.2931024545 -0.0100482500 -0.0037299205 -0.0094117386
0.0229036591 0.3963078977 0.2230984773 -0.0036943068 0.0097926364 -0.0015482955
-0.1491854318 0.2349230114 -0.1430660682 -0.0059675909 -0.0092514545 -0.0082901136
-0.3823953977 0.9431818182 -0.1173021250 0.0003848636 0.0112353523 -0.0055535341
-0.0393572386 0.5007197614 -0.3075935455 0.0035407386 0.0047712614 0.0039637614
-0.2124066591 0.5909090909 -0.3649612386 0.0000000000 0.0084011591 -0.0112923750
-0.0454545455 0.4036473409 0.0463792273 0.0113636364 0.0000000000 -0.0056818182
0.3233552386 0.5448096932 0.5625000000 0.0018672159 0.0067331705 0.0028259545
-0.3676117500 0.9431818182 0.1352670682 -0.0004312386 0.0111850114 -0.0056818182
0.4838558068 0.3977272727 -0.2419206250 0.0046634659 -0.0100669886 -0.0072350682
-0.0742324318 0.4703244318 -0.2443181818 0.0000000000 0.0000000000 -0.0170454545
-0.4204545455 1.0201672614 0.1860040114 0.0112057045 0.0006690227 -0.0056818182
-0.0075448750 0.1292734659 0.0170454545 0.0000000000 0.0000000000 0.0056818182
-0.1051853182 0.5000000000 -0.2290394545 0.0000000000 0.0113636364 -0.0056818182
-0.3328127841 0.9528912614 -0.0251828068 0.0080684091 -0.0076139659 -0.0034083750
-0.3362873636 0.7453782386 -0.3076928750 0.0058999659 0.0048750909 -0.0139378523
-0.3638104091 0.5458026364 0.0509000341 -0.0101639432 -0.0050819773 -0.0056818182
0.2995114773 0.3112179205 0.1808788750 0.0039335000 -0.0102506023 -0.0028081818
0.4917668409 0.4204545455 -0.1982962841 0.0074885682 0.0075301932 -0.0074332045
0.1635713068 0.0452648182 0.1428043864 0.0000000000 0.0110292273 -0.0029545682
-0.1280956818 0.2074242727 0.0509195114 -0.0050272500 -0.0100544886 -0.0048273295
0.3861917159 0.5377485568 0.4866121932 0.0021281818 0.0103654318 -0.0094457500
-0.1799920568 0.3991051136 0.1698028409 0.0095822614 0.0052060568 -0.0086604205
0.3695697841 0.4545454545 0.3289476932 -0.0022419545 0.0099202386 -0.0105888068
0.4204545455 0.4841015568 -0.4842974091 0.0106753523 0.0017783750 -0.0073465455
0.2357633295 0.3588908409 0.0736001136 0.0032888409 -0.0108083864 -0.0046508977
-0.3757649773 0.5697117727 0.0762963523 -0.0101799205 -0.0050052386 -0.0055158068
0.0112884659 0.5498847045 -0.3579545455 0.0028959318 0.0079618523 0.0017330000
0.0472546932 0.4032498750 -0.3862044545 -0.0012468750 -0.0077967045 -0.0138511591
