-0.0342367867 0.5319435067 0.3256938667 -0.0105778133 0.0121268400 0.0027958400
0.4866666667 0.5819026667 0.3261854000 0.0059877600 -0.0024510667 0.0066666667
0.3182712533 0.7598316400 -0.4015604133 -0.0011760133 -0.0050281600 -0.0042941200
0.2722443600 0.9262352533 -0.3400000000 -0.0062975467 0.0001115733 0.0199553200
-0.4163724533 0.5046418267 0.4353581733 -0.0146380000 0.0047221467 0.0161867733
-0.3063583333 0.3796916667 0.2833654000 -0.0116663600 -0.0122702800 0.0079633467
-0.2204098000 0.3461301467 0.3330650533 -0.0066666667 0.0032046933 0.0002572800
-0.3662066400 0.7038013200 -0.3537933867 -0.0155967467 -0.0020008400 -0.0029502533
-0.0796646800 0.4799999467 -0.2326050800 -0.0066666667 0.0097406667 0.0154171333
0.0916617600 0.3554915333 -0.2409929467 -0.0036030267 -0.0121981733 0.0026189867
-0.3133333333 0.8288056933 -0.3136133600 -0.0125935200 0.0016795333 0.0175997733
0.4616062400 0.5679449467 0.0632125067 0.0056251733 -0.0046970533 0.0046128933
-0.3695689867 0.7600000000 -0.3330026800 -0.0120955200 0.0092742000 0.0089435467
0.2508299733 0.5066666667 -0.1793369600 -0.0126242800 0.0117380267 0.0086265867
0.2435598267 0.5915143333 -0.2425005333 -0.0115936800 0.0031115200 0.0179853067
-0.1711251067 0.8312949600 -0.4489808133 -0.0082601200 -0.0039804667 -0.0059329600
0.4157935867 0.6226998933 0.3439668000 -0.0099301733 0.0095742000 0.0153295333
-0.1841785200 0.5554958133 -0.3799999733 -0.0099051200 -0.0043179467 -0.0054216133
0.3244170133 1.0000490267 -0.4466666667 -0.0066666667 -0.0010060800 -0.0064291600
0.4733333333 0.5726915467 0.2195855733 0.0057130400 -0.0047458133 0.0052733600
-0.1341192000 0.4000000000 0.5134123733 -0.0096448267 -0.0105128800 0.0142131733
-0.1664263067 0.4844680267 0.0025097200 -0.0030553200 0.0126887867 0.0084232533
-0.3516519867 0.0000000000 0.3436570933 -0.0066666667 -0.0133333333 0.0066666667
-0.1343166133 1.0421083600 -0.5154416933 -0.0071170933 -0.0042701067 -0.0059354000
0.0059320533 0.8135297600 -0.3801964000 -0.0083317600 0.0110249333 0.0138900667
0.2974065600 0.5200000000 0.4210474400 -0.0052867467 0.0127862267 0.0098885867
0.2534943333 0.4000000000 0.4637657200 -0.0037936533 -0.0107014133 0.0132406533
0.2794056667 0.1615283200 0.3661285867 0.0057600667 0.0048326133 0.0066666667
0.3264171067 0.6692658533 -0.3667914533 0.0004775333 -0.0007676533 -0.0044503600
0.1145278667 0.4933333333 -0.1033006133 -0.0077346400 0.0130072133 0.0063106800
0.2775858533 0.8667543600 -0.4466666667 -0.0035956133 -0.0034128400 -0.0057329467
-0.0454805333 1.1491131600 -0.4624464400 -0.0030280000 0.0100355733 0.0128211733
0.3835310933 0.4301977600 0.0371651067 0.0025388400 -0.0095250533 0.0053458933
0.1968940533 0.9631651867 -0.3533333333 -0.0070623200 0.0005934800 0.0198021733
-0.4682683867 0.6838353467 0.2084939600 -0.0108315733 0.0123951467 0.0088964000
0.3303446133 0.5501093067 0.3370281467 -0.0155263733 0.0097468267 0.0084950133
-0.0270819733 0.3407527733 -0.1755916000 -0.0066666667 -0.0130744133 0.0040517867
-0.0895717600 0.7797249333 -0.4466666667 -0.0074175333 -0.0019453067 -0.0063836133
-0.2429429333 0.3866666400 -0.2238693733 -0.0125318800 -0.0106377467 0.0084729467
0.2980640133 0.5030508400 0.4655518133 -0.0036948000 0.0096836133 0.0151771600
0.4305774933 0.6477014133 -0.2255116800 0.0053304933 -0.0002113600 0.0008794533
-0.0124998133 1.1600000000 -0.4722379067 -0.0027612000 0.0118395067 0.0089181067
-0.0113213867 0.9909927333 -0.5131690000 -0.0094502400 -0.0035370933 -0.0058239733
-0.0927002400 0.3905527733 0.4866666667 -0.0066666667 -0.0066802000 -0.0038996400
-0.3234587600 0.3967920933 -0.1491880667 -0.0149654400 -0.0100057600 0.0045210000
0.2322089600 0.5188756800 0.0038271600 -0.0132484667 0.0112051733 0.0087050000
0.1243442267 0.4933333333 -0.1199574667 -0.0102631467 0.0123965600 0.0050647067
0.2670565600 0.1683334400 -0.2135184533 -0.0066666667 0.0081858800 -0.0038580267
-0.2784361733 0.3979224133 -0.2179224400 -0.0112188267 -0.0114621867 0.0020491067
-0.2769343067 0.1449084400 0.3733740267 -0.0066666667 -0.0054151733 -0.0055174933
-0.3670089200 0.6550328533 -0.0076816533 0.0046777467 0.0065597600 0.0083070800
-0.1984428400 0.3466666667 0.1228089200 -0.0066666667 -0.0133333333 0.0066666667
0.1366576533 0.6018863467 -0.3950045333 -0.0041102533 -0.0030744800 -0.0060317467
0.3476996933 0.4223486800 -0.1292980133 0.0018003200 -0.0100610933 0.0045499200
0.0559339467 0.4640971867 0.5266666667 -0.0050663333 0.0045956933 0.0186074933
-0.0524537200 0.3333333333 0.0752086267 -0.0066666667 -0.0133333333 0.0066666667
-0.3143938000 0.6159427333 -0.1935776000 0.0034728800 0.0041834133 0.0142459200
0.3198697867 0.5267968800 0.3887610400 0.0003171333 0.0101695867 0.0101682533
-0.3925388133 0.6933332800 -0.1950388667 -0.0072993467 0.0129330133 0.0071515600
0.0781885333 0.4933333333 -0.1209188267 -0.0043115467 0.0120108133 0.0090217867
-0.1767418000 0.6264094533 -0.2630010000 -0.0027634133 0.0070380400 0.0172706800
-0.3119361333 0.5131244400 0.4668755600 -0.0066666667 0.0096656800 0.0150924800
0.2537860933 0.5200000000 -0.0011124933 -0.0075766933 0.0132393467 0.0071216800
0.4600000000 0.5485488400 0.0293704800 0.0055412667 -0.0046104800 0.0041723333
-0.1312300533 0.4333485867 -0.3354366267 -0.0102065733 -0.0049454800 -0.0051494533
-0.1281852267 0.5200000000 0.4147049467 -0.0066666667 0.0133333333 0.0066666667
-0.0355577733 0.6779683467 -0.2984527600 -0.0021161067 0.0019805867 0.0190017467
-0.3245155600 0.3738806133 0.0680951067 -0.0124064133 -0.0119826400 0.0076217067
0.0558887333 0.3333333333 0.0374083200 -0.0066666667 -0.0133333333 0.0066666667
-0.2124730267 0.5200000000 0.4175718400 -0.0066666667 0.0133333333 0.0066666667
-0.1481370000 0.9726898133 -0.4930115200 -0.0071188800 -0.0040022933 -0.0059610133
0.1767605600 0.7088823467 -0.2866666667 -0.0084988533 0.0011756933 0.0197781067
0.3153846800 0.4153846933 -0.2125298800 -0.0011861067 -0.0109019200 0.0020187600
0.1275064800 0.9368943333 -0.4866666667 -0.0052479600 -0.0032601333 -0.0061696400
-0.1641814933 0.3466666667 0.0681378133 -0.0073490000 -0.0132363067 0.0067519600
0.2421844533 0.6362171467 -0.2333333333 -0.0047741200 0.0016999733 0.0191442133
-0.0430417467 0.8810956800 -0.4738811733 -0.0067532267 -0.0034269200 -0.0062108000
0.1563137067 0.5532495600 -0.2200000000 -0.0048894400 -0.0019387867 0.0190999733
0.2476713600 0.6930647733 -0.2730647733 -0.0107062667 0.0075891467 0.0166762533
0.0338040800 0.3744268800 0.4808581600 -0.0050898000 -0.0072080667 0.0166833600
-0.2812733200 0.5066666667 -0.0978010000 -0.0016325733 0.0122535067 0.0059057067
-0.0684169200 0.8930417867 -0.4790520267 -0.0088031067 -0.0038051200 -0.0059218667
0.3293202267 0.0000000000 -0.1021189467 -0.0066666667 -0.0133333333 0.0066666667
0.2817788667 0.1554257467 -0.2179634800 0.0057600667 0.0048326133 0.0066666667
0.3000000000 0.6315917467 -0.2384635467 0.0050526400 -0.0025922133 0.0096394267
0.1058222000 0.3466666667 -0.1930350800 -0.0057373467 -0.0130663200 0.0051040400
-0.3133333333 0.9788121600 -0.4579077200 -0.0193578800 -0.0004143333 0.0052164933
0.2236178400 0.3620343067 0.2952493733 -0.0006435600 -0.0114117333 0.0093810667
0.4733333333 0.5583160400 0.2893465733 0.0060018267 -0.0040801600 0.0071344133
0.0859100533 0.6160304800 -0.4066666667 -0.0063419600 -0.0016235333 -0.0064366800
0.2866666400 0.5601378400 -0.1231862800 -0.0197087600 0.0006102667 0.0078872000
0.0136010267 0.3333333333 0.0506632667 -0.0066666667 -0.0133333333 0.0066666667
0.1734949467 1.1320884133 -0.5266666667 -0.0060126267 0.0006540400 -0.0064595733
0.2157704133 0.4933333333 -0.0847906267 -0.0068700267 0.0132554400 0.0058532133
0.2582673333 0.7238528000 -0.4085930667 -0.0036526667 -0.0039677867 -0.0056946533
0.3444187867 0.6577521733 -0.1161986667 -0.0169776000 0.0079796667 0.0088780933
0.2668637067 1.1194750933 -0.4328084267 -0.0074059067 0.0070534267 0.0168936400
-0.2620344267 0.7205069467 -0.2863264933 -0.0023661067 0.0066307867 0.0173906800
-0.0153839733 0.7241253600 -0.3147084533 -0.0066666667 0.0042163733 0.0193157733
-0.2659279867 0.3792613200 0.3635603867 -0.0122977067 -0.0116988267 0.0082955333
0.2861977600 0.3733333333 0.2066681733 -0.0039547467 -0.0129414000 0.0071948800
-0.0417081067 1.1200069200 -0.4333403067 -0.0059855600 0.0086444933 0.0166764933
0.1776134000 1.0332755600 -0.5127078267 -0.0068739200 -0.0042161467 -0.0059099200
-0.0756949200 1.0247216800 -0.3800000000 -0.0053438133 0.0051309600 0.0187405200
0.0715650000 1.0936408533 -0.4201537600 -0.0066815333 0.0060363600 0.0185527733
-0.3850010133 0.5628088933 -0.2764034267 -0.0175986933 -0.0043929733 0.0004789733
0.4866667200 0.6477713467 0.1130896933 0.0065819333 0.0000000000 0.0058109600
-0.0027181467 0.5665846267 -0.3966256400 -0.0066666667 -0.0043003733 -0.0059531733
0.0127985733 0.3405055200 0.2148498933 -0.0066666667 -0.0131463067 0.0088912533
-0.0642483067 0.3557708000 0.3406457733 -0.0066666667 -0.0131519200 0.0088586533
-0.4872941067 0.6240788800 0.1490182400 -0.0184136133 -0.0057333067 0.0043758400
0.1732477733 0.6559050533 -0.4066666667 -0.0049912000 -0.0033509333 -0.0061096400
0.3522471600 0.5322471600 -0.2992468800 0.0000772667 -0.0065346667 -0.0025951867
-0.3326497867 0.7008421333 -0.2378505467 -0.0017409067 0.0102035333 0.0134814533
0.4333333333 0.5751076267 -0.1548682533 0.0056406533 -0.0041172533 0.0037575333
0.4467693600 0.6790349333 -0.1264613067 0.0054284933 0.0034127867 0.0027856667
0.2530903067 0.3600000000 0.0472536133 -0.0066666667 -0.0133333333 0.0066666667
0.2524511200 0.5161930400 -0.1991177867 -0.0010127200 0.0013334000 0.0181760000
0.4733333333 0.5822219333 0.1180903067 0.0057982133 -0.0046842400 0.0062392267
-0.4731588800 0.5427388000 0.3365954533 -0.0182626267 -0.0060773733 0.0087709200
-0.2846538267 0.5211338800 -0.1964800667 -0.0110925867 -0.0100078933 0.0000156667
-0.0606392933 0.3333333333 -0.1388519600 -0.0072448533 -0.0131870400 0.0049985867
-0.0791840667 0.7184674533 -0.2994891333 -0.0085105067 0.0048559333 0.0189107867
-0.4165153467 0.6462423733 -0.2669692800 -0.0179006800 0.0000000000 -0.0005130267
-0.4510156267 0.4843489600 0.2302270000 -0.0179819733 -0.0066708400 0.0054001733
0.3135202267 0.5335202533 0.0585566667 -0.0133945200 0.0112775333 0.0061278133
-0.0326942267 0.8515499867 -0.3684500133 -0.0065272000 -0.0064194400 0.0182445333
-0.3257193733 0.9064788800 -0.4332394400 -0.0124784267 -0.0029142800 -0.0049736400
-0.0110516933 0.3652758533 -0.2919425200 -0.0070090800 -0.0113490667 0.0003965867
0.4008666267 0.4341999333 0.2957888800 0.0021072400 -0.0099411867 0.0069284000
0.1209370267 0.5980901067 -0.2515436800 -0.0102634933 0.0097585733 0.0146561867
0.1096976533 0.5333333333 0.3852298267 -0.0046325333 0.0129533600 0.0048003467
-0.1127845200 0.4800000000 -0.0797924933 -0.0046584000 0.0129288800 0.0056316267
-0.2078194400 0.3905907733 -0.2639240533 -0.0103305467 -0.0096577200 -0.0016271600
-0.0425329333 0.3866666667 0.5124993867 -0.0066666667 -0.0133333333 0.0066666667
-0.0700670800 1.1333333333 -0.5370305867 -0.0066666667 -0.0133333333 0.0066666667
0.4783888800 0.6070510800 0.0756246000 0.0052183067 -0.0056085333 0.0046702800
0.2129954533 0.5455843067 -0.3655843067 -0.0035646000 -0.0041819067 -0.0056041467
0.1119567467 0.4216401200 -0.3349734533 -0.0052222000 -0.0079235333 -0.0038376133
-0.1861811200 0.5066666667 0.2341838800 -0.0044683733 0.0128390000 0.0062270133
-0.0748892533 0.7948048933 -0.4491798400 -0.0082412800 -0.0027650667 -0.0061877867
-0.1013855867 0.3681504533 -0.2681504533 -0.0074359600 -0.0118404933 0.0007966133
-0.1894288667 0.9991311600 -0.4928989200 -0.0083224133 -0.0039105333 -0.0058131200
-0.1427576267 0.5538973467 -0.3836153600 -0.0095079600 -0.0036928933 -0.0058065600
-0.3643238267 0.8254191067 -0.3497429200 -0.0159245467 0.0039853067 0.0152809200
-0.2432879067 0.5136874933 0.0292462800 0.0008027200 0.0104250533 0.0098168933
-0.0750658533 0.4718465200 -0.0311271467 -0.0083320667 0.0128022533 0.0033358800
-0.3266666667 0.9945961467 -0.4520954933 -0.0185262267 -0.0009006400 0.0024375333
0.1658260000 0.4894518000 -0.0100366800 -0.0095437467 0.0127124267 0.0048678933
0.4145398933 0.4478732267 0.2904886400 0.0028182933 -0.0093424800 0.0070941200
0.1360196400 0.5180320267 0.1992594933 -0.0042629067 0.0124416133 0.0108138667
0.4425727333 0.5093375200 0.4080897733 0.0042776267 0.0022639333 0.0135785600
-0.0038694267 0.5333333333 0.3593182933 -0.0049022800 0.0129980933 0.0062517067
0.2315095200 0.8730367067 -0.4507636533 -0.0044213733 -0.0037386267 -0.0059237867
0.2797094000 0.6390114400 -0.3768119600 -0.0028825867 -0.0007263200 -0.0060060533
0.0205106000 1.1733334400 -0.5126595067 -0.0063778267 0.0118752533 0.0012019867
0.2907752267 0.5845367467 -0.3533333333 -0.0032626533 -0.0060429067 -0.0045739467
0.4570736133 0.6881298800 0.1762622933 -0.0029070400 0.0127425733 0.0067482400
-0.2545285067 1.0778034400 -0.4022835733 -0.0087394533 0.0072857733 0.0174933467
-0.2081618000 0.5200000000 0.3600242667 -0.0066666667 0.0133333333 0.0066666667
0.3033257600 0.6506903067 -0.1933333333 -0.0144308000 0.0063895067 0.0152531200
-0.1436610267 0.5418305467 -0.2295358000 -0.0044516400 0.0064210533 0.0178737333
0.1220755867 0.4933333333 0.0667180133 -0.0086464000 0.0130456133 0.0061853867
0.1126047333 0.4933333333 0.0032437200 -0.0070071867 0.0132432133 0.0065815333
-0.1116556267 0.4400357067 -0.3533333333 -0.0118516667 -0.0054905067 -0.0042737733
-0.1085921867 0.3466666667 0.2541914400 -0.0066666667 -0.0133333333 0.0066666667
0.3047970800 0.9738465333 -0.3581304133 -0.0000138533 0.0000000000 0.0180956400
0.3910163600 0.4243496667 0.3512164267 0.0017524933 -0.0100642400 0.0079450400
0.2766095733 0.3653032133 0.1509953200 -0.0026059200 -0.0125794000 0.0082537333
-0.2101141067 0.5422713200 -0.2333333333 -0.0041096133 0.0002799867 0.0192539733
0.1612607600 0.9120433600 -0.4733333333 -0.0048901733 -0.0043542533 -0.0057679200
0.2259196933 0.2410621333 0.3306390667 -0.0165574000 -0.0052848133 0.0035921200
-0.1165743467 0.9569871067 -0.3560456400 -0.0079770800 0.0018139467 0.0188637733
-0.3058621200 1.0858270267 -0.4183557600 -0.0155918133 0.0071185467 0.0130657733
0.2718949600 0.6652283200 -0.2406584400 0.0008233200 -0.0028612667 0.0152272000
-0.3980657467 0.7019343067 -0.1551943733 -0.0119563067 0.0117419333 0.0093039067
-0.4213477067 0.4546810400 0.2827371733 -0.0160947600 -0.0094280933 0.0066666667
0.2464548533 0.7671756533 -0.4235878000 -0.0062243333 -0.0039434000 -0.0060343067
0.1110628267 1.1018249467 -0.5400000000 -0.0061286933 -0.0021519067 -0.0061286933
0.2041502400 0.5200000000 0.2720109333 -0.0066666667 0.0133333333 0.0066666667
-0.0074663200 0.3466666667 -0.2029697867 -0.0066666667 -0.0131679733 0.0049967200
0.0864683333 0.3466666400 0.3000054933 -0.0066666667 -0.0131934933 0.0082373333
0.1890351867 0.4933333333 0.0135951867 -0.0096106533 0.0128934000 0.0070208533
0.2912697600 0.4219182800 0.4952516133 -0.0039236800 -0.0087471467 0.0159826267
0.3139163200 0.3823695067 0.2447765333 -0.0005827867 -0.0117782933 0.0079195467
0.0414231333 0.3466666667 0.2982265200 -0.0066666667 -0.0132204400 0.0080308000
-0.3191101600 1.0313604800 -0.4646937600 -0.0081183600 -0.0056296667 -0.0045521600
-0.0654076533 1.1402852400 -0.4461797600 -0.0118896933 0.0062944133 0.0171693333
0.3283357467 0.3792304267 0.0776912933 -0.0011675200 -0.0120694400 0.0073520000
0.2901512667 0.4409484800 0.5000000000 -0.0066666667 0.0000000000 0.0200000000
-0.0802506933 0.7204250533 -0.4333333333 -0.0068134800 -0.0008075467 -0.0065715733
-0.2387543200 0.3600000000 0.0922675200 -0.0066666667 -0.0133333333 0.0066666667
-0.2226266533 0.4171854133 0.5133333333 -0.0074497867 -0.0046317067 0.0186074800
-0.2157610667 0.4104903200 0.4670819600 -0.0024542267 -0.0078886400 -0.0029525067
-0.0737507733 1.1595825200 -0.4682985467 -0.0106786933 0.0110382133 0.0109738667
0.1695292933 1.1600000000 -0.4915652933 -0.0066666667 0.0133333333 0.0066666667
-0.3297424800 0.5794849600 0.0356360133 0.0057924267 0.0043381600 0.0074307467
0.2527104133 0.6803198800 -0.3934932933 -0.0035635867 -0.0036551067 -0.0057456667
0.1315763600 0.4103538000 0.5236871333 -0.0054389467 -0.0072190800 0.0176045467
-0.3838018800 0.4171351867 0.3395027733 -0.0132896933 -0.0112135333 0.0083061333
0.3656289467 0.4000000000 0.2456994933 -0.0007847067 -0.0118185067 0.0084424533
-0.3182774133 0.5466666667 0.0720310400 -0.0026806933 0.0109926800 0.0066666667
-0.3235798400 0.6396287067 -0.3548767600 -0.0107354267 -0.0051215733 -0.0048392133
0.1092686000 0.3481124667 -0.2333333067 -0.0066666667 0.0000000000 0.0200000000
0.3103264133 0.4666024800 0.5000000000 -0.0066515333 -0.0000151333 0.0199963333
-0.1473806533 0.5333780933 -0.3800000000 -0.0099600133 -0.0048754267 -0.0052713200
-0.2900512133 0.5667691067 -0.1852938400 0.0030348800 0.0060196533 0.0134478800
-0.2308806133 1.0176066133 -0.5000000000 -0.0073601733 -0.0042278267 -0.0058608533
0.0879614533 0.5333333333 0.3873648133 -0.0056854533 0.0132521200 0.0066666667
-0.4255504400 0.6877828933 -0.1968794400 -0.0157646800 0.0089319733 0.0084639733
0.2674933333 0.5200000000 0.1828598800 -0.0079044133 0.0131290533 0.0053051600
-0.1080940667 0.5066666667 0.2724699867 -0.0066666667 0.0133333333 0.0066666667
0.1307588133 0.8862235467 -0.4733333333 -0.0052240933 -0.0035048800 -0.0060969600
0.3258141867 0.3913210800 0.3219086933 -0.0023739467 -0.0125040533 0.0081677733
-0.0860325733 0.3600000000 -0.2240008533 -0.0066666667 -0.0108455200 0.0103090267
-0.3811839600 0.6699825600 0.1233507600 0.0041602933 0.0055613333 0.0102037600
-0.3333340133 0.7600000000 -0.2962389067 -0.0090196800 0.0099479733 0.0142616267
0.1202444400 0.5921804800 -0.3953916133 -0.0050502933 -0.0041957200 -0.0058283467
-0.1194404933 0.4155535333 -0.3288868667 -0.0075216267 -0.0089651067 -0.0031533867
0.4178073067 0.4528491733 0.2216297600 0.0041583467 -0.0077221067 0.0057598933
0.0724584800 0.3466666667 -0.2363287867 -0.0026013200 -0.0121225467 0.0035496800
-0.2400106800 0.2489291867 -0.1508328533 -0.0066666667 0.0081858800 -0.0038580267
-0.0918153867 0.7923037733 -0.3253660267 0.0002744933 0.0021490533 0.0177208667
0.0176054933 0.4964620933 -0.3748977200 -0.0066666667 -0.0042163733 -0.0059824400
0.1246054133 0.3333333333 0.0307272000 -0.0021757600 -0.0123903333 0.0062175733
-0.0155043067 0.3333333067 0.0638379733 -0.0066666667 -0.0133333333 0.0066666667
0.3522348800 0.8223619600 -0.3389015200 0.0026030133 0.0045955067 0.0149744800
0.3847768667 0.6815144400 0.0786273867 -0.0163675867 0.0086659867 0.0043171600
-0.4336082400 0.6960022533 -0.1103894533 -0.0108966267 0.0120128667 0.0027609600
0.2200000000 0.3470243067 0.0799993067 0.0065612933 0.0002522533 0.0066414400
0.2452866933 0.4933333333 -0.0747846667 -0.0107604800 0.0125208133 0.0049559600
0.2725315333 0.5200000000 0.4507137600 -0.0066666667 0.0125239200 0.0090949200
0.2545985733 0.5039659600 -0.1453932133 -0.0108013333 0.0125468267 0.0073549600
-0.2343604533 0.8984074933 -0.4625370800 -0.0079184133 -0.0056551467 -0.0052069867
-0.0679184267 0.3466666667 0.2415076667 -0.0069687467 -0.0132107200 0.0081625867
0.0520291867 0.7101488800 -0.4333333333 -0.0052349600 -0.0019778667 -0.0063483067
0.4110560667 0.6585299200 -0.2778878267 0.0048850533 0.0000000000 0.0001642533
0.3298581200 0.0133333333 0.1278164267 -0.0066666667 0.0133333333 0.0066666667
0.3975898267 0.4702043600 0.4157435600 -0.0114910133 -0.0042138400 -0.0046089733
0.2672172000 0.1750431200 -0.1955361733 0.0024615867 -0.0033269200 0.0157949200
-0.3882733600 0.4349400267 -0.0413129867 -0.0150058400 -0.0101876400 0.0050122400
0.0213895333 0.3600000000 -0.2401129200 -0.0066666667 0.0133333333 0.0066666667
0.1588500133 0.8501500000 -0.4584083600 -0.0050210400 -0.0033250133 -0.0061323200
-0.1085358267 0.4994178267 0.5011644000 -0.0078555067 0.0113620933 0.0133009733
-0.4775325067 0.6666666667 0.0453293333 -0.0066666667 0.0133333333 0.0066666667
0.3297544667 0.4738688133 -0.2641143733 0.0027229867 -0.0073956400 0.0007891600
-0.1730716933 0.9420514933 -0.3655156933 -0.0028186933 0.0067666000 0.0174671467
0.3606365467 0.5241998800 -0.2744299333 0.0019025733 -0.0073502400 -0.0001306800
-0.4526252267 0.5985648133 -0.1206890000 -0.0193220000 -0.0027787200 0.0040333733
0.1588349733 0.5200000000 0.3494008400 -0.0063106400 0.0133171867 0.0066666667
-0.3286478133 0.5886478133 -0.0721683333 0.0057875733 0.0046388933 0.0076855467
0.3381021333 0.5367189067 -0.3167189067 0.0017921067 -0.0051850133 -0.0019244133
0.4333333333 0.5116532400 -0.0604889200 0.0055626267 -0.0050769867 0.0053024933
-0.1088096667 0.4933333333 0.0769882267 -0.0083873733 0.0130504267 0.0049459600
-0.0814020800 0.5404008533 -0.2333333333 -0.0066666667 0.0032935067 0.0192625200
-0.0033029733 0.9762768533 -0.3766363067 -0.0153532267 0.0004620400 0.0162773067
0.4879513067 0.6384512800 0.1425692800 0.0061486133 -0.0005954933 0.0035107333
-0.2801418000 0.9123477200 -0.4600000000 -0.0108818933 -0.0033250133 -0.0054913333
-0.2418478933 0.5066666667 -0.0360490133 -0.0046437600 0.0120247467 0.0014063600
0.1950867733 1.0617063333 -0.5217063333 -0.0061724000 -0.0044240000 -0.0058906267
-0.3356946267 0.6003305067 -0.0869104000 0.0059552400 0.0042258400 0.0071951333
-0.2733333333 0.4954722133 0.4920617733 -0.0139078667 0.0046634933 0.0121788533
0.2078776533 0.3600000000 0.2227154000 -0.0066666667 -0.0133333333 0.0066666667
-0.2222981200 0.3154776533 -0.1335610533 0.0053343333 0.0007660400 0.0016449467
-0.1276294933 0.5601412000 -0.2466666667 -0.0046313333 0.0083083600 0.0167495467
0.3195213333 0.9940573067 -0.3861879733 0.0037702667 0.0032040533 0.0136246133
0.1260289067 0.8414527333 -0.3603189067 -0.0110027733 0.0065125600 0.0153388800
-0.3356435200 0.8380733733 -0.3356435200 -0.0080887200 0.0093706667 0.0141960933
-0.0278735333 0.7950727333 -0.3442030533 -0.0054752400 0.0072155333 0.0174506667
0.2194248000 0.3846293600 0.4298339333 -0.0027424533 -0.0121306667 0.0105313200
0.4254474933 0.4987807733 -0.0169675600 0.0050116800 -0.0059474400 0.0051610267
0.3615071600 0.7589453067 -0.3718262000 0.0051296267 0.0020793733 0.0012844800
0.0868825333 0.6838545733 -0.4219272933 -0.0063828133 -0.0041258267 -0.0059862933
-0.2929047867 0.5415329467 -0.3384138933 -0.0119246133 -0.0054120133 -0.0043114133
0.0248380000 1.1065210000 -0.5400000000 -0.0066666667 0.0000000000 -0.0066666667
0.0894714000 0.5333333333 0.3679244000 -0.0066666667 0.0133333333 0.0066666667
-0.1474549867 0.8707144133 -0.3433087200 -0.0041194533 0.0007424533 0.0196485733
0.1644779733 0.5066666667 0.2258708933 -0.0066666667 0.0132869600 0.0061982933
0.3229624933 0.3959387733 0.3707671600 -0.0018770933 -0.0121043733 0.0090661867
0.3290874800 0.9762965867 -0.4348149067 -0.0066666667 0.0035370533 0.0194897200
-0.2652011600 0.3733333333 0.3204774000 -0.0066666667 0.0133333333 0.0066666667
-0.4349196400 0.6445672667 -0.2168274400 -0.0196018933 0.0000000000 0.0034328533
-0.2952210000 0.5285543333 0.1721905867 -0.0009717733 0.0120067600 0.0070875867
0.3930214133 0.5351717067 -0.2261390667 0.0028216933 -0.0072464400 0.0009085733
-0.3866999867 0.6000818400 0.3199438533 0.0041482533 0.0064093200 0.0110765733
-0.0295028133 0.8433323200 -0.4683328267 -0.0066666667 -0.0036023067 -0.0061612533
-0.3237446533 0.0475136667 -0.2966286000 -0.0190934000 0.0048326133 0.0066666667
-0.3266666667 0.5761288400 -0.0495455333 0.0056752800 0.0047784933 0.0069996667
-0.1099517333 0.6472352133 -0.2866666667 -0.0059260933 0.0028510400 0.0196596267
0.3454790800 0.5066113733 0.4600552933 -0.0058297600 0.0068992533 0.0179153733
-0.2387055733 0.3600000000 0.1926654667 -0.0066666667 -0.0133333333 0.0066666667
0.3399999733 0.5524573733 0.3835020400 -0.0175435200 0.0070483733 0.0079770133
0.3513066667 0.0000000000 0.3565842667 -0.0066666667 -0.0020266533 0.0066666667
0.1484749867 0.3466666667 -0.0268654667 -0.0037903067 -0.0128665600 0.0066666667
0.4268958533 0.6864374800 -0.1868624800 0.0015635733 0.0104682800 0.0063210800
0.1897363333 0.6287130800 -0.2455079600 -0.0118580133 0.0097752133 0.0137798667
0.1830737467 0.3466666667 -0.1119190667 -0.0056234267 -0.0132569467 0.0061450400
0.4016542533 0.6933333333 -0.0295789867 -0.0066666667 0.0133333333 0.0066666667
-0.3905318133 0.6933333333 -0.0533934400 -0.0053574800 0.0131316667 0.0068783067
-0.2110849467 0.9761258933 -0.3666666667 -0.0041178267 0.0029736533 0.0188926000
0.3677179200 0.4143845867 0.0215285733 0.0022945467 -0.0098529733 0.0061335867
0.0597461067 0.4939214533 0.5127452133 -0.0063122267 0.0060661067 0.0184227067
0.1558620133 0.7196250400 -0.2882468667 -0.0096520000 0.0008320400 0.0194333733
0.3458875067 0.3925541733 0.1370214533 -0.0002609733 -0.0116392667 0.0064049467
0.4333333333 0.5861287467 -0.1891674800 0.0055470267 -0.0043444400 0.0036596933
0.2902046400 0.6020421333 -0.1349661600 -0.0188663600 0.0047093867 0.0079362267
-0.2696741200 0.3991097200 0.4600000000 -0.0072186667 -0.0117117600 0.0127560267
-0.3400000000 0.6483994533 -0.1539639067 0.0044455467 0.0053366000 0.0115642533
-0.1062101333 0.4671365333 -0.2200000000 -0.0071517067 -0.0088054933 -0.0027826933
-0.1199046800 0.3333333333 -0.0121418267 -0.0087358533 -0.0129695333 0.0060745467
-0.0869842667 0.9457684267 -0.3651332133 -0.0003344800 0.0055977600 0.0169294533
-0.1012829200 0.5200000000 0.3922844933 -0.0066666667 0.0133316000 0.0066318800
-0.3666666667 0.5900690667 0.2656626400 0.0051511600 0.0057212400 0.0089763200
0.1879369600 0.5200000000 0.3326588400 -0.0069486933 0.0133132400 0.0069486933
0.4167574000 0.4500907333 0.1463154667 0.0041504000 -0.0076991467 0.0074818800
0.3332234000 0.6902231867 -0.2299450400 -0.0106904933 0.0105234000 0.0133175600
-0.1077499867 0.6107316533 -0.4066666667 -0.0082465467 -0.0024869467 -0.0062396267
-0.0049296133 0.7849022400 -0.4573807333 -0.0062572400 -0.0031530000 -0.0062354267
0.1774375867 0.6431355333 -0.2747577867 -0.0096560000 0.0072424533 0.0173918800
0.4600000000 0.5296598800 0.1792814000 0.0054314800 -0.0054682400 0.0059268667
0.2884522533 1.0242262800 -0.4848810800 -0.0001733067 -0.0032694533 -0.0044863333
-0.0667628533 0.3737053467 -0.3003720400 -0.0074021867 -0.0115790933 0.0003210000
-0.4524968000 0.6933333333 -0.0391169867 -0.0117586533 0.0119458000 0.0060865467
-0.3429694667 0.3994424400 0.3220244400 -0.0116773867 -0.0121449867 0.0088860800
-0.3933333333 0.6829819733 -0.3235998533 -0.0175516000 0.0000000000 0.0001821467
-0.4766157067 0.5899490400 0.1018375733 -0.0185537067 -0.0059435200 0.0056984800
-0.2427492267 0.9989513200 -0.4984962933 -0.0090320133 -0.0035198667 -0.0058839467
0.1267085867 0.5200000000 0.4671173067 -0.0066666667 0.0133333333 0.0066666667
-0.3368731467 0.4150342533 -0.1629889200 -0.0159164667 -0.0092498000 0.0041070800
-0.2245910933 0.3753854133 -0.2303074133 -0.0114852667 -0.0114934000 0.0019673333
-0.3295700133 0.6999474533 -0.3737370533 -0.0127109733 -0.0052157600 -0.0038734800
-0.3539129600 0.4139129600 -0.0809345467 -0.0156649467 -0.0097521467 0.0060674533
-0.2982362400 1.0817637067 -0.4940236400 -0.0158658933 0.0091992267 0.0056483467
-0.2123692800 0.3466666667 0.1092088000 -0.0074087333 -0.0132320000 0.0069140267
-0.0698823867 0.4666666667 -0.1751148933 -0.0075500533 0.0131749867 0.0063532933
0.3987000533 0.4918700667 -0.1530067867 0.0032662667 -0.0080964267 0.0032605733
0.4741386400 0.6800000000 0.1713426667 -0.0021485467 0.0124199067 0.0058710133
-0.3666666667 0.5628024267 0.3577055867 0.0023778800 0.0063856400 0.0087390400
0.4602565467 0.5390097067 0.1504072400 0.0054686267 -0.0053521733 0.0055379067
-0.0145434933 0.5071858667 0.1820768800 -0.0026713600 0.0116336933 0.0052976933
0.1462280400 0.6538528400 -0.4071861467 -0.0040852800 -0.0051627733 -0.0052781867
0.2611084267 1.1383787067 -0.4988916000 0.0014510933 0.0041848000 -0.0020760800
0.3911837200 0.6933333333 -0.0506553067 -0.0076280133 0.0131063867 0.0066666667
-0.2528046133 0.3612440000 -0.0903986133 -0.0108430000 -0.0111923200 0.0034355867
-0.3400000267 0.6263898267 -0.0863261467 0.0062361467 0.0026592533 0.0073122400
0.3455512267 0.8955642667 -0.4091742133 0.0024091333 -0.0006906667 -0.0015138933
-0.1974994800 0.5200000000 0.4431890400 -0.0066666667 0.0133245200 0.0067440800
-0.3522672000 0.5168098000 0.4600000000 -0.0156153733 0.0080910400 0.0083392933
0.2837350000 0.3925777200 -0.1843521200 -0.0006984133 -0.0113209867 0.0030335067
0.0545510533 0.3709398933 -0.2818797600 -0.0051468667 -0.0124360533 0.0023377467
-0.1438452933 0.5200000000 0.3745622800 -0.0066666667 0.0133333333 0.0066666667
-0.4930624400 0.6719095867 0.2134452933 -0.0131006267 0.0114445067 0.0083642533
-0.2599828133 0.4000000000 0.4762863200 -0.0066694533 -0.0123317733 0.0070388400
-0.4092645067 0.4454175867 0.3589728533 -0.0165800000 -0.0085935467 0.0090188000
0.3326973467 0.9548104800 -0.4333333333 -0.0012495467 -0.0019064400 -0.0036676267
-0.0461610667 0.3835985333 -0.3102652000 -0.0069900800 -0.0082813867 -0.0034915467
0.0651470267 0.7271349067 -0.3116176400 -0.0087085333 0.0030154133 0.0193975600
0.0854398000 1.0806764667 -0.5400000000 -0.0029794667 -0.0038811867 -0.0054808000
0.0803757200 0.6371375067 -0.2852353867 -0.0070946933 0.0054475067 0.0187678133
0.2786902933 0.9916499867 -0.4771347600 -0.0010753200 -0.0035985600 -0.0048763600
0.2146092933 0.3600000000 0.0518431467 -0.0010643733 0.0109930000 0.0061064400
0.0941886400 0.5066666667 0.2507365867 -0.0051439333 0.0126966667 0.0088456133
0.0897671067 0.3926856933 0.5193524133 -0.0048748000 -0.0087879467 0.0157186400
0.0245587067 0.3333333067 -0.0801746000 -0.0066666667 -0.0133333333 0.0066666667
0.1779524533 0.8797772267 -0.3400000000 -0.0083382667 0.0000000000 0.0198153067
-0.1616223333 0.8567141733 -0.4600000000 -0.0082462933 -0.0031882933 -0.0061742400
0.2965652400 0.3916159600 0.3926940667 -0.0029423067 -0.0124072133 0.0097847067
-0.2914698267 0.5248031600 0.1936897733 -0.0012985333 0.0121805200 0.0067559733
0.2600000000 0.3903905200 -0.2349890133 0.0022464800 -0.0096639467 0.0056075600
0.0086803600 0.4933333333 -0.1148830933 -0.0071127200 0.0130261867 0.0084508933
0.0789838800 1.0362781733 -0.5248057600 -0.0040423200 -0.0049868000 -0.0052768533
0.3650448133 0.6878357467 -0.3478357733 0.0015161733 -0.0030205467 -0.0028364000
0.0897745600 0.4803164667 -0.1027913867 -0.0097441600 0.0125986533 0.0077623867
0.3279043333 1.0228009067 -0.4294675733 0.0043157867 0.0060488933 0.0106495600
-0.2664515467 0.5200000000 -0.0155692800 -0.0032338400 0.0125072533 0.0036852667
-0.0101096533 0.8821955333 -0.4744311067 -0.0066666667 -0.0032108533 -0.0062740400
-0.0658026800 1.0637144000 -0.5318572000 -0.0070214133 -0.0042448800 -0.0059497333
0.3719840000 0.4328762800 -0.1017845600 0.0021565600 -0.0095319600 0.0045321600
-0.0081097600 0.5066666667 0.1247867600 0.0013492933 0.0101714667 0.0059542400
0.0579337333 0.7618827867 -0.4466666667 -0.0059854267 -0.0009095600 -0.0066007733
-0.3203674800 0.8806979333 -0.4262991867 -0.0146951867 -0.0011645200 -0.0036909067
-0.1024866933 1.1321547467 -0.5400000000 -0.0066666667 0.0000000000 -0.0066666667
0.3454596933 0.5733333333 0.2939947467 -0.0151332400 0.0100780800 0.0081531867
0.2719553333 0.9783279467 -0.3666666667 -0.0071321067 0.0004940267 0.0156899733
0.3823182667 0.6230113733 0.2852803867 -0.0173236400 0.0074018000 0.0092532400
-0.0242944667 0.7483651733 -0.4466666667 -0.0073835200 -0.0035159867 -0.0060576800
0.2506724000 0.3733333333 -0.1899303467 -0.0034194800 -0.0123666400 0.0046656133
0.2754799867 0.5333333333 -0.0462192133 -0.0139915733 0.0105019067 0.0073702800
-0.4016199200 0.6645221467 -0.2917134133 -0.0180193200 0.0000000000 -0.0002918000
-0.1694935067 0.5055167600 -0.3655167600 -0.0092131733 -0.0040212400 -0.0057551867
-0.4125865200 0.6861891200 0.0878910000 -0.0025335067 0.0124746800 0.0067718267
0.3335552533 0.0133333333 -0.2857566267 -0.0066666667 0.0133333333 0.0066666667
0.4503010000 0.6778187600 0.2610921200 -0.0025416267 0.0122418933 0.0099160933
-0.4134996533 0.6933333333 0.0569907600 -0.0066666667 0.0133333333 0.0066666667
-0.2444572933 0.8053073600 -0.3133333333 -0.0059256933 0.0022229067 0.0196383467
-0.1457918800 0.4800000000 -0.2074264533 -0.0067467600 0.0121257867 0.0039782267
-0.3427884933 0.0133333333 -0.0952879067 -0.0079327467 0.0130292267 0.0066905600
0.0855196400 0.3994732133 0.4866666667 -0.0066666667 -0.0003725067 -0.0065123733
-0.3650203733 0.4383537333 -0.1284094667 -0.0154877200 -0.0097462000 0.0044516267
-0.4728414933 0.6883887733 0.1602700800 -0.0120443600 0.0118912933 0.0071010933
0.0457048800 0.3333333333 0.0168032667 -0.0066666667 -0.0133333333 0.0066666667
0.0070028667 0.9166847733 -0.4866666667 -0.0066666667 -0.0033369067 -0.0062416267
-0.0567280400 0.5333333333 0.4180246800 -0.0105001600 0.0122772933 0.0091420267
0.2541016400 0.9348327600 -0.4733147733 -0.0021528533 -0.0041773467 -0.0050832800
-0.0763959467 1.1013424667 -0.4306712800 -0.0093771733 0.0067338933 0.0171781467
0.0841678400 0.8058424933 -0.4508373067 -0.0044644000 -0.0035723333 -0.0058913733
-0.2538144133 0.5589577200 -0.2128522267 -0.0002241867 0.0043611200 0.0172975467
0.2539802533 0.1771883467 0.3590274000 -0.0156800800 -0.0058726933 0.0017672667
-0.0705027333 1.1546789600 -0.5319876667 -0.0066666667 0.0094280933 -0.0027614267
0.4866666667 0.5831182800 0.2650488800 0.0064065733 -0.0013153333 0.0068858933
-0.0022517733 0.3445694000 0.2270415733 -0.0066666667 -0.0131769733 0.0086994533
-0.2446911333 0.5200000533 0.2599835733 -0.0066666667 0.0133333333 0.0066666667
0.2754667200 0.3733333333 0.3198462133 -0.0039718533 -0.0127869867 0.0087332533
0.1071631067 0.3450296533 0.1597698400 -0.0023912667 -0.0125163600 0.0081398267
-0.1383286533 1.1306199200 -0.4350046800 -0.0063570933 0.0087540667 0.0163676533
-0.3225513200 0.5586838800 -0.0369527467 0.0051678133 0.0056088667 0.0055614533
0.4478226267 0.6464215067 0.3196671067 -0.0036970000 0.0103132400 0.0144959467
-0.0807578400 0.3582579333 -0.2565159067 -0.0080191600 -0.0117866400 0.0007256000
-0.0043876667 0.7265832000 -0.4366249600 -0.0066666667 -0.0042163733 -0.0059824400
-0.2306733733 0.3882640533 -0.2509240000 -0.0112900667 -0.0108392667 0.0004508000
-0.3019932000 0.5333332800 0.3486010800 -0.0066666667 0.0133333333 0.0066666667
0.3666081200 0.4066373733 0.0844635733 0.0010363067 -0.0108433600 0.0059646800
-0.3133333333 0.5235339333 0.4508922267 -0.0020699733 0.0101151467 0.0125898533
0.3052507467 0.9463676000 -0.3400000000 -0.0036740533 0.0064735200 0.0170222800
0.4141871600 0.6933333333 0.0362237733 -0.0101622667 0.0124992400 0.0084144667
0.3800483467 0.4267149867 0.0129686667 0.0026511467 -0.0094652133 0.0060770267
-0.1116161467 0.5200000000 0.3751446267 -0.0066666667 0.0133032400 0.0060633867
-0.0670328667 0.3715710933 -0.2813879867 -0.0075968800 -0.0124861600 0.0021729067
-0.3575130267 0.4441796933 -0.1824614400 -0.0161650533 -0.0084961467 0.0031890000
0.1207099200 0.5200000000 0.3269672667 -0.0048044133 0.0130656667 0.0051276000
-0.2273781867 0.3733333333 0.3954858667 -0.0082448667 -0.0129352400 0.0080497067
-0.0935628800 0.4194481467 0.5400000000 -0.0081624667 -0.0056167467 0.0181338000
-0.0738100000 0.6410806267 -0.4195233200 -0.0101909600 -0.0053471467 -0.0049219733
0.3399353067 0.3930668933 0.2052620933 -0.0012515733 -0.0120598000 0.0077123733
0.3133333333 0.6103354400 -0.0969899200 -0.0195386400 0.0012808667 0.0076232533
-0.3409308400 0.3866666667 0.1735234533 -0.0110054800 -0.0125848133 0.0065378000
-0.3666666400 0.7465405333 -0.3644298800 -0.0198852133 0.0000000000 0.0059593333
0.1767980133 0.8533333333 -0.3447132933 -0.0085477067 0.0100266400 0.0126395867
0.0626478933 0.4982267200 0.1553307467 -0.0066666667 0.0124003600 0.0020809333
0.0521869600 0.8062408000 -0.4564537067 -0.0066666667 -0.0039550400 -0.0060585467
0.1761287200 0.3466666667 0.0015223067 -0.0066666667 -0.0133333333 0.0066666667
0.3818814400 0.6818814133 0.1024068933 -0.0170339600 0.0076044533 0.0069875867
-0.3789096533 0.5322429467 -0.2505104000 -0.0175225333 -0.0052648533 0.0012104933
-0.0804288800 0.5200000000 0.3315958133 -0.0100047600 0.0126906533 0.0049575333
-0.3892335200 0.6564027467 -0.3174331467 -0.0173592267 -0.0010231333 -0.0008588267
-0.3266666667 0.0131121600 0.3873515067 0.0052136800 0.0059993733 0.0066666667
-0.1609852000 0.8880346667 -0.3445720667 -0.0038802800 0.0023100267 0.0193757067
0.3145125867 0.6918884267 -0.3786878933 -0.0013947733 -0.0041285733 -0.0048032000
-0.4000202400 0.5355744400 -0.2177952800 -0.0173206400 -0.0054222000 0.0008649733
-0.2449841333 0.9397709200 -0.3400000000 -0.0063635600 0.0030486533 0.0194878533
0.2489466800 0.5621960400 -0.2199160533 -0.0142417600 0.0050546800 0.0162032800
0.4249571733 0.6906422933 -0.1644005733 -0.0002216267 0.0115836000 0.0060283200
-0.4317241467 0.5568704267 -0.1565517467 -0.0192206400 -0.0033175067 0.0039987467
0.4842432667 0.5961496933 0.1561871467 0.0055166400 -0.0052490133 0.0056526000
-0.1821518400 0.4933333333 -0.0660841733 -0.0066666667 0.0133333333 0.0066666667
-0.1732313067 0.5347102800 -0.2266326667 -0.0108154000 -0.0037877467 0.0176694533
0.2752000400 0.5333333333 -0.0880419333 -0.0160424133 0.0088258667 0.0043385733
0.2113420133 0.5200000000 0.1852754133 -0.0076425600 0.0131818000 0.0072616667
0.0688977733 0.3333333333 0.0146534133 -0.0066666667 -0.0133333333 0.0066666667
-0.4073326400 0.4279985600 0.2054261867 -0.0157643067 -0.0094920667 0.0065617467
0.2545859067 0.5200000000 0.2358067333 -0.0075762400 0.0131613600 0.0053023067
-0.2163438000 1.0995587200 -0.5266666667 -0.0066666667 0.0000000000 -0.0066666667
-0.3879478400 0.6486222267 0.2496289333 0.0048038400 0.0062652933 0.0087913867
-0.1905116533 0.3733333333 0.3984520933 -0.0075692133 -0.0131484933 0.0076996400
0.0893945200 0.3466666933 -0.1758427333 -0.0061353600 -0.0132281200 0.0062871600
0.1878860267 1.1333333333 -0.5142057867 -0.0067952933 -0.0132327067 0.0070525600
0.0924527067 0.7865453067 -0.4466666667 -0.0063503733 -0.0006373600 -0.0065992933
-0.1908757067 1.0938226267 -0.5266666133 -0.0069826667 -0.0003224933 -0.0066082400
0.4462464933 0.5905519067 0.3775498933 -0.0012159600 0.0057836933 0.0171349067
0.1623096667 0.3568689200 0.2751722000 -0.0029264667 -0.0125013467 0.0090688667
0.3200314533 0.3800314533 0.2018077600 -0.0002571067 -0.0116370667 0.0074393200
0.3399999733 0.0091162133 -0.0074689067 0.0066666667 0.0000000000 0.0066666667
0.0131563200 0.4933333333 -0.1385794267 -0.0066666667 0.0133333333 0.0066666667
-0.3019962000 1.0211979200 -0.3819962000 -0.0159781867 0.0000000000 0.0161247467
-0.4866666667 0.6577517200 0.1410751067 -0.0189147867 0.0041511333 0.0061604000
-0.4600000000 0.5288960267 0.1202680667 -0.0188093600 -0.0054121333 0.0060395333
-0.3588459333 0.7350683600 -0.2805810000 -0.0129486400 0.0070513600 0.0155555600
-0.4471750400 0.6933333333 0.1144741333 -0.0066666667 0.0133333333 0.0066666667
-0.4142843067 0.6209509733 -0.2627547200 -0.0182866267 -0.0045536267 0.0020819200
0.3266666667 0.0079057733 -0.1440111067 -0.0200000000 0.0000000000 0.0066666667
0.4333333333 0.5242019200 -0.0295196933 0.0058249467 -0.0044528800 0.0054532800
0.2804484533 1.0626631733 -0.5000000000 -0.0029159200 -0.0016526000 -0.0056548533
0.1316371867 0.3466666933 0.1299624000 -0.0059127200 -0.0132186800 0.0070974933
0.1552575867 0.9426368267 -0.4865834533 -0.0052464000 -0.0037158933 -0.0060571733
0.2229225867 0.9979154400 -0.4930216933 -0.0071152800 -0.0041299333 -0.0059137333
0.1662732000 0.3738547733 0.4345729600 -0.0058238267 -0.0128980000 0.0099104933
0.3194990267 0.7753068000 -0.3030828400 -0.0018531467 0.0029190800 0.0185664800
0.1276614400 0.8990751200 -0.3533333333 -0.0081629333 0.0000000000 0.0198158000
0.2597028800 0.6381409733 -0.3800000000 -0.0034852133 -0.0019030933 -0.0060591600
-0.1708496133 1.1600000000 -0.5050735467 -0.0074979467 0.0132474800 0.0062510267
0.0386235467 0.3388817067 -0.1699784933 -0.0066666667 -0.0130479067 0.0039247867
0.3131664000 0.5333333333 0.2915555600 -0.0040290667 0.0128016933 0.0053478667
-0.0086305200 0.5021837867 -0.3777585333 -0.0066666667 -0.0042163733 -0.0059824400
-0.4733333333 0.6585708133 -0.0440168133 -0.0199797733 0.0001630933 0.0065035733
-0.4469026133 0.6933333333 -0.0939644533 -0.0141590267 0.0106867733 0.0045296933
-0.0107676533 1.0174355067 -0.3916232267 -0.0077200000 0.0027207333 0.0196054800
0.1469099867 0.4728956133 -0.2066666667 -0.0066666667 0.0000000000 -0.0066666667
0.3028208133 0.6233816533 -0.1550324267 -0.0183200267 0.0062202000 0.0078710267
-0.3959882800 0.5119765733 -0.2103754667 -0.0182770000 -0.0047478400 0.0022505200
-0.4977396667 0.5977396667 0.2721625200 -0.0185531600 -0.0059648533 0.0062060933
0.4250848400 0.6200749733 -0.2364970667 0.0050965467 -0.0019937600 0.0009950933
0.0310048000 0.3333333333 0.1136296400 -0.0066666667 -0.0133333333 0.0066666667
0.3800000000 0.6568982000 0.1970435867 -0.0188435867 0.0037252933 0.0074658000
0.1585699067 0.4933333333 -0.1847390000 -0.0082897067 0.0128970400 0.0063420533
0.0294402000 0.9805311067 -0.5019465600 -0.0035544933 -0.0033529200 -0.0057779333
-0.2204035467 0.5171562133 0.2042264267 -0.0094103333 0.0118842933 0.0017702667
-0.0648477867 0.3866666933 0.4905707333 -0.0066666667 -0.0133333333 0.0066666667
-0.0200000000 0.9998228000 -0.3851349333 -0.0027642267 0.0045202000 0.0183000933
0.1848847733 0.5115514667 0.2279940800 -0.0122164533 0.0118577467 0.0047790533
0.4585777733 0.6933333333 0.1077366533 -0.0020284667 0.0123030000 0.0074402000
0.4471472133 0.4942943333 0.2318012533 0.0052386267 -0.0058741067 0.0066666667
0.2959539733 0.3733333333 0.1632147200 -0.0046724133 -0.0130545200 0.0069768267
0.1279321333 0.3484498133 -0.1956341733 -0.0040236400 -0.0127038667 0.0036792400
-0.1191657067 0.8966766400 -0.4733333333 -0.0070967333 -0.0036614267 -0.0061116400
-0.1673627067 0.9649877867 -0.3666666667 -0.0069157067 -0.0002490400 0.0199709067
-0.1452490533 0.3466666667 0.1288484667 -0.0075042933 -0.0132059600 0.0071453067
0.3817470267 0.6567857867 0.1666666667 -0.0179848133 0.0054239733 0.0027391067
-0.0938165067 0.9076330533 -0.3658931733 -0.0101644400 -0.0041497600 0.0185383333
-0.1134133467 0.3466666667 -0.1943399600 -0.0077371733 -0.0130358400 0.0049485467
-0.3386804000 0.9021491467 -0.3653470400 -0.0146279733 0.0011196133 0.0171777200
0.3110989600 0.3844323200 0.2780659200 -0.0018283600 -0.0123714933 0.0072674000
0.0722237467 0.4717964667 -0.0506868800 -0.0018314000 0.0118301733 0.0071841733
-0.0112077867 0.3340388000 0.1954497467 -0.0066666667 -0.0131539067 0.0088460667
0.0333266800 0.8821108000 -0.4743887333 -0.0066666667 -0.0032338133 -0.0062685600
0.2733333333 0.4180596933 -0.2504856933 0.0027148267 0.0066097867 0.0047120000
-0.0442150800 0.5324738533 0.3475706800 -0.0068288667 0.0130210000 0.0046690000
0.4866666133 0.6584246800 0.1296721200 0.0066666667 0.0000000000 0.0066666667
0.3480160000 0.4362350933 0.4786506667 0.0028386000 -0.0018262400 0.0152588267
-0.1307963867 0.6722067200 -0.4200000000 -0.0084304533 -0.0029032667 -0.0060369600
-0.1227277067 0.3333333333 0.0331370133 -0.0096374267 -0.0128512400 0.0066666667
-0.1460191333 0.3759880000 -0.2759880000 -0.0087646800 -0.0108687600 -0.0007191200
0.3699007867 0.6478039067 0.1041938000 -0.0179420133 0.0059583067 0.0100203200
0.2454597733 0.7723217733 -0.3006034400 -0.0108579867 0.0000000000 0.0193235200
-0.0766580267 1.0542594400 -0.4004630533 -0.0068425600 0.0056692267 0.0186295867
0.3554313467 0.3943823200 0.1884817467 -0.0009588800 -0.0119928267 0.0070368267
-0.1514510667 0.5119294267 0.4795216400 -0.0044260533 0.0121515200 0.0116531600
-0.2840625200 0.9311096133 -0.3400000267 -0.0066666667 0.0015961600 0.0197657333
0.3666666667 0.5949973600 0.2752460533 -0.0189259733 0.0049661067 0.0072138533
-0.1043987733 0.4933333333 0.1534321600 -0.0063409333 0.0131855467 0.0060966400
-0.3376876267 0.4121771733 0.4182160667 -0.0102920000 -0.0127657733 0.0072873600
0.3246024133 0.8070684800 -0.3189678667 -0.0017016000 0.0050918800 0.0177345067
0.1872891600 0.4933333333 -0.0465229333 -0.0104718000 0.0125529733 0.0067910933
-0.1933333333 0.4326230933 0.5252306133 -0.0142612133 -0.0029040400 0.0166865467
0.4346650667 0.4813317333 0.2012521200 0.0037108133 -0.0081933867 0.0057266400
0.4461565200 0.4794898533 0.2957749733 0.0058292800 -0.0044984000 0.0069843467
0.2818986000 1.0885888667 -0.5047680667 0.0015389733 0.0022059067 -0.0028614000
-0.3301714800 0.5635048400 0.1133676533 0.0049507200 0.0064252133 0.0076913067
0.4466666667 0.4909751867 0.3323532133 0.0050786400 -0.0061236400 0.0072533200
-0.3498127200 0.6631460533 -0.1652431867 0.0026150667 0.0073742667 0.0118452800
0.0815858000 0.7737346933 -0.3270680000 -0.0077310667 0.0079296133 0.0169024800
0.0976649600 0.5123322533 -0.2268894000 -0.0042873200 -0.0071754533 0.0175274933
-0.3563128133 0.4127128667 -0.0261333867 -0.0151037067 -0.0101296933 0.0047938800
-0.4016637200 0.6125002000 0.3366632800 0.0040990000 0.0057749467 0.0117306933
-0.3932690933 0.6576041600 0.1980607067 0.0048897467 0.0065630400 0.0076579333
-0.3800000000 0.5833699600 0.3326121333 0.0027352267 0.0072913733 0.0111369333
0.2679457867 0.3866666667 -0.2000274133 0.0011994533 -0.0104426400 0.0043763200
0.2641560400 0.6579714933 -0.3846381867 -0.0028092533 -0.0047899067 -0.0050762667
0.2853590933 0.3815604933 -0.1190695067 -0.0005050133 -0.0114661067 0.0039628667
0.0873275733 1.1385109467 -0.4460057600 -0.0110330933 0.0090868267 0.0144602533
0.4153736933 0.5557423467 -0.1983282933 0.0056642933 -0.0038050933 0.0033550133
0.3252286267 0.8231209333 -0.4081046800 -0.0006739600 -0.0033957867 -0.0047194000
-0.3598756133 0.7926587867 -0.3763294000 -0.0066666667 0.0046971733 0.0191166267
0.0459345867 0.3333333333 0.1472705067 -0.0066666667 -0.0133333333 0.0066666667
0.2253436533 0.9771974667 -0.3533333333 -0.0060801200 0.0005865467 0.0199352267
0.4418668133 0.6666666667 -0.1630520933 -0.0066666667 0.0133333333 0.0066666667
0.4130009733 0.5396676667 -0.1876207200 0.0052465333 -0.0048192400 0.0032695600
-0.0016758800 0.5466820267 -0.3933333333 -0.0066666667 -0.0042163733 -0.0059824400
0.3201446267 0.5982420800 -0.0056430800 -0.0160100400 0.0052363200 0.0141633733
-0.3140997067 0.5152631067 -0.3176315867 -0.0109266667 -0.0052429467 -0.0048021600
0.1936266933 0.4933333333 0.0572870533 -0.0061325067 0.0126425067 0.0029776533
0.3661384533 0.8254324800 -0.3800000000 -0.0033022667 -0.0030366533 -0.0057126800
-0.3355160267 0.0133333333 -0.0157687200 -0.0046613733 0.0128599467 0.0066666667
-0.3069477867 0.3866666667 -0.0831494267 -0.0145744933 -0.0104916133 0.0053695200
-0.1723923333 1.0905442267 -0.4109844933 -0.0055929200 0.0063488800 0.0182891200
-0.1543441200 0.3476774400 0.2481572000 -0.0095122933 -0.0127944933 0.0077099867
-0.2656237733 0.5028118933 -0.0696696933 -0.0024675600 0.0123811733 0.0051562267
0.0715145733 0.5315145867 0.4747268133 -0.0057376800 0.0089072400 0.0160384000
0.3188923600 0.5200000000 0.4198985333 -0.0064163600 0.0132111600 0.0074176000
-0.1324692667 0.5200000000 0.4448364267 -0.0066666667 0.0130381867 0.0084854667
-0.3873894000 0.4207227600 0.1233557600 -0.0156140533 -0.0098560667 0.0063637733
-0.3398770933 0.0000000000 -0.1974145067 -0.0066666667 -0.0133333333 0.0066666667
0.1938265200 0.9053245067 -0.3400000000 -0.0066666667 0.0000000000 0.0200000000
-0.3133333333 1.0499268533 -0.4607998667 0.0047421067 -0.0027550267 0.0039116400
0.1904951200 0.4811356133 0.5121977200 -0.0045414133 0.0087651200 0.0161932133
-0.3466735867 0.8543866000 -0.4066666667 -0.0105218400 -0.0030674933 -0.0050274400
-0.3221401467 0.3983472133 0.3768175200 -0.0116844133 -0.0119433467 0.0094259067
-0.3309427333 0.0133333333 0.3462348133 0.0009787733 0.0088236267 0.0066666667
-0.3108942933 0.5523107467 -0.3373749067 -0.0117502667 -0.0053385733 -0.0044224667
-0.0937564400 0.5187119067 -0.2200000000 -0.0068984400 -0.0007725600 0.0197162133
0.2720985467 1.0418732667 -0.3806384533 -0.0043362267 0.0062021067 0.0181892800
-0.0564425333 0.4748273200 -0.1490148933 -0.0107597467 0.0123121733 0.0038909867
-0.2363169600 0.4996180667 0.0691396000 -0.0022534267 0.0124512800 0.0055468800
-0.1923478933 0.5200000000 0.4226304133 -0.0066666667 0.0133333333 0.0066666667
-0.2588304133 0.5188304133 0.1595631467 0.0019642667 0.0099153067 0.0052248133
-0.2014724667 0.4933332800 -0.0754827067 -0.0063895867 0.0130237600 0.0050041600
