-0.3108628062 0.3807304373 -0.0273340764 -0.0004876205 -0.0091580371 -0.0475913047
0.2900492356 0.2855478279 0.0393058066 0.0029352625 -0.0105758455 -0.0475913047
-0.1455210216 0.4247687126 0.2871235126 0.0048348006 0.0092098058 -0.0523627031
-0.0875389487 0.3027943139 -0.1745014504 0.0029352625 -0.0027992782 -0.0384805734
0.3706495096 0.4083647514 0.4665319015 0.0038213491 -0.0075364638 -0.0403723700
0.0616210626 0.4269484472 0.4177458964 0.0014395418 0.0061832315 -0.0394543655
-0.1290696594 0.4717511553 -0.2358755988 0.0043919371 0.0052922694 -0.0385831273
0.1374035842 0.8817645857 -0.4990494430 0.0049647461 -0.0027733780 -0.0575911367
-0.2733824012 0.2643961370 0.0690221451 0.0029352625 -0.0105758455 -0.0475913047
-0.4361306395 0.5046515212 0.3334757618 -0.0071702646 -0.0011198340 -0.0503172817
-0.2965682397 1.0395759454 -0.4694985319 0.0024875552 0.0042882198 -0.0572441221
0.2969366175 0.5857867955 -0.3119874416 0.0106393852 -0.0029752920 -0.0537415290
-0.1195235417 0.5638803594 -0.3718348610 0.0006177563 -0.0043772261 -0.0568896515
-0.2130770372 0.3384270553 -0.1850498939 0.0063088620 0.0097399518 -0.0475754832
0.1888681231 0.4533794205 -0.1971783581 -0.0005333822 0.0060738773 -0.0396835546
-0.2227409592 0.6479176668 -0.3750463222 -0.0010469029 -0.0027766036 -0.0569230288
-0.0694220918 0.3066995189 0.0364680005 0.0040399835 0.0104208247 -0.0479595450
-0.0922865832 0.3769071105 0.2196947667 0.0045266734 0.0095960780 -0.0517354391
0.2845496479 1.0453510656 -0.4700069022 0.0033190916 0.0043742226 -0.0571722275
-0.1019152137 0.3039428825 0.3536115159 0.0035462714 -0.0088766667 -0.0418906384
-0.1742780040 0.2456773347 0.1500725059 0.0016918497 -0.0104067483 -0.0465611433
-0.2717678503 0.5533668056 -0.2215607054 0.0081957409 0.0032807119 -0.0390390097
0.0899155210 0.5048241931 -0.3480967835 0.0068797250 -0.0049377036 -0.0560327753
0.2854468286 0.2961236946 0.0006254238 0.0091861265 -0.0069648923 -0.0496749260
-0.2771928571 0.4025818473 -0.0854382580 0.0064208708 0.0083544949 -0.0421840441
-0.3118953789 0.6692342881 -0.3331391326 -0.0006812960 -0.0026188332 -0.0567377929
0.0772118471 0.3913240290 -0.2697017954 0.0032352463 -0.0073960801 -0.0551384501
-0.4118692587 0.3953256011 0.4429168634 -0.0001657023 -0.0075065553 -0.0416352317
-0.1639604946 0.5435785433 -0.3517340812 -0.0004814019 -0.0046153413 -0.0564351016
-0.1707186080 0.3066995189 -0.1683744295 0.0029352625 -0.0105758455 -0.0475913047
-0.0034036244 0.6926659938 -0.4283217419 0.0029352625 0.0000000000 -0.0370154592
0.2030817633 0.4283134293 0.2647768040 -0.0003221085 0.0088661755 -0.0523327312
0.0251436496 0.2643961158 0.2953083286 0.0039345001 -0.0096803146 -0.0435742284
0.1261938014 0.4327830672 0.4264959491 0.0002570988 0.0053476128 -0.0389211525
0.3771327673 1.0902229608 -0.3736581579 -0.0021306733 0.0074406361 -0.0421366749
-0.3217712832 0.0001449948 0.2307448543 0.0120255824 0.0000000000 -0.0421862544
0.1318330432 0.3341592575 -0.0648203405 -0.0013279983 0.0089839163 -0.0440505222
-0.3338287623 0.8755135842 -0.3228243942 0.0054736663 0.0008188454 -0.0373635949
-0.0671460430 0.4076414693 -0.1947862393 0.0046742487 0.0066743209 -0.0396038233
0.0261180128 0.7297333381 -0.3880024626 0.0029352625 0.0105758455 -0.0475913047
-0.1967926676 0.4425047122 -0.1892909666 0.0056966263 0.0064921097 -0.0397617101
-0.1190749037 0.2432444672 0.1854158604 0.0027400641 -0.0105581309 -0.0473619251
-0.2636707609 0.3479138214 0.3955157442 0.0026288379 -0.0082017691 -0.0409216371
0.2177893589 0.3151472187 0.3678490363 0.0039733240 -0.0085592750 -0.0416248251
0.2587507295 0.4625531627 0.4648284712 -0.0010178511 0.0042730752 -0.0388256315
-0.3063437898 0.3592244132 -0.0391440913 -0.0065392145 -0.0041084516 -0.0492475032
0.3111297512 0.5242518414 0.3935639508 -0.0012884235 0.0095554139 -0.0490930536
0.0173451269 0.4722458933 -0.2519867149 0.0028887816 0.0046160393 -0.0380803411
0.2726146054 0.8382074056 -0.3463612767 -0.0009371045 0.0006885616 -0.0378560591
-0.4096647237 0.4705635195 0.5077115892 0.0069629780 0.0000000000 -0.0378412318
0.4204197769 1.1145534865 -0.3717310379 -0.0015163965 0.0072140486 -0.0412945414
-0.2731505046 0.4940311726 -0.2787431280 0.0012094643 -0.0043810757 -0.0569032626
0.3703619735 0.4603092538 0.1768937067 0.0127165024 0.0002672305 -0.0511945164
0.1752912757 0.5869111348 -0.3659152218 0.0062945952 -0.0035341303 -0.0569586906
0.2341313986 0.3486887030 -0.1745014504 0.0036754342 0.0000000000 -0.0488494601
0.0474344120 0.8898644566 -0.5129285058 0.0036520404 -0.0014567910 -0.0580238369
-0.2037159439 0.3530723698 0.0533096326 0.0072982746 0.0094261242 -0.0488561017
-0.2487904088 0.2749719825 0.2656634088 0.0028193300 -0.0103175093 -0.0454654857
-0.4115134238 0.9868790773 -0.3119874416 0.0066063076 0.0014471775 -0.0377925617
-0.2603371804 0.2878643400 0.2931522839 0.0021861647 -0.0095821813 -0.0432459118
-0.3027594136 0.3595787463 -0.0705372195 -0.0050427958 -0.0056453757 -0.0504139872
-0.2343966620 0.9547830361 -0.3754425145 0.0057428850 0.0029047723 -0.0378441930
-0.3450159974 0.9472706535 -0.3336649742 0.0075600057 0.0014372045 -0.0382037189
-0.0864459985 0.4547613556 0.3819576055 0.0045318238 0.0102892718 -0.0487011445
0.2708775439 0.2818968663 0.2660331192 0.0044809223 -0.0099971352 -0.0445410193
0.2611705570 0.4216892062 -0.1216222230 -0.0000022738 0.0023362148 -0.0384693207
0.3163835245 1.0950869508 -0.4378177936 0.0021639872 0.0085417931 -0.0534729871
0.2015536382 0.3589617303 0.0698317049 -0.0013380665 0.0093060143 -0.0500771466
0.0186995331 0.5380629649 -0.2798248361 0.0028393713 0.0040682105 -0.0378348545
0.3890506453 0.3715729502 0.4179399526 0.0063015118 -0.0084663768 -0.0424555683
0.3961729590 0.4720992804 0.2418193509 0.0124302037 -0.0007052503 -0.0518098402
0.4539866961 0.0135629190 0.4699023283 -0.0018266495 -0.0060548725 -0.0407816764
0.4471207726 0.9132488460 -0.3377525491 0.0134155023 -0.0005891486 -0.0475913047
0.0448907202 1.0324156750 -0.4388975874 0.0023578001 0.0064162068 -0.0393785684
0.2406119595 0.3141939543 0.3617852590 0.0042068281 -0.0089590843 -0.0422237564
-0.4423306549 0.9899011357 -0.4388975874 0.0000250859 -0.0009700589 -0.0568489345
0.0067096548 0.3132208285 0.3713879786 0.0029352625 -0.0074782544 -0.0401130503
0.2077039683 0.2780303372 0.2856073594 0.0044805838 -0.0100292752 -0.0446798273
-0.3281061618 0.2935632189 0.1597301882 -0.0065240593 0.0000000000 -0.0523209708
0.3604740339 1.0817810566 -0.4452054764 0.0036160719 0.0046898375 -0.0570288825
-0.0530809193 0.6740945236 -0.3370472671 0.0037955440 0.0041872628 -0.0379415754
-0.2616474853 1.0563942471 -0.4706251238 0.0023149997 0.0049204438 -0.0568186029
-0.2299299748 0.2750702955 0.2774744179 0.0055204010 0.0102526371 -0.0475913047
0.1963863859 0.4774559884 0.3996639927 -0.0009570294 0.0097307402 -0.0470597309
0.0406639355 0.3099605597 0.0679502725 0.0021728286 0.0102894093 -0.0498057175
0.0452623977 0.7728201152 -0.3957989548 0.0012399439 -0.0032245541 -0.0376679360
-0.0504798430 0.3701545918 0.4158387754 0.0029352625 0.0105758455 -0.0475913047
-0.1967471597 0.0000000000 -0.1536093013 0.0029352625 -0.0105758455 -0.0475913047
0.0962235158 0.5650543522 -0.2931030427 0.0003393472 0.0041326914 -0.0382466145
0.0146208103 1.0235275652 -0.4388975874 0.0021745948 0.0048992393 -0.0384259385
0.3708792593 0.5488386728 0.4544787056 -0.0017939066 0.0094583382 -0.0475419260
0.2332208077 0.6470667766 -0.2732849553 -0.0022416456 0.0027929750 -0.0388634613
0.0901294175 0.3132811425 0.0341829199 0.0002246098 0.0101930104 -0.0478916692
-0.2543269485 0.6319659075 -0.2645189649 0.0077979093 0.0028048729 -0.0386936132
-0.3059227231 0.7699253794 -0.4050587103 -0.0005534551 -0.0064407005 -0.0548956498
-0.0003110039 0.2220927551 0.0188931346 0.0006174496 0.0101997155 -0.0475913047
-0.1687705372 0.3713347610 0.1532177941 0.0070674885 0.0090810238 -0.0510706944
0.2120337723 0.2874391170 -0.0891800238 0.0079977505 -0.0080973644 -0.0520837440
-0.2416176060 0.2598780089 0.1957687459 0.0006540420 -0.0101120206 -0.0455442652
-0.0672170809 0.3311998504 0.1258282896 0.0049884042 0.0098595012 -0.0507375552
-0.3867859549 0.5493627376 0.3668743347 0.0084033236 0.0085552350 -0.0505019042
0.1406560480 0.2747135828 0.2798840820 0.0046687387 -0.0097810601 -0.0440343729
-0.2763666192 1.0018704546 -0.3772699995 0.0066010409 0.0047437426 -0.0389536309
-0.3165979709 0.9467584441 -0.3469652633 0.0068061805 0.0024148357 -0.0381396610
0.4237622411 0.4026064573 0.4027563699 0.0131313188 -0.0003003117 -0.0503160549
-0.1653446190 0.4064437019 0.2492574487 0.0042172982 0.0089729915 -0.0530368710
-0.2413675402 0.4878263664 0.3680997685 0.0055914178 0.0090347967 -0.0523077827
0.4339248883 0.4343322593 0.4739677996 0.0086457325 -0.0062690651 -0.0413222396
0.4554402826 0.9367375661 -0.3701782500 0.0130210973 -0.0029325233 -0.0484134392
-0.1700438162 0.4563880158 -0.2984285415 -0.0007281047 -0.0059313043 -0.0555170971
0.4158155508 0.8359141922 -0.3747591351 0.0123154769 -0.0048394223 -0.0475913047
-0.1990771877 0.3511060135 0.4092731213 0.0029623578 -0.0073757850 -0.0400258419
-0.0424630032 0.7116338890 -0.4177458964 0.0021388801 0.0033878346 -0.0573927656
0.3259525601 0.3078635916 0.3248914009 0.0054093969 -0.0097969450 -0.0448209196
-0.3249159474 0.3539033246 0.0305021132 -0.0068669282 -0.0024984589 -0.0495517386
-0.0822854715 0.4186444309 0.2957487597 0.0046391792 0.0093022070 -0.0523235619
0.0419980890 0.2432444460 0.2214475756 0.0034385141 -0.0102274666 -0.0453035801
-0.3974199781 1.0553386931 -0.3506069605 0.0068868108 0.0044560056 -0.0389292536
0.3331603689 1.0052978852 -0.3570248065 -0.0007763305 0.0031212070 -0.0382276837
-0.1719740243 0.3586699216 0.4143970550 0.0043264092 -0.0070743840 -0.0399110411
0.2990589359 0.3813085659 -0.0839044642 0.0135111079 0.0000000000 -0.0475913047
-0.4200979539 0.9271528889 -0.4283217419 -0.0017457760 -0.0039259336 -0.0558839309
0.3629554128 0.4915797762 0.2366796063 -0.0004305004 0.0087089021 -0.0519666588
-0.1304605205 0.7726091165 -0.3827755414 0.0047703514 -0.0015767740 -0.0373564667
-0.3111583165 0.3650973177 0.4182071831 0.0025292981 -0.0082356647 -0.0409794870
0.1118832548 0.6292160079 -0.3093200759 0.0013068043 0.0041356632 -0.0380403221
-0.2199134964 0.8896800138 -0.4844486740 0.0003664953 -0.0031965176 -0.0573182905
0.4153932362 0.8331107153 -0.3147310486 0.0135111079 0.0000000000 -0.0475913047
-0.0030699987 0.9218932037 -0.5235043512 0.0029352625 0.0000000000 -0.0578071695
-0.2635391974 1.0363334546 -0.4734576102 0.0013245400 0.0023483348 -0.0576782605
-0.3783391646 0.3563746141 0.2490140668 -0.0050284021 -0.0068973549 -0.0471526186
-0.3635765428 0.3337824719 0.3661533476 0.0009535605 -0.0089704004 -0.0429589997
-0.3564621821 0.4910511955 0.4931895680 0.0072376962 0.0012597313 -0.0380180070
0.4403194358 0.4801354106 0.4112444800 0.0128633057 -0.0016328471 -0.0508164087
0.1060244585 0.4517670482 0.3597678001 0.0015641675 0.0099740164 -0.0508185556
-0.1742028626 0.4653372011 0.3525146526 0.0050000165 0.0099192653 -0.0505732489
-0.1997866154 0.0000000000 0.0428026359 0.0029352625 -0.0105758455 -0.0475913047
-0.1191716727 0.4103756003 0.4283217419 0.0047867652 0.0004209187 -0.0373502376
-0.2913073488 0.9189231890 -0.3446555303 0.0065819197 0.0029995953 -0.0381642287
0.3134001314 0.8138194319 -0.4293714475 0.0066576322 -0.0046364824 -0.0563177943
0.2999331459 0.5382320410 -0.2728306382 0.0029352625 -0.0039277738 -0.0574107339
-0.1976891820 0.0386780455 -0.4303338388 0.0135063277 -0.0001571888 -0.0478613483
-0.3858947707 0.8446055806 -0.4106605030 -0.0020343485 -0.0034434953 -0.0561637783
-0.3545343959 0.3766228846 0.4266856481 0.0017695716 -0.0080794066 -0.0409338734
-0.3028692121 0.6845875073 -0.3446100225 -0.0024044925 -0.0016712374 -0.0564883510
-0.1279806223 1.0553573384 -0.4564867731 0.0051378621 0.0080621891 -0.0414695400
0.1466583691 0.9727350790 -0.4050910195 0.0006938072 0.0026216358 -0.0376105409
0.1887597841 0.8377688676 -0.4823395437 0.0045017250 -0.0047711129 -0.0567246048
-0.1116496872 0.7387995239 -0.3748075408 0.0054169798 0.0096239031 -0.0442091281
-0.3623177740 0.4364468362 0.4917027839 0.0042220256 0.0026094312 -0.0475913047
0.3613171298 0.8116194868 -0.3965942055 0.0065886142 -0.0055163293 -0.0558180433
-0.0859567811 0.8456575811 -0.5019425713 0.0013550831 -0.0028938051 -0.0576304577
0.1962566837 0.0105758455 -0.4229981574 0.0029352625 0.0105758455 -0.0475913047
-0.2939537320 0.9900776783 -0.3610862696 0.0066548719 0.0039597023 -0.0385895892
-0.1396563134 0.2720427271 0.2773306710 0.0012499698 -0.0098212166 -0.0441531396
0.2630799836 1.0493988224 -0.4004014358 -0.0003242871 0.0040796747 -0.0384046176
0.0434395873 0.3288810645 0.1342577567 0.0016915748 0.0097597075 -0.0512115435
0.3231231512 0.7102170218 -0.3363322130 0.0101210947 -0.0039332944 -0.0542362882
0.2734536295 0.4080043583 0.0948122115 -0.0011196648 0.0091279488 -0.0500584802
0.3323363096 0.2580947839 0.3390345531 -0.0030104884 -0.0064141022 -0.0535370556
-0.0340778806 0.9516640712 -0.4098151863 0.0057207604 0.0032286258 -0.0379429820
0.2057500280 0.8321236611 -0.3639298501 -0.0009311080 0.0006281100 -0.0377930376
-0.3744780397 0.3642626085 0.2280051603 -0.0070452793 -0.0012113150 -0.0508373489
-0.1915755924 0.3510756819 -0.0306439142 0.0079710676 0.0091839796 -0.0464383577
-0.2583632094 0.3824501226 0.0510307071 0.0067653789 0.0096800925 -0.0492007686
-0.3258395571 0.6783349617 -0.2386969488 0.0029876023 0.0025990986 -0.0373519297
0.1306727778 0.7713303804 -0.3810230075 0.0012739346 -0.0021897394 -0.0374483180
-0.3078630734 0.8399156373 -0.4474240138 -0.0004916288 -0.0032040158 -0.0570590554
0.2411696978 0.6285098270 -0.3567894517 0.0075659916 -0.0038311212 -0.0562801866
0.4682724636 0.5362860220 0.4868541606 0.0134190875 -0.0007475113 -0.0475913047
0.1030533968 0.4454818338 -0.3073476808 0.0044303486 -0.0059634337 -0.0561497970
0.2448677326 0.9164623061 -0.3619696277 -0.0007555807 0.0016641093 -0.0378885375
0.0444431610 0.9437983496 -0.5235043512 0.0039484285 -0.0000472952 -0.0580590333
0.1727328095 0.4003800515 0.4346527074 0.0003788585 -0.0005610909 -0.0374585765
-0.1721198017 0.2432444672 0.1148010248 0.0020038160 -0.0105089850 -0.0473108015
-0.2472894848 0.8753393789 -0.4717648721 0.0002151338 -0.0031200754 -0.0573130026
-0.0574623758 0.2833721544 0.3203876348 0.0019557065 -0.0096083777 -0.0433540710
-0.2720367200 0.2736090521 0.0108994135 -0.0040417920 -0.0068192629 -0.0501468943
-0.0962091326 0.2326686006 0.0088049307 0.0021143230 -0.0104488613 -0.0482125827
-0.2706247706 0.7410187488 -0.2929572018 0.0088206359 0.0055691239 -0.0409385373
0.4444707618 0.9287109542 -0.3014115962 0.0070105059 -0.0008597845 -0.0563521764
0.3944685980 0.5047027189 0.5129285058 -0.0004121090 0.0005117017 -0.0376014456
0.1899657584 0.2626619627 -0.2053891801 0.0029352625 -0.0070127374 -0.0396764265
-0.1280630821 0.7206786059 -0.3965942055 0.0043731967 0.0000000000 -0.0371578418
0.2593197312 0.7433631176 -0.3542908236 0.0025055341 -0.0057949711 -0.0393631805
-0.4632220426 0.5711727961 0.4185660004 -0.0047648097 0.0000000000 -0.0546597556
-0.0319636528 0.2503987623 -0.0902059337 0.0029352625 -0.0098194293 -0.0515190785
0.1634349703 0.9173292927 -0.5023526603 0.0050228603 -0.0026647746 -0.0575757383
0.0747175551 0.5754900889 -0.2983208899 0.0023535275 0.0044848142 -0.0380399413
-0.1510037408 0.2408951171 0.0809650137 0.0004821951 -0.0102673375 -0.0476514918
0.1573449754 0.4264285810 0.2807016265 0.0006633276 0.0090187214 -0.0525396793
-0.2470119535 0.6735166806 -0.3668032227 -0.0010875353 -0.0014337145 -0.0572578178
0.3762052762 0.1626484235 0.3959990604 -0.0063639939 -0.0050370954 -0.0475913047
-0.0762055872 0.4375485749 -0.2187742874 0.0037284191 0.0063977943 -0.0392625725
0.2036583267 0.0354270306 -0.4316967692 0.0135070257 0.0002077096 -0.0473835951
-0.2186082995 0.5054926077 -0.2212933692 0.0074993532 0.0049563594 -0.0394736664
0.2455152281 1.0061351008 -0.3916385124 -0.0004159163 0.0039932700 -0.0384295555
0.0307345915 0.5582228848 -0.2896872879 0.0029047088 0.0047048975 -0.0381204129
0.4441808885 0.9781245088 -0.3119874416 0.0029352625 0.0000000000 -0.0370154592
0.3346011058 0.4419317552 0.4800818757 -0.0001178043 0.0089485084 -0.0475913047
0.3465847655 0.8830275849 -0.3225632871 0.0003699642 0.0002140022 -0.0373360342
-0.0850692773 0.3996458022 0.4194447685 0.0049208246 -0.0004077411 -0.0372557424
-0.3143401019 0.5035980718 -0.1875628099 -0.0064195699 0.0017654576 -0.0431377950
0.0178038330 0.3577669982 -0.1409621765 0.0020339466 0.0087662443 -0.0417471453
-0.2105430117 0.0016662562 0.0581671501 0.0093585022 0.0035517496 -0.0401927181
-0.0233143562 0.2282793920 0.0443251557 0.0000002432 -0.0100264832 -0.0477253112
0.0029352625 0.2286712271 0.1111130900 -0.0076405830 0.0000000000 -0.0475913047
-0.3393383548 0.4671215154 0.2010061796 0.0064735385 0.0095645514 -0.0503481632
-0.0599274467 0.8516739575 -0.5051558199 0.0022876929 -0.0028198588 -0.0577364911
-0.3904334688 0.8048412688 -0.3850329239 -0.0015871700 -0.0073900095 -0.0534853503
0.2991637531 0.7947693941 -0.3383746520 -0.0005971863 -0.0013592288 -0.0379988224
0.2913129963 0.3340740162 -0.0543771161 0.0105993027 -0.0061014908 -0.0511108191
0.4504035362 0.5200026465 0.4152321237 0.0128312926 -0.0026456852 -0.0501370905
0.3785406873 0.3438778884 0.3760527091 0.0081539240 -0.0088400108 -0.0452990748
0.0785197514 0.6758499130 -0.4177458964 0.0049684264 -0.0001769973 -0.0579167247
0.2670054625 0.7403091836 -0.3774630087 0.0060415786 -0.0097488461 -0.0493755873
-0.2604185192 0.4465238296 -0.1585475866 0.0053865531 0.0083337557 -0.0417916062
0.4139474018 0.4580416550 0.3029237940 0.0129311497 -0.0012608840 -0.0507956907
0.0643031817 0.5685776423 -0.3847593162 0.0029708713 -0.0047007624 -0.0570640577
0.3327566149 0.9706704519 -0.4706251238 0.0057105758 -0.0009173911 -0.0577233242
0.3016248898 0.2934970564 0.0552891665 0.0129683873 0.0000000000 -0.0509356831
0.4576966181 0.5103418337 0.4693700354 0.0131347982 -0.0017303881 -0.0486972420
0.0592574775 0.2326686006 0.0665785325 0.0029352625 -0.0105758455 -0.0475913047
-0.3044628439 1.0718252941 -0.4596999793 0.0003231238 0.0024809030 -0.0566707632
0.0029352625 0.3931675787 -0.2858801739 0.0135111079 0.0000000000 -0.0475913047
-0.1819746495 0.4897022675 -0.2329951404 0.0067270838 0.0049737249 -0.0391273392
0.0478437289 0.7248543410 -0.4494734329 0.0038177216 -0.0057542223 -0.0563227861
0.4346929168 1.0710828909 -0.3331391326 -0.0010276972 0.0043493588 -0.0388108359
0.1403874216 0.2538202915 -0.0567698800 0.0061908355 -0.0098504377 -0.0496263511
0.4682724636 1.0631377658 -0.3300945371 0.0116151761 -0.0015557809 -0.0514449312
0.1812000640 0.4745674289 0.3779548383 -0.0001550419 0.0099124756 -0.0490160085
-0.1228008058 0.3172753644 -0.1778923309 0.0037632877 0.0087546532 -0.0483329781
-0.0617705416 0.9361743706 -0.5228789803 0.0002382632 -0.0000204325 -0.0578154927
-0.0195704328 0.2842500554 -0.1626278535 0.0029352625 -0.0088020012 -0.0534291925
0.4576965758 1.0162628901 -0.4378655964 0.0104529965 -0.0001635766 -0.0550029100
-0.1460862582 0.4250916249 0.4321669396 0.0051439749 0.0020815273 -0.0377542243
0.0857717567 0.4168954504 -0.2000906075 0.0020265118 0.0068703442 -0.0396655863
-0.0896617324 0.6891752245 -0.3361772557 0.0050546090 0.0036986481 -0.0379804945
0.2990589570 0.4987419397 -0.2478419459 0.0133068884 -0.0020428726 -0.0475913047
-0.0278485173 0.2326686006 0.1534041616 0.0029352625 -0.0105758455 -0.0475913047
-0.2597165580 0.4597642911 -0.1770029128 0.0070483886 0.0061741997 -0.0401354076
0.3129522020 0.7931884110 -0.3032949956 0.0018990834 0.0103669937 -0.0470732151
-0.2467222282 0.6080242980 -0.3451904249 -0.0017834048 -0.0036783319 -0.0562868917
0.0717733667 0.7942098367 -0.3860183600 0.0029352625 0.0000000000 -0.0370154592
-0.1576306396 0.2752832085 0.3001058706 0.0018017328 -0.0096820279 -0.0435364303
-0.1273733043 0.5149884478 -0.3473888893 0.0007244137 -0.0054197084 -0.0563655972
-0.1051873591 0.2326686006 0.1004832865 0.0026248931 -0.0105582684 -0.0473413551
-0.4103593135 0.5507805672 0.3452440867 0.0065412979 0.0096351875 -0.0500050510
0.1797273035 1.0575845480 -0.4597939034 0.0013402769 0.0104371115 -0.0475295734
-0.0180645382 1.0364328570 -0.4852748273 0.0009845689 0.0073650188 -0.0548883948
-0.4169388854 0.8037642565 -0.3569230881 -0.0014732047 -0.0085613902 -0.0498817895
-0.4161982166 0.9906174800 -0.4494734329 -0.0014873869 -0.0015501651 -0.0570024111
-0.2589396141 0.2643961370 0.1901647535 0.0016428095 -0.0103629326 -0.0469236515
-0.4321859972 0.9928777709 -0.3098500527 0.0067125843 0.0034550547 -0.0384900810
0.1907695649 0.3078136102 0.3605414232 0.0025756837 -0.0088825046 -0.0420464418
0.1889002208 0.1417340334 -0.3303684092 -0.0076360777 -0.0002682880 -0.0477399270
-0.4357236493 0.8616927309 -0.3276494122 -0.0054598966 -0.0059827558 -0.0487892624
-0.1109566732 0.9501755527 -0.4067518503 0.0049866592 0.0030981305 -0.0377170925
0.1695047124 0.6352243044 -0.3873403830 0.0055580616 -0.0030803208 -0.0573355503
-0.1808520024 0.7423081347 -0.3892617074 0.0013815862 0.0068811950 -0.0553637156
-0.1173616168 0.5615965055 -0.2839254509 0.0054236849 0.0039865121 -0.0381226656
-0.4835536296 1.1070720065 -0.4037259952 -0.0074512331 0.0000000000 -0.0487008272
0.3953182720 0.3888768312 0.4424610974 0.0053470840 -0.0085041114 -0.0422461349
0.0941749216 0.7910087292 -0.3860183600 0.0029352625 0.0000000000 -0.0370154592
0.1503963594 0.2432444460 0.1297006355 0.0043611826 -0.0104037024 -0.0467526084
-0.3267947146 0.3349951829 0.0532276381 -0.0061007928 -0.0032429561 -0.0502012753
-0.1954605975 0.1219114935 -0.3556508456 0.0029352625 0.0071733845 -0.0553624676
0.0190168508 0.9290671910 -0.4071700510 0.0029028052 0.0001947436 -0.0370400903
0.0303395942 0.3222369483 -0.2168048323 0.0029352625 0.0000000000 -0.0370154592
0.1112787817 0.2740841402 -0.1163736001 0.0041117618 -0.0097425958 -0.0515256144
-0.4200985567 0.3919462589 0.4137916936 -0.0073838438 0.0000000000 -0.0496768085
0.1972703785 0.8807522024 -0.3744295706 0.0001901220 0.0021788463 -0.0376295139
-0.4171605657 0.9190293705 -0.3014115962 0.0075706555 0.0015687469 -0.0386752112
0.0253354954 0.2326686006 0.1690636151 0.0029352625 -0.0104440176 -0.0467789105
0.2118679642 0.9366672050 -0.3782328033 -0.0003812910 0.0019818711 -0.0378105830
0.0372049572 0.2496905190 0.2402727921 0.0033308097 -0.0100764752 -0.0445127924
0.1830006863 0.5201983525 -0.3306590863 0.0067414775 -0.0048103387 -0.0561896045
-0.0320195461 0.5955493902 -0.3083505670 0.0029352625 0.0047296662 -0.0381319829
0.0343248689 0.6026385381 -0.3118951145 0.0029352625 0.0047296662 -0.0381319829
0.2779072449 0.3869574845 -0.1758775160 0.0135111079 0.0000000000 -0.0475913047
0.3082945468 0.4985699553 0.3209559596 -0.0008158524 0.0092131161 -0.0511777431
-0.0525965774 0.8127575007 -0.4917768148 0.0027030169 -0.0033344372 -0.0576131239
0.4004172679 0.3953399208 0.3137630838 0.0128784503 -0.0007693928 -0.0510343029
0.2088362923 0.4619294945 0.3132678698 0.0001024165 0.0092503007 -0.0515188247
-0.4412502477 0.8833968089 -0.3705870804 -0.0052730425 -0.0032341253 -0.0508254299
0.0867539143 0.3125835598 0.0546675394 0.0005764365 0.0101380689 -0.0493525319
-0.1175513263 0.3316647328 0.3898318830 0.0029352625 -0.0073402290 -0.0399817617
0.4576966181 0.9908416245 -0.3188687530 0.0135111079 0.0000000000 -0.0475913047
-0.1826833687 0.3466295648 0.0019584245 0.0082893371 0.0090575242 -0.0467532429
0.4842486319 1.1176127508 -0.3614397567 0.0034624789 0.0048432402 -0.0383280697
-0.4107871593 0.3781799135 0.3580841784 -0.0069270413 -0.0013972807 -0.0505318339
-0.1496191405 0.5581406999 -0.3686127816 -0.0000455925 -0.0043268005 -0.0566466185
0.1473504842 0.8467487228 -0.3768851022 0.0006352699 0.0019255125 -0.0374671007
-0.0994081990 0.2432444460 0.2032909218 0.0027005739 -0.0104382326 -0.0464534177
-0.2132169344 0.4845792222 -0.2981391229 -0.0006932149 -0.0044564815 -0.0563388932
0.2493621919 0.3839129101 0.0569263708 -0.0023286954 0.0090426757 -0.0489379799
0.3001919262 1.0712160196 -0.4596716255 0.0053625248 0.0020411382 -0.0569633757
-0.1976802666 0.9874548581 -0.3975046800 0.0053643967 0.0028115779 -0.0377231525
-0.1389816908 0.3848112013 -0.2526131645 0.0016051172 -0.0072045938 -0.0551005357
-0.0832259180 1.0243613966 -0.4962796079 0.0021661552 0.0069159155 -0.0553818109
-0.3881940758 0.9998257524 -0.3279396662 0.0070969846 0.0023102194 -0.0382485710
0.2779072449 0.3265452833 -0.0684370258 0.0131689265 -0.0022319370 -0.0487072679
0.1443868467 0.7191574926 -0.3971297240 0.0030054226 -0.0102198837 -0.0457209558
-0.2915116107 0.9438825862 -0.3544032977 0.0063139067 0.0022822357 -0.0378566831
-0.2861930603 0.2643961370 0.0960845068 0.0029352625 -0.0105758455 -0.0475913047
-0.3615001342 0.1984831424 0.3727513532 0.0109881025 -0.0055538841 -0.0497917997
-0.3057251980 0.9710756654 -0.3536371729 0.0070114154 0.0014541047 -0.0379444943
-0.2224985926 0.4684063432 0.3232776961 0.0061519376 0.0096645355 -0.0502304857
0.2071920868 0.4693375570 -0.2921692062 0.0053796470 -0.0051159701 -0.0564909209
0.0426558854 0.2326686006 0.0993823410 0.0029352625 -0.0105758455 -0.0475913047
0.4665378451 1.0009101890 -0.3314045142 0.0106389092 -0.0008411922 -0.0409949172
-0.2829482005 0.8915496118 -0.4706251238 0.0004693243 -0.0030136718 -0.0573921945
-0.0277205284 0.2432444460 0.2136692211 0.0029352625 -0.0105079168 -0.0471348194
0.2744177236 0.3962461227 0.0432982729 -0.0012170260 0.0095548957 -0.0487559591
-0.1987101847 0.3992270728 0.4388975874 0.0046009370 -0.0026408098 -0.0377786651
0.2925029693 0.5360219008 -0.1992679548 0.0011012205 0.0048544823 -0.0384936980
-0.1514854706 0.3502174098 -0.2105344453 -0.0000027709 -0.0066096390 -0.0552055856
-0.0118998567 0.3729631133 -0.1745014504 0.0032001239 0.0005297335 -0.0371418617
-0.0273369425 0.3559882045 -0.2519271411 0.0014506676 -0.0072401075 -0.0550788446
0.1445267440 1.0336269583 -0.4840069103 0.0035837945 0.0046593051 -0.0570562845
-0.2250498884 0.4420990122 -0.2675975829 -0.0007158578 -0.0060141766 -0.0554810017
0.2340687473 0.4474330985 0.4560122878 -0.0010000414 0.0018111347 -0.0381729220
0.1594086613 0.4108258352 -0.1663559448 -0.0011117117 0.0070283579 -0.0408800000
-0.1549663515 0.9615153444 -0.5080838802 0.0018182311 0.0011912632 -0.0580075924
-0.2929367482 0.3988265761 0.0490004938 0.0067335562 0.0093170237 -0.0494069447
0.2741754732 0.3671856981 -0.1518653126 0.0029352625 -0.0073559130 -0.0551790508
-0.1558000559 0.8491171305 -0.3769347029 0.0053937129 0.0022483296 -0.0375630342
0.1839288120 0.8112727789 -0.4647351076 0.0052308766 -0.0037933020 -0.0571666434
0.2306890032 0.3294262282 -0.1451778354 0.0069535973 -0.0081153116 -0.0527592127
-0.1043521106 0.6774271523 -0.3326611996 0.0049437530 0.0040002607 -0.0380413162
-0.1710141077 0.3513708326 -0.0574467553 0.0056805087 0.0097698391 -0.0446910800
-0.3696129181 1.0886640812 -0.4395456223 0.0028775289 0.0048969655 -0.0569581724
-0.0428055336 1.0139056081 -0.4283217419 0.0039831807 0.0046002813 -0.0381355681
-0.2931884110 0.4085379414 -0.1656843469 -0.0070036316 -0.0018006223 -0.0488721876
-0.2729504202 0.4595347741 -0.2523921082 -0.0004523606 -0.0057441224 -0.0556919370
-0.0874931342 0.9577007744 -0.4071700510 0.0031573658 0.0004329434 -0.0370436861
0.1620892469 0.6799959934 -0.4069118946 0.0060095973 -0.0015372837 -0.0575695831
-0.3144539721 0.4866670951 0.4759699764 0.0071694185 0.0015006490 -0.0380839051
0.3122738250 0.7459303406 -0.3437149781 0.0053768021 0.0000000000 -0.0575907771
0.4576966181 0.4885698589 0.5126247992 0.0128174594 -0.0013873077 -0.0468976561
-0.1096839548 0.4324478446 -0.3002497972 0.0026607981 -0.0063700961 -0.0560085883
0.2724020097 0.4970320582 0.4352601205 -0.0026194043 0.0080021289 -0.0436297727
-0.4506459557 1.1093381881 -0.3490301759 0.0075938484 0.0049208774 -0.0395848926
0.2424710027 0.3770217315 0.0407508478 -0.0019661237 0.0092532937 -0.0486175953
-0.2638625327 0.9535027771 -0.3684675435 0.0060380675 0.0025480596 -0.0378660004
-0.1589928191 0.7366106412 -0.3872883816 0.0044572324 -0.0031868089 -0.0376558478
-0.0158183978 0.2562922262 -0.1054144014 0.0029352625 -0.0098287466 -0.0514950184
-0.0315444368 0.4307477668 0.4085461377 0.0047093288 0.0062747443 -0.0393047701
0.1331848266 0.4988419555 -0.3332466255 0.0053131884 -0.0056430173 -0.0561896997
0.2464651611 0.3598642201 -0.1842940276 0.0058629949 -0.0078230269 -0.0540113294
-0.1846761012 0.3324840753 0.3906512678 0.0021375899 -0.0080829389 -0.0408387331
0.0883789247 0.4881758240 -0.3390612994 0.0059297602 -0.0051205917 -0.0562114436
-0.0360066610 0.2326686006 0.0824903151 0.0029352625 -0.0105758455 -0.0475913047
0.2664221306 0.9062774708 -0.3545939061 -0.0010608842 0.0004578707 -0.0378158709
-0.2550652166 0.0000000000 0.1143181845 0.0029352625 -0.0105758455 -0.0475913047
-0.1976245530 0.4668146679 0.4265901164 0.0066017389 0.0050379309 -0.0392516371
-0.1100578004 0.4063601950 -0.2741620842 0.0010840770 -0.0066623067 -0.0555775275
0.3358095442 0.9919727006 -0.3437149781 -0.0005344292 0.0037491372 -0.0383791298
0.0677201527 0.4344118531 0.3241675900 0.0025461983 0.0094141840 -0.0523660980
0.1576192494 0.5931315193 -0.2828998901 0.0001728199 0.0038307193 -0.0381329770
0.0947461865 0.7788061389 -0.4711146163 0.0048365457 -0.0039235435 -0.0572251596
0.3373188548 0.3535937696 0.1248189944 0.0105640957 -0.0072413872 -0.0475417039
-0.1606507309 0.2452018975 -0.0111602244 0.0012634328 -0.0102366464 -0.0495623250
0.4365449271 0.4936496067 0.3791610664 0.0133562564 -0.0011103051 -0.0489819437
-0.2403570287 0.5413458449 -0.2297945828 0.0070663675 0.0041071719 -0.0387825772
0.0635408959 0.6669970314 -0.3334985316 0.0027882582 0.0046378572 -0.0380980556
0.5000000000 1.1438202247 -0.3708247408 0.0117556233 -0.0030611573 -0.0455261699
0.2108945528 0.8136523230 -0.3590019714 -0.0000864258 0.0009834056 -0.0376041636
-0.0247441259 0.7085816471 -0.4261935328 0.0029352625 -0.0105758455 -0.0475913047
0.1875736608 0.3888804165 0.1738257173 -0.0010528254 0.0093157123 -0.0506163032
-0.2717031578 0.6978469313 -0.2749759378 0.0075605873 0.0028519142 -0.0385653493
-0.1885565481 0.2933525904 0.3275969665 0.0025016634 -0.0094945287 -0.0430739380
-0.1072013809 0.3355038705 -0.2124266544 0.0079909819 0.0000000000 -0.0386158490
-0.3925899577 0.4762945385 0.2188858414 -0.0068183216 -0.0015405411 -0.0507224635
-0.0105495751 0.7220023633 -0.3754425145 0.0029352625 0.0077760173 -0.0405836754
-0.3417571564 0.7698814790 -0.3779927739 -0.0005433235 -0.0084936307 -0.0527190668
0.0007428791 0.2432444460 0.2092519125 0.0025712947 0.0103268055 -0.0491515168
0.3080012468 0.4542539160 0.4753499674 -0.0004979002 0.0001652582 -0.0376554036
0.3383691420 0.3686593788 0.4192438592 0.0037167857 -0.0080187753 -0.0407550464
-0.0507417115 0.3066995189 0.0460790539 0.0036818960 0.0104476451 -0.0487801989
-0.0846849722 0.4312886896 0.3187355608 0.0036436960 0.0091990502 -0.0527381350
0.0216350811 0.6171842387 -0.3191679648 0.0027316563 0.0041347431 -0.0378965646
-0.2225580394 0.9468994836 -0.5020646906 0.0009249211 -0.0010359041 -0.0577005861
0.1460219042 0.2865731244 -0.1276227356 0.0062745328 -0.0085471551 -0.0527835583
-0.1344761691 0.6612390229 -0.3147930019 0.0052525783 0.0029863649 -0.0377554828
0.3414498647 0.7108898677 -0.2485323688 0.0029352625 0.0015624225 -0.0372078021
0.3407713184 0.8791412050 -0.4451540038 0.0068595251 -0.0039242626 -0.0565730847
0.3312320644 0.4124163366 0.0792354823 0.0051367728 0.0092570270 -0.0521784507
-0.1774835956 0.7496606000 -0.4388975874 0.0001345988 -0.0053367408 -0.0562329020
-0.0632717300 0.3508217559 -0.1252598908 0.0037685545 0.0091992300 -0.0424845038
-0.3123317595 1.0915459885 -0.4142681883 0.0067248206 0.0069178615 -0.0405794557
0.0595883323 0.7113465539 -0.3570557303 0.0024377218 0.0074153492 -0.0401434981
0.0529557542 0.7327639524 -0.3965942055 0.0033833082 -0.0034057078 -0.0378517019
0.2089485126 0.2538202915 0.1941769437 0.0037674334 -0.0104186355 -0.0466471037
-0.2309804206 1.0704862863 -0.4372824654 0.0059557662 0.0086860159 -0.0424388056
-0.4729777841 1.0003110145 -0.4007655728 -0.0072564683 -0.0023669906 -0.0475913047
-0.0823778621 0.4746203187 -0.2468864499 0.0063075823 0.0060191684 -0.0395860136
-0.4427269847 0.5816715437 0.4190938620 0.0029352625 0.0101926086 -0.0503965159
-0.1031605301 0.0105758455 0.0254523797 0.0029352625 0.0104716205 -0.0480328039
-0.1481028075 0.2462397158 0.1910678461 0.0009035685 -0.0101989329 -0.0461500707
0.2786050709 0.8060982186 -0.3397295871 0.0001920574 -0.0017559711 -0.0376662227
-0.2594490738 0.6226435430 -0.3443954174 -0.0027307785 -0.0040381751 -0.0555258222
-0.2333006237 0.8165866019 -0.4582656091 0.0001924275 -0.0039441241 -0.0569984769
-0.2136972576 0.6790710723 -0.3884919128 -0.0011202782 -0.0025430890 -0.0570148906
0.3683370904 0.5204812775 0.2889451068 0.0000896091 0.0092132959 -0.0518300083
0.1662690960 0.4086734603 0.2533638063 0.0015927541 0.0089495343 -0.0530632577
0.2329457194 0.3336558367 0.3857227228 0.0034175316 -0.0083239307 -0.0411363479
-0.2940729430 0.5149859942 0.4118493126 0.0068849177 0.0098038193 -0.0474259725
0.3117677708 0.3616108527 0.0095538910 0.0129235986 -0.0000344878 -0.0510388716
0.0132776250 0.4441855101 0.3805836657 0.0029352625 0.0105758455 -0.0475913047
0.1762082861 0.4197174456 0.4388394097 0.0012130389 -0.0021513702 -0.0375429400
0.3514717050 1.0090972894 -0.3490152005 -0.0015661347 0.0024627760 -0.0383851158
0.2513892854 0.4403679155 0.2462634375 -0.0018822149 0.0085788192 -0.0514014539
0.1653288610 0.3943806281 0.2116961173 -0.0003842522 0.0093509722 -0.0512420231
0.4442550463 0.0592956986 0.4610207544 0.0017278816 0.0044285295 -0.0382361550
0.2345726017 0.7952958068 -0.4494734329 0.0054746816 -0.0038555831 -0.0570617416
0.0672630541 0.3382328194 -0.1000820601 0.0013521853 0.0093582061 -0.0429301277
0.3765610265 0.9509411910 -0.3164289160 -0.0008640889 0.0010674624 -0.0378549275
-0.1995362428 0.8962708702 -0.3754425145 0.0052459366 0.0019901097 -0.0374770420
0.0654777456 0.2721857654 -0.1294118620 0.0048519018 -0.0090138143 -0.0527241538
0.1717349679 0.7600486079 -0.4456153327 0.0052146850 -0.0059526041 -0.0560208881
0.3519381633 0.7847458616 -0.2736635600 0.0135111079 0.0000000000 -0.0475913047
0.1756519861 0.2948146482 -0.1260767903 0.0047367626 -0.0093986375 -0.0520555382
0.1912128621 0.5380761953 -0.2531743294 0.0001035904 0.0042638636 -0.0383637314
0.1040285214 0.3278512099 0.0981686676 0.0004302465 0.0098690512 -0.0504268369
0.4682724636 0.9867346430 -0.3468756964 0.0127139113 -0.0028745888 -0.0450975414
0.2292872595 0.4130554667 -0.1391121650 -0.0015001097 0.0072979151 -0.0414268135
0.2774367150 0.4172944136 0.1419089896 -0.0022599418 0.0088307464 -0.0501295076
-0.2351722522 0.0000000000 0.0794793507 0.0029352625 -0.0105758455 -0.0475913047
-0.1369698371 0.6880290567 -0.4112484354 0.0005368828 -0.0000362646 -0.0578895871
0.0402385750 0.3066995189 0.0204189224 0.0014570025 0.0104024756 -0.0477331056
-0.0879619931 0.2326686006 0.0447853425 0.0029352625 -0.0105758455 -0.0475913047
0.0019656689 0.4189929578 0.2933298312 0.0045998900 -0.0087987650 -0.0423596031
-0.2826125655 0.3517024171 -0.1213855885 -0.0076405830 0.0000000000 -0.0475913047
0.2815199749 1.0656655409 -0.4658955952 0.0038808700 0.0046640325 -0.0566216384
-0.3717644470 0.8457271384 -0.3119874416 0.0065392145 0.0000518639 -0.0377361925
-0.4520705750 0.5427970518 0.3968387296 -0.0063271476 -0.0023093522 -0.0499089906
-0.1636579620 0.3442908434 0.0923565742 0.0071665419 0.0090777241 -0.0505826826
-0.1835365538 1.0018418892 -0.5001252074 0.0017059473 0.0041392590 -0.0571902699
0.1251853946 0.4571459867 0.3695813069 0.0010337149 0.0099350444 -0.0504402048
-0.0484943761 0.3457660893 0.1680278485 0.0039861102 0.0092599142 -0.0525085440
0.0736684313 0.7837983504 -0.4799606870 0.0043358323 -0.0041637950 -0.0572063557
0.0591594923 0.2948823759 0.3424736805 0.0033136662 -0.0082351571 -0.0410141335
-0.0282161865 0.3591853143 -0.1423804714 0.0034814414 0.0087812937 -0.0417425871
0.2627686096 0.3750354502 -0.1899581755 0.0029352625 -0.0074782544 -0.0550695590
0.0716958351 0.3265316087 -0.0713741602 0.0011940024 0.0097358061 -0.0439398036
0.2420413167 1.0592489639 -0.4689607079 0.0027824415 0.0059163395 -0.0562920950
0.4326422392 0.8619830484 -0.3225632871 0.0089640761 -0.0022532156 -0.0402288346
-0.0693512759 0.4289787029 0.4177458964 0.0044315119 0.0068343334 -0.0398004812
-0.3513744390 0.7641143542 -0.3369330480 0.0020269454 -0.0088631508 -0.0423614433
-0.3154559911 0.2834877379 0.3320434750 0.0115586376 -0.0053173342 -0.0487845350
0.1398831547 0.3007190581 -0.1484455072 0.0081938372 -0.0074521743 -0.0527420587
0.1238702776 0.5325299470 -0.2662649735 0.0011294051 0.0046404695 -0.0383103657
0.1628854071 0.7181935995 -0.4035022526 0.0049109573 0.0029693484 -0.0574488704
0.4201464865 0.5207960041 0.3171465823 0.0029352625 0.0094593217 -0.0523209708
0.1098556960 0.9947086507 -0.5054905877 0.0039044647 0.0042758672 -0.0572062500
-0.4729777841 0.5702922512 0.4593476979 -0.0076301129 -0.0000850827 -0.0475913047
0.3660965658 0.7789924536 -0.3718224343 0.0076564891 -0.0070965404 -0.0537764716
0.2146253621 0.9899938436 -0.3944167024 0.0001011580 0.0037368904 -0.0382513208
-0.1741768671 0.9741943025 -0.3965942055 0.0054696158 0.0025650233 -0.0376862110
0.1958745044 0.2916139849 -0.1126028459 0.0053847763 -0.0086875494 -0.0527678320
0.1063090862 0.8703769489 -0.5023526603 0.0044753700 -0.0029216725 -0.0576323614
-0.1893982797 0.4067290911 0.2293775032 0.0065755425 0.0093636526 -0.0508913280
-0.0664487246 0.3561115717 0.1816101213 0.0041220098 0.0088533575 -0.0532047308
-0.1551831880 0.3345258269 0.0655396143 0.0074481449 0.0094443887 -0.0486424485
0.1362394692 0.2765350819 -0.1141725657 0.0036552343 -0.0093913191 -0.0522276073
0.2028716847 1.0575844634 -0.4657641163 0.0029352625 0.0082622312 -0.0540024668
-0.2082976645 0.3261655153 0.3798875741 0.0023957569 -0.0073110397 -0.0400961289
0.1609390073 0.3679551332 -0.2251812192 0.0046831959 -0.0072580758 -0.0548253205
-0.3241995608 0.3021562626 0.1088972071 -0.0070978624 0.0000000000 -0.0509356831
-0.3392396399 0.3841610618 0.0905623186 -0.0068521537 0.0000000000 -0.0515963668
-0.1612208430 0.2440285604 0.1654938442 0.0013209019 -0.0102154841 -0.0456570142
0.1939790802 0.3546301178 0.0146447540 -0.0011334345 0.0095940369 -0.0471471086
0.0378036664 0.6649897677 -0.3331391326 0.0022579536 0.0041162037 -0.0378958137
-0.3684379523 0.4000518195 0.4567964550 0.0020680749 -0.0078807393 -0.0405989046
0.1851392069 0.4695059138 0.4187122114 -0.0009633115 0.0076487053 -0.0416159097
0.1136214267 0.2432444460 0.1563318835 0.0049822068 -0.0102372915 -0.0460262382
0.1166548118 0.3246780966 0.3828452468 0.0028285945 -0.0075811045 -0.0402235256
0.3150114037 0.7917838858 -0.3293443712 0.0019522905 0.0084292767 -0.0534951223
-0.3470642109 0.4356509298 0.4816992503 0.0070342486 0.0033420095 -0.0392511295
0.3935227050 1.1259680812 -0.4073880720 -0.0003600124 0.0096693475 -0.0491307036
0.2889970130 0.3913062827 -0.0195093468 0.0029352625 0.0105758455 -0.0475913047
0.3662619721 0.9482861039 -0.4581752703 0.0057137063 -0.0009209552 -0.0577229541
-0.3354917929 0.6156515025 -0.2515372203 -0.0067742838 -0.0019960851 -0.0493732077
0.1538300192 0.3292676752 0.0076243703 -0.0000198720 0.0101092921 -0.0474217210
0.0355900573 0.3846914192 -0.1784624324 0.0029055549 0.0074623800 -0.0400992065
-0.2514998664 0.8511619068 -0.3542908236 0.0051801866 0.0010636762 -0.0373324913
-0.4088622497 0.4883270269 0.5129285058 0.0054194122 -0.0015553684 -0.0374606282
0.0429400795 0.9304413740 -0.4071700933 0.0025573875 0.0004014062 -0.0370528131
-0.0120316952 0.4909480704 -0.3512324900 0.0029352625 -0.0051969387 -0.0567618424
-0.3354917929 0.7287772711 -0.3331426438 -0.0073940495 -0.0003555599 -0.0481258396
0.1617774498 0.7364285251 -0.3503079390 -0.0004950342 0.0068895182 -0.0407718514
-0.1740499887 0.2538202915 0.2049571357 0.0025998707 -0.0105132047 -0.0472796662
0.0528221073 0.3952823142 0.2564844210 0.0028522209 0.0094850845 -0.0522392090
-0.1427686261 0.5271577876 -0.3489560181 0.0008207914 -0.0057694621 -0.0561553071
0.2038763266 0.0003171379 -0.3242832580 0.0135111079 0.0000000000 -0.0475913047
0.1700837294 0.2855478279 0.3052459324 0.0027712945 0.0085877346 -0.0523582718
0.1273228258 0.2360817114 0.0428826316 0.0061024744 -0.0100147334 -0.0487175159
0.0868268136 1.0178939815 -0.5000974881 0.0035777768 0.0044456307 -0.0569378667
0.4642173671 0.5816715014 0.4517591375 0.0050215912 0.0099979707 -0.0475913047
0.3040030062 0.5920518418 -0.2198668357 -0.0029564882 0.0029935036 -0.0399847441
0.2682455015 0.4176056184 0.1615364157 -0.0020220488 0.0088637113 -0.0504281906
0.3598021505 0.5110714825 0.4957087872 -0.0018940599 0.0020080041 -0.0384321466
-0.1903173524 0.0000000000 -0.0668511672 0.0029352625 -0.0105758455 -0.0475913047
0.0645915215 0.5155958715 -0.2683737759 0.0026163690 0.0043849147 -0.0379889129
-0.1679356271 0.9518465892 -0.3960417445 0.0050392740 0.0002425887 -0.0372562500
0.1065732391 0.5298450042 -0.2712706586 0.0006274226 0.0046156797 -0.0383599453
-0.2062559764 0.3798678502 0.4283217419 0.0030423323 -0.0047988428 -0.0381797540
-0.1493762239 0.7403091836 -0.4414267268 0.0008173859 -0.0081068192 -0.0533842134
-0.2561239751 0.7739321442 -0.3576670248 0.0046614097 -0.0035828321 -0.0378247546
-0.0844846657 0.2326686006 0.1557965659 0.0018158409 -0.0103412415 -0.0461266981
0.4478240875 0.9854218633 -0.4177458964 0.0072471616 0.0000000000 -0.0380333632
-0.0612405860 0.7819414118 -0.4808654295 0.0014583668 -0.0049121947 -0.0567956956
0.3309913793 0.5341826344 0.3943141801 -0.0013713487 0.0094290008 -0.0489000338
-0.3460676384 0.6987932262 -0.2906699637 -0.0064179413 -0.0032768623 -0.0508892129
0.1802280063 0.2527250781 -0.0020023142 0.0058239912 -0.0099912022 -0.0493556941
0.1914647470 0.4059041857 0.4418109261 0.0002584525 -0.0012089037 -0.0375556522
-0.4751327819 1.0999276316 -0.4282819662 0.0020117056 0.0032838317 -0.0574250113
0.2711532773 0.3086157246 -0.0716750853 0.0131444645 0.0000000000 -0.0502882404
0.0829225393 0.2326686006 0.1570950259 0.0044247011 -0.0102509872 -0.0458745277
-0.2062749601 0.9012966388 -0.4919579579 0.0006073074 -0.0022371086 -0.0576196386
-0.1420335202 0.2401510007 0.0357211555 0.0015030497 -0.0104076261 -0.0482325922
-0.4624019386 0.5279390888 0.4570063221 -0.0070445495 -0.0024734470 -0.0500101592
0.2968922836 0.8477889418 -0.4494733906 0.0062479451 -0.0034061520 -0.0570312620
0.0840441923 0.4641089753 -0.2331893129 0.0008967682 0.0060754954 -0.0391959658
0.1546339949 1.0482209482 -0.4327095122 0.0012274644 0.0064494150 -0.0394542386
-0.0859848811 0.0105758455 0.0191622264 0.0029352625 0.0098075526 -0.0508458519
-0.2949324842 0.4549433871 -0.2221837708 -0.0035204028 -0.0037128198 -0.0528953238
0.1625017048 0.4605784302 0.4125479847 -0.0003737715 0.0074314034 -0.0408601597
0.1805407129 0.5377563500 -0.3433684288 0.0071577745 -0.0049554605 -0.0559093552
-0.2153820956 0.5062235572 -0.3059910007 -0.0006389397 -0.0047648943 -0.0562794886
0.0988444006 0.2983742028 -0.1661761554 0.0037194508 -0.0086797868 -0.0535514493
-0.3003281854 0.2999220518 0.3090083000 0.0009721423 -0.0099537002 -0.0447782672
-0.0418782012 0.0065495682 0.0370154592 0.0029352625 0.0018006117 -0.0577420858
-0.2085816471 0.0013173062 -0.1310599912 -0.0076405830 0.0000000000 -0.0475913047
0.1369394633 0.5443372439 -0.2721686220 0.0023218951 0.0044169173 -0.0380570636
0.3958769939 0.9224818975 -0.4400892631 0.0065121826 -0.0030867614 -0.0570207496
0.2122082420 0.6355427008 -0.3717725375 0.0067457713 -0.0040070715 -0.0565698802
0.1157484513 0.9279848484 -0.3965942055 0.0012390978 0.0027770055 -0.0375484924
0.1961800934 0.3941517563 -0.1336037464 -0.0012999618 0.0081707607 -0.0425764502
0.2007790210 0.0000000000 -0.1743797859 0.0029352625 -0.0105758455 -0.0475913047
-0.4202243035 0.9711897577 -0.3014115962 0.0074710311 0.0038855656 -0.0389348271
0.1208583085 0.3646154081 0.1819403098 0.0006825333 0.0091318618 -0.0522709682
0.1115332789 0.4029275082 -0.2716923070 0.0048806575 -0.0066926806 -0.0555411043
0.2633749334 0.2648976542 0.0236415200 0.0076065923 -0.0091249558 -0.0497937351
-0.3643757489 0.0000000000 0.2997705740 0.0029352625 -0.0105758455 -0.0475913047
0.3413763943 0.3460969440 0.1428161539 0.0129683132 -0.0000020940 -0.0509354187
-0.0881865818 0.8951134073 -0.5129285058 0.0026517346 -0.0006482782 -0.0580949594
0.2779072449 0.4595606320 -0.2526243009 0.0074505668 -0.0055191424 -0.0548215978
0.1328339624 0.2469796020 0.2084698499 0.0048872674 -0.0099054321 -0.0445671734
0.1198199720 0.3928607205 0.4283217419 0.0021057883 -0.0018467753 -0.0372568105
-0.0605043485 0.4477056592 0.3781220213 0.0048406808 0.0103933064 -0.0476991254
0.0862042770 0.4448353218 0.3525110674 0.0018039960 0.0101058126 -0.0504706315
-0.0070847800 0.2220927339 0.0505704146 0.0026269554 -0.0104825031 -0.0475913047
-0.4209834166 1.0713494022 -0.3437149781 0.0081729922 0.0048117136 -0.0397856856
0.1081271163 0.4202089580 0.4205707577 0.0002790014 0.0041180862 -0.0382591363
-0.4802049045 1.1062025134 -0.3500296462 0.0026311011 -0.0056086458 -0.0564489137
0.1444706074 0.9193165364 -0.5080534217 0.0046928411 -0.0019629615 -0.0577696781
0.0126402928 0.9856676354 -0.5129285058 0.0031464621 0.0037842385 -0.0572478130
-0.3824905752 1.0459816292 -0.4534407498 0.0012753941 0.0030033921 -0.0574759869
0.3565546044 0.3688116286 0.1820340329 0.0114131880 -0.0050959288 -0.0486088279
-0.4342459498 1.0115095234 -0.3119874416 0.0065051179 0.0021043817 -0.0378935293
0.4055108594 0.9689113081 -0.4476557094 0.0054187883 -0.0019018966 -0.0576313144
0.1933004811 0.0070971432 -0.2548906728 -0.0076405830 0.0000000000 -0.0475913047
-0.0381583908 0.3574394008 0.1913744504 0.0040614208 0.0088441565 -0.0532312973
0.2557271693 0.3989354650 0.1072098098 -0.0022163588 0.0088833189 -0.0500984569
-0.4617627345 0.9511868891 -0.3975050079 -0.0067588219 -0.0026803634 -0.0484347918
-0.4122619293 0.4036998094 0.3625084670 -0.0062518899 -0.0037520562 -0.0486354156
-0.0365574405 0.8620813192 -0.3965942055 0.0029352625 0.0000000000 -0.0370154592
0.2890063832 0.3668337869 -0.0938289222 0.0094174943 -0.0061170690 -0.0506498392
0.1949438829 0.0715959568 -0.4020959507 0.0029352625 0.0071733845 -0.0553624676
-0.1677236554 0.3737741432 0.4273760815 0.0040591470 -0.0051597435 -0.0385136652
-0.2077082832 0.0105758455 -0.3378053648 0.0019917173 0.0101850151 -0.0475913047
0.0438178430 0.2726392365 0.2990788502 0.0038714363 -0.0094743289 -0.0431267009
-0.4233120485 1.0242720730 -0.3198926535 0.0077208325 0.0031447911 -0.0387649896
-0.2931884110 0.3187770921 -0.0450028242 -0.0048432613 -0.0058262862 -0.0511958172
-0.4412502477 0.9171843719 -0.2961898782 -0.0068769329 -0.0014074970 -0.0446681938
0.3506403061 0.5440071189 0.4083211366 -0.0018098973 0.0093236336 -0.0468441212
-0.1870580248 0.2432444460 0.1003774012 0.0005321554 -0.0102402951 -0.0476988716
-0.2272187616 0.2643961370 0.2262460694 0.0022784073 -0.0104277519 -0.0463518579
-0.2403225726 0.8135673566 -0.3542908236 0.0053261967 -0.0005650251 -0.0373860791
0.1548800420 0.6127965002 -0.2990182083 0.0002107978 0.0042943115 -0.0383727526
-0.1028227905 0.4288039264 -0.2091142467 0.0043526901 0.0065903064 -0.0394750836
0.3900769465 0.5443236963 0.4932324953 -0.0022286796 0.0061200831 -0.0407423554
-0.4518238299 0.5460510491 0.5235020880 0.0071366546 0.0029613108 -0.0387935867
0.1840967247 0.3455759144 0.0478861910 -0.0008109030 0.0097142419 -0.0493348174
-0.2087659947 0.2523408682 0.1052774865 0.0003391885 -0.0102402528 -0.0479668529
-0.0150981405 0.4923059667 -0.2620167515 0.0031149566 0.0045070658 -0.0380381011
-0.0346827132 0.6759448418 -0.3398761365 0.0038635996 0.0044682947 -0.0380769145
0.0623179897 0.3751368726 0.2085637317 0.0026148884 0.0093294927 -0.0524495519
0.3183705143 1.0383482167 -0.4706251238 0.0046683263 0.0027498044 -0.0575963506
0.1083733220 0.3770156715 0.4211643799 0.0015315834 -0.0024172364 -0.0381557045
-0.2854002315 0.5284900163 -0.1993960812 0.0067643954 0.0045504690 -0.0389725194
0.3274552608 0.8299585000 -0.4290318676 0.0064476065 -0.0038840321 -0.0566995718
