0.2203628218 1.3349957019 -0.3156385884 -0.0029050893 0.0019493931 -0.0189176782
-0.3618031674 1.2366522684 -0.2849857359 0.0000105836 -0.0059656078 -0.0544585046
-0.0951800054 1.1095110217 -0.2761600491 0.0010666244 0.0080173734 -0.0205135453
-0.4280782554 0.0094037361 -0.0509603564 -0.0149342143 0.0099047652 -0.0398093426
-0.0127072227 0.7905120103 -0.1339197050 0.0088358630 0.0159101886 -0.0370378210
0.0859703475 0.8260883374 0.4814916731 0.0000105836 0.0000000000 -0.0185189105
-0.1719949646 1.4812643164 -0.4259349415 -0.0017789728 -0.0026550747 -0.0545347099
0.0392721183 0.9398695976 -0.3318087825 0.0002390514 -0.0058556980 -0.0545887481
0.0677769809 0.7665927818 -0.2444045621 0.0024756728 -0.0101556038 -0.0522712175
0.2402479278 0.4865107608 -0.2845335597 -0.0001253267 -0.0095366648 -0.0212235048
0.2323913912 1.4146349801 -0.4074160310 0.0047408503 -0.0037507831 -0.0542404814
-0.0778227121 1.2684854607 -0.3148214600 0.0000105836 0.0000000000 -0.0185189105
-0.3642336818 1.1633745507 -0.2592647470 0.0000105836 0.0018435205 -0.0187458598
-0.2608255856 0.8619150402 0.0862116026 0.0059787840 0.0175180189 -0.0368445206
-0.4636508788 0.0000000000 0.2170680020 0.0052751765 0.0151878956 -0.0360806156
0.0691958628 0.8319290536 -0.2863321533 0.0025256368 -0.0089015032 -0.0529704360
0.0180498728 0.8333509726 0.2517036240 0.0000105836 0.0177625797 -0.0416984937
-0.1493580966 0.8345683873 0.1126746812 0.0080396054 0.0166485746 -0.0369628009
0.2717205014 0.8626980567 0.2761666789 -0.0040852439 0.0167521509 -0.0429145935
-0.2825253968 1.4578436910 -0.3789945961 -0.0068078756 -0.0101193068 -0.0506747578
0.1635625639 0.8333509726 -0.0153906961 -0.0048595380 0.0177285975 -0.0370378210
-0.0418027459 0.7777942411 0.3443598630 -0.0001870317 -0.0181853664 -0.0342641327
0.2199061825 0.8518698831 0.2259609680 -0.0009234362 0.0179953809 -0.0402890009
0.3746282167 1.0317749503 -0.2545029981 0.0107855894 -0.0047946200 -0.0511123597
-0.0236416949 0.8177480312 0.1666701945 0.0005181869 0.0020304319 -0.0546711757
0.3239669036 0.7963131516 0.3082585433 0.0011454224 -0.0182637014 -0.0364704016
0.0064245156 0.8148320621 0.1091400138 0.0000105836 0.0185189105 -0.0370378210
-0.1047111886 0.8333509726 0.1461225744 0.0000105836 0.0185189105 -0.0370378210
0.0521767618 0.8518698831 0.3902789461 0.0000105836 0.0185189105 -0.0370378210
0.3685620883 1.0310076193 -0.2037080155 -0.0015014299 0.0079742243 -0.0205148787
-0.2560476326 0.8333509726 0.4579727493 0.0000105836 0.0185189105 -0.0370378210
-0.2719595250 1.4696162365 -0.3947107066 0.0076625789 0.0063590050 -0.0226651464
0.2708336123 1.4629939297 -0.3615506343 -0.0052660096 0.0141549848 -0.0281594294
-0.2891260735 1.4518645274 -0.4074160310 -0.0051247659 -0.0050670702 -0.0522174201
0.2488647399 0.8518698831 0.1183921912 -0.0045324570 0.0177137638 -0.0370378210
-0.3742753018 0.8316088246 0.4035083557 -0.0129406906 -0.0010882823 -0.0243586082
0.0861751666 0.7407564201 -0.2030390014 0.0045232902 -0.0154480492 -0.0459591395
-0.3678257393 0.1528650690 -0.4186236386 -0.0010968288 -0.0068894792 -0.0200395353
0.2578671712 1.0058171602 -0.2095040086 -0.0030880746 0.0063783572 -0.0199540520
0.1619860120 0.0329775499 -0.1111134630 0.0000105836 0.0000000000 -0.0185189105
0.0774383336 0.8518698831 0.3374798470 0.0000105836 0.0185189105 -0.0370378210
-0.2309341751 1.2122148067 -0.2960703409 0.0104683234 0.0123105939 -0.0283344146
0.2374568132 1.0560650571 -0.2224704867 -0.0004869270 0.0046433575 -0.0191559240
0.2702344144 1.4815128402 -0.3733671622 0.0000105836 0.0185189105 -0.0370378210
-0.3457049748 0.8770209895 -0.1915770921 -0.0076745976 -0.0102754212 -0.0499147417
-0.1743130322 0.8518698831 0.2839193800 0.0000105836 0.0185189105 -0.0370378210
0.2777942411 0.7513882007 -0.1457534555 -0.0185083269 0.0000000000 -0.0370378210
-0.1525193117 0.8518698831 0.2750391365 0.0002646630 0.0184607241 -0.0374674782
0.0431279962 1.4409741858 -0.3793166955 -0.0056517770 0.0083621770 -0.0216866072
0.3206181660 1.4262819119 -0.3463990173 -0.0052746579 0.0084011223 -0.0218370548
0.2161803629 0.9841658871 -0.2063716830 -0.0024828396 0.0065894173 -0.0199844415
0.2425876811 1.3146131963 -0.3127607127 -0.0052692504 0.0052372034 -0.0200985736
-0.1701551109 0.5370484046 -0.2548525055 0.0000105836 -0.0185189105 -0.0370378210
-0.0929246428 1.4572450672 -0.3831483137 0.0000631587 0.0083398247 -0.0205158787
0.0210956780 1.3584449945 -0.3399048428 0.0000105836 0.0074220645 -0.0201178518
0.3445230424 0.7712582509 0.0779008526 0.0145227981 0.0074480280 -0.0427801833
-0.0035325470 0.8712440895 -0.2230822219 0.0063110688 0.0076891628 -0.0216595140
-0.2159623397 0.8518698831 0.0513993287 0.0004148143 0.0184613352 -0.0373073082
0.1142890950 0.7585777232 -0.2148746037 0.0055702383 -0.0139102389 -0.0477102691
0.3143999233 0.7037185991 0.2185888675 0.0000105836 -0.0185189105 -0.0370378210
-0.3714788907 0.8889077041 0.0275591574 0.0000105836 0.0185189105 -0.0370378210
-0.0674709189 1.1398957945 -0.3703782100 -0.0008025077 -0.0031070472 -0.0552500398
0.1566507324 0.7777942411 0.4251793330 0.0000105836 -0.0185189105 -0.0370378210
0.2239671573 1.2973479235 -0.3876795392 0.0048492971 -0.0046123939 -0.0542825749
0.1353137993 0.9243380837 -0.2037080155 -0.0052222865 0.0047081737 -0.0201763530
-0.3328357209 0.7868067281 -0.0513229567 -0.0096348243 -0.0143939899 -0.0428732038
-0.3773004214 0.1591047010 -0.4344684185 -0.0103303575 0.0091490455 -0.0488414783
0.0415397959 1.4462551124 -0.4277150718 -0.0008702499 0.0120988116 -0.0232620665
0.3472160624 0.8703887936 0.3643548603 0.0000105836 0.0185189105 -0.0370378210
-0.0238760332 1.4088485243 -0.3532705146 0.0000105836 0.0064078023 -0.0198101601
0.0979245264 0.7439298947 0.1697528153 0.0053244553 -0.0175271488 -0.0345787504
0.2478388848 1.1015894281 -0.3239856910 0.0060474521 -0.0037343383 -0.0540716075
-0.0495398356 1.1280725257 -0.3703782100 -0.0003221087 -0.0030976582 -0.0552910222
0.3800891656 0.8615702921 -0.1534472850 0.0121859894 -0.0112851833 -0.0444177920
0.0212632741 0.7459185293 0.1821565964 0.0000105836 -0.0181592918 -0.0334059664
-0.3864054845 0.9074266146 -0.0682910196 0.0010934028 0.0182034964 -0.0364964021
0.1990972605 1.2158028086 -0.2963025680 0.0000105836 0.0000000000 -0.0185189105
0.3667916063 0.1391882795 -0.4408566278 -0.0164808766 -0.0050384585 -0.0427744609
-0.2449217860 0.4689320183 -0.3118861571 0.0169244601 -0.0069833700 -0.0386610405
-0.1848525516 0.8333509726 0.1795552265 0.0000105836 0.0185189105 -0.0370378210
0.4010769802 0.8270012826 0.0275069896 0.0101879471 -0.0151539134 -0.0384597030
-0.0966444253 0.8047204962 -0.1851891050 0.0000105836 0.0000000000 -0.0185189105
0.3333509726 1.2969777490 -0.3426953833 0.0100058877 -0.0016506090 -0.0520047304
-0.1866908683 0.8375425613 -0.2521010954 -0.0015525051 -0.0091939168 -0.0529671026
-0.4720957427 0.0072231159 0.1841818800 -0.0176579015 0.0047100627 -0.0392322563
-0.2410624080 0.7222375837 0.2123982735 0.0000105836 0.0185189105 -0.0370378210
-0.1173909940 0.0349011461 -0.1132501379 0.0000105836 0.0130948512 -0.0501326723
-0.0515062476 1.2086793430 -0.3888971205 -0.0023241140 -0.0041993111 -0.0548505499
0.4140749220 0.3873782736 0.2920525521 0.0005313538 0.0044078155 -0.0191579611
0.3064932374 0.9361256110 -0.1759085753 -0.0064797390 0.0129806451 -0.0256056531
-0.0016562665 1.4237096352 -0.3681317736 0.0000105836 0.0122167586 -0.0234002916
-0.2442990136 0.7813580202 0.3752500724 -0.0081498299 -0.0164419036 -0.0350149263
-0.2111639604 1.2254910692 -0.3703782100 -0.0037273845 -0.0034796107 -0.0547749372
-0.2051052766 0.8518698831 0.0673121840 0.0000105836 0.0185189105 -0.0370378210
0.0860783313 0.7497933521 0.1937808980 0.0006020220 -0.0181618659 -0.0336386009
-0.4259243580 0.8719580861 0.0317680613 -0.0171027787 -0.0027539472 -0.0379558034
0.2006091444 0.7533947802 -0.1734280783 0.0059966917 -0.0159518006 -0.0442102136
-0.4140823296 0.4177463423 0.2787889936 -0.0181075036 0.0038150993 -0.0370378210
-0.0903606071 0.7462645367 0.1831944517 -0.0038842396 -0.0176678369 -0.0338664576
0.0349076000 0.8126912575 0.0001690036 -0.0088989013 0.0162281953 -0.0370746922
0.2040841439 0.7332336868 0.0111789588 0.0046170885 -0.0173166073 -0.0328831220
0.2928896347 0.8669653137 0.1984445523 -0.0077175430 0.0132120204 -0.0278125331
0.2611600927 0.7037185991 0.2073851859 0.0000105836 -0.0185189105 -0.0370378210
-0.0091803147 1.3713519344 -0.4268874432 0.0000105836 -0.0059809599 -0.0545547288
-0.1351810373 1.0136948825 -0.3351186489 -0.0028784220 -0.0049411972 -0.0545787293
0.1739218758 0.8000976206 0.4629727996 0.0006245040 -0.0107011154 -0.0248540631
-0.0139299708 1.4012350669 -0.4444538521 0.0000105836 -0.0027736513 -0.0549019584
-0.0739506116 1.4247380644 -0.3519737464 0.0058691335 0.0116470984 -0.0242924031
0.4444644356 0.8637084115 0.0955284294 0.0185294941 0.0000000000 -0.0370378210
0.3571387539 0.8756577014 0.0747206186 -0.0085608756 0.0157057398 -0.0332826489
-0.0607124610 0.8148320621 0.4589584183 0.0000105836 0.0185189105 -0.0370378210
0.3402722487 0.7777942411 -0.0076592732 0.0081876270 -0.0165837769 -0.0374972011
-0.2026695398 0.8518698090 0.0272588362 0.0028701626 0.0180946423 -0.0389573802
0.4125135556 0.8569568241 0.1249577005 -0.0084962447 0.0158291499 -0.0332630559
0.0398764089 1.3417496967 -0.3333403890 -0.0002998304 0.0040616971 -0.0194387448
0.0411183981 1.1440042333 -0.3703782100 0.0001251601 -0.0034971296 -0.0552206133
0.0146011517 0.0241647893 -0.1239864948 0.0000105836 0.0130948512 -0.0501326723
-0.3040759641 1.4629939297 -0.3753783900 -0.0019009939 -0.0143274514 -0.0463650925
0.2735157802 1.1371674589 -0.2570225699 -0.0028701441 0.0045517630 -0.0194019107
0.0270101921 1.2131011032 -0.3148214785 0.0000105836 0.0000000000 -0.0185189105
-0.4443022285 0.8889077041 -0.0364509752 -0.0005143164 0.0181945147 -0.0370378210
0.0000105836 0.8153399988 -0.2192514556 0.0185294941 0.0000000000 -0.0370378210
-0.1006072129 0.7222375096 0.2170266308 0.0000105836 0.0185189105 -0.0370378210
-0.4103560099 0.9412172187 -0.1637196321 -0.0157257680 -0.0013846034 -0.0459444540
-0.0830641563 0.7037185991 -0.0332281848 -0.0005843735 -0.0182790721 -0.0358478884
0.4259455251 0.0325415962 -0.4678379396 0.0185294941 0.0000000000 -0.0370378210
0.0781866087 0.7114231140 0.2037080155 0.0000105836 0.0000000000 -0.0555567315
0.1446045145 1.1385711553 -0.3655775899 0.0020684049 -0.0037447089 -0.0549887010
0.4259455251 0.8677674789 0.3135454330 0.0185294941 0.0000000000 -0.0370378210
0.0701667722 0.7297846878 -0.2002834616 0.0038676282 -0.0162283620 -0.0445206461
0.3427748202 0.8703887936 0.3240998972 0.0000105836 0.0185189105 -0.0370378210
-0.2765359182 0.7777943152 -0.1487789084 -0.0063596809 -0.0161394527 -0.0434577347
0.4037148694 0.8695661466 0.3740899553 0.0118562232 0.0055430247 -0.0246556700
0.4259455251 0.0169699518 -0.2221259054 -0.0185083269 0.0000000000 -0.0370378210
-0.2077935742 1.0174821849 -0.2222269075 0.0050342269 0.0052915564 -0.0201811309
0.2621382245 1.1046017511 -0.2467388337 -0.0025196552 0.0071587441 -0.0204242471
0.2316345418 0.8148320621 0.4313586304 0.0000105836 0.0185189105 -0.0370378210
-0.1837919366 0.8504833537 -0.1111275744 0.0082193499 0.0165977402 -0.0370378210
-0.3176786594 1.1490378398 -0.2524243245 0.0035210282 0.0060120161 -0.0199694597
-0.0974902580 1.4577354665 -0.4577142253 -0.0054640508 -0.0079370199 -0.0520475461
0.1344397623 0.5504591884 -0.2407458365 0.0000105836 0.0000000000 -0.0185189105
-0.1368988329 0.7222375096 0.0018471502 -0.0015780056 -0.0183227952 -0.0354492318
0.1321352135 0.7242069216 0.0594955927 0.0004083883 -0.0179349907 -0.0325540780
0.1121617722 0.7964015238 0.4814916731 0.0001423826 -0.0006589584 -0.0187658787
0.3602641904 0.7861885854 0.0836718451 0.0093869117 -0.0158301314 -0.0371815092
0.2417682563 0.8621376375 0.3976541948 -0.0056610920 0.0164136622 -0.0308713942
0.1248793377 1.5000317507 -0.4427617792 0.0000105836 0.0185189105 -0.0370378210
0.2857957438 0.6906920456 -0.1895312710 0.0100000543 0.0040879754 -0.0510699143
0.1931252452 1.3692095927 -0.3327454876 -0.0034305263 0.0057641961 -0.0197959005
0.0760158960 0.7982428591 -0.1706889462 -0.0081961272 0.0164134400 -0.0378256155
-0.0716303217 1.2503317802 -0.3148214600 0.0004791490 0.0004685655 -0.0186108199
0.0462787110 1.4793816469 -0.4444538521 0.0021861852 -0.0031287144 -0.0548038452
0.3430527335 0.7874959279 0.1706258708 0.0068755622 -0.0171310663 -0.0369579304
-0.2280590032 0.8518698831 0.2985157075 0.0013536861 0.0184260011 -0.0377093723
-0.0474413097 1.0294997911 -0.3518592995 -0.0015808020 -0.0050535514 -0.0546439900
0.0882775630 0.8026265445 -0.1851891050 0.0000105836 0.0000000000 -0.0185189105
-0.0320339281 0.8518698831 0.3471191992 0.0000105836 0.0185189105 -0.0370378210
0.3544731789 1.1033019088 -0.2553483864 -0.0011999421 0.0080255588 -0.0206840674
-0.3205355347 0.8703887936 0.3984481190 -0.0031730764 0.0151149866 -0.0290978011
0.3730947398 0.8808539966 0.1562049545 -0.0064419604 0.0158874474 -0.0305852770
0.3555530537 0.1941829065 -0.3944218671 0.0143547575 0.0000000000 -0.0253397215
-0.3299678639 0.7622128557 0.0387469868 -0.0182907112 0.0000000000 -0.0398406766
0.0066311311 1.0340125347 -0.2881587845 -0.0117737029 0.0034368690 -0.0232903263
0.1517883517 0.7037185991 0.2065275567 0.0000105836 -0.0185189105 -0.0370378210
-0.1307052573 0.7222375096 -0.1578135626 -0.0001323084 -0.0177839875 -0.0415651020
0.1314501990 0.7212105619 -0.0879531580 0.0047609248 -0.0173362744 -0.0413020039
-0.1879159498 1.0134248768 -0.2289287901 0.0017915657 0.0065542128 -0.0200089420
0.3664680069 1.0526485774 -0.2670595416 0.0041336708 -0.0055060610 -0.0537809902
-0.0942904680 0.8333509726 0.2214466873 0.0018910863 0.0177739688 -0.0417621432
-0.3512102395 0.8432400152 -0.1586787846 -0.0117320539 -0.0091424157 -0.0478773282
-0.2147787221 0.7777942411 0.2952711573 -0.0004905382 -0.0184905025 -0.0367872601
-0.1855321586 1.2943317115 -0.3879011180 -0.0022515014 -0.0048956962 -0.0546095078
-0.1190546774 0.8727545844 -0.1851891050 0.0047547395 0.0056044334 -0.0208881644
-0.2955861177 0.8703887936 0.3463432754 0.0000105836 0.0185189105 -0.0370378210
0.3974586073 0.8889077041 0.1076059073 0.0000105836 0.0185189105 -0.0370378210
-0.1102878807 0.8333509726 0.0054781900 0.0030675372 0.0180228259 -0.0370378210
0.4010427573 0.8889077041 0.1299119165 -0.0000238246 0.0185146512 -0.0370034129
0.2489558344 0.7515147960 -0.1033529654 0.0062097148 -0.0165890363 -0.0421438365
0.3258150538 1.4704793659 -0.3703782100 0.0033807475 -0.0049117336 -0.0536016346
0.3046720322 1.0414873781 -0.2906902085 0.0051568036 -0.0054665046 -0.0539338083
-0.1954366275 1.3182419028 -0.3888971205 -0.0038102010 -0.0049049742 -0.0544188556
0.1813082358 0.8518698831 0.3254807412 0.0000105836 0.0185189105 -0.0370378210
-0.1071359251 1.4638521145 -0.4307600622 -0.0049043538 -0.0122845934 -0.0496727551
-0.0819891891 0.7087435017 -0.1132392673 -0.0035348248 -0.0178431184 -0.0393005911
0.2332543354 1.1498188749 -0.2600879682 -0.0049468732 0.0056279895 -0.0203041335
0.2262339460 1.1162752575 -0.2592647470 -0.0033552469 0.0054628008 -0.0197074727
-0.0779641410 1.2755726107 -0.4062998963 -0.0001064189 -0.0045718005 -0.0549740155
-0.4259243580 0.8294009816 0.2736645518 -0.0143433684 -0.0111692549 -0.0364385676
0.1415173751 1.1769042260 -0.3703782100 0.0028113651 -0.0033899977 -0.0549827379
0.0968629669 0.7319650488 0.0750117544 0.0030634630 -0.0176575404 -0.0329808462
0.0482242152 0.8148320621 0.0416193439 0.0000105836 0.0185189105 -0.0370378210
0.0958239079 1.0340399427 -0.3487404372 0.0032172811 -0.0058835875 -0.0542495001
0.1078626998 1.4815128402 -0.4586728752 0.0014012241 0.0173435338 -0.0391237911
0.2960582943 0.7206868101 -0.1666701945 0.0098628106 -0.0102221238 -0.0257616194
0.1142761688 1.4259561087 -0.3573368970 0.0000105836 0.0132586880 -0.0241974751
-0.0523064312 0.7777942411 0.3654237718 -0.0001944393 -0.0185018916 -0.0368327981
-0.1917036040 0.7544181907 -0.1863289069 -0.0058396699 -0.0157197216 -0.0446074072
0.3101376664 1.3016295326 -0.3499471850 0.0060852862 -0.0047943793 -0.0536175979
0.3351519737 0.8721897947 0.0025814806 -0.0078588978 0.0167477249 -0.0368789473
0.1072902247 1.1035517659 -0.3593384578 0.0074910937 -0.0033171072 -0.0534460942
-0.2886113404 0.8514830416 -0.2127740778 -0.0062198817 -0.0106745593 -0.0507644078
0.2748436972 0.7948378981 0.3786136436 0.0059623021 -0.0175005556 -0.0364007334
-0.2227277792 0.8518698831 0.2050911559 0.0053485299 0.0176479106 -0.0371526938
0.3048739069 0.7222375096 0.2039916512 0.0000105836 0.0185189105 -0.0370378210
-0.4105551067 0.3467536359 0.2809333168 -0.0091123318 -0.0007976280 -0.0526226324
0.3262554150 0.2721183339 -0.3632826524 0.0005123349 -0.0039809361 -0.0282597278
0.1016352531 0.7222375096 0.0936655381 0.0000105836 -0.0185189105 -0.0370378210
0.3333509726 1.3851629859 -0.3651431363 0.0119763183 -0.0058377532 -0.0498535738
-0.4444432685 0.8578128793 0.1140774887 -0.0185083269 0.0000000000 -0.0370378210
-0.0760238962 0.8518699572 0.4046336759 0.0000105836 0.0185189105 -0.0370378210
0.2529131959 0.7407564942 -0.0496310505 0.0058653742 -0.0175643903 -0.0372052505
0.0258961129 1.4798900095 -0.4444538521 0.0000105836 -0.0007257746 -0.0553853945
-0.0960781725 1.1124780660 -0.3703782100 -0.0029587756 -0.0033423485 -0.0549283664
-0.1391121945 1.1025648006 -0.3490027020 -0.0025786935 -0.0045536149 -0.0547433995
0.3224129818 0.8613305278 0.2222269260 0.0000105836 0.0064051726 -0.0529036198
0.0346383721 1.2658914058 -0.4074160310 0.0045328645 -0.0040581229 -0.0543674841
-0.0710500132 1.4741842221 -0.3888971205 0.0005354280 0.0111576251 -0.0226027192
0.4815022566 0.0182618125 0.2840865132 -0.0181948759 0.0000000000 -0.0351062986
0.2601474602 1.4030838282 -0.3888971205 0.0094182642 -0.0087528519 -0.0494574357
0.2273625625 1.0188718254 -0.3140778702 0.0043584534 -0.0039842695 -0.0545640438
-0.4195424451 0.8148320621 0.2906107439 -0.0083825200 -0.0147749979 -0.0352393755
0.1983051141 0.8491630851 0.0341355559 -0.0058351143 0.0175370749 -0.0374605522
-0.0784380769 1.2317429423 -0.3888971205 -0.0014591327 -0.0040363262 -0.0549497927
-0.1836099697 1.4487970181 -0.4318255292 -0.0072970896 -0.0077455899 -0.0520178603
-0.1145421745 0.8022473142 -0.2622318098 -0.0011775157 -0.0108567298 -0.0518745610
-0.1682101067 0.7248374165 -0.1314570047 -0.0056544808 -0.0167245392 -0.0426126612
-0.0190405975 0.7072170250 -0.0115220957 0.0000105836 -0.0176436512 -0.0314394247
0.3060463761 0.8180540007 -0.1884110436 0.0066548723 -0.0122003694 -0.0491296325
0.1191805690 0.7037185991 -0.0362933978 0.0038235902 -0.0177532461 -0.0345872691
0.3965728293 0.8410161348 0.3379464495 -0.0118871868 0.0139576658 -0.0370378210
-0.0327184240 0.9407267269 -0.2456257546 0.0089003643 0.0050777927 -0.0217377379
0.3891403757 0.8150647707 0.0013934369 0.0130496558 -0.0131342225 -0.0370650068
0.1432523192 0.8333509726 0.0868592644 -0.0040550210 0.0178941751 -0.0370378210
0.1509122591 0.9724310646 -0.3195453007 0.0024322644 -0.0064886559 -0.0542021658
-0.0441405917 1.3295278454 -0.4204613627 -0.0034799903 -0.0028122817 -0.0549084030
0.2167633937 0.7517383192 -0.1406142171 0.0078619534 -0.0154500307 -0.0435138470
0.0377840127 1.0609325675 -0.3598171346 0.0000338063 -0.0035386860 -0.0552108538
-0.0047011828 0.7825059890 -0.1150513982 0.0110177980 0.0137458650 -0.0408752911
-0.0719407913 0.8518698831 0.3454068111 0.0000105836 0.0185189105 -0.0370378210
-0.0259902816 1.2732618396 -0.3148214785 0.0000105836 0.0051379050 -0.0193526689
0.0683181775 0.8148320621 -0.0246178729 -0.0006994130 0.0184308531 -0.0377478175
0.3157193587 1.0943925535 -0.2231164819 -0.0027108444 0.0055209872 -0.0195841182
-0.1461767330 0.8333509726 0.2086790467 0.0007869333 0.0182059409 -0.0385905020
0.1668274664 1.1070863037 -0.3505098636 0.0004705007 -0.0065953803 -0.0542385740
-0.1447982038 0.7222375096 -0.1200195960 -0.0026221388 -0.0181591436 -0.0387663576
0.0940511852 1.1496184632 -0.3100879524 -0.0074753342 0.0127156951 -0.0263045568
0.1171256366 1.4483097114 -0.4259349415 0.0000105836 0.0045309848 -0.0198337161
-0.4003453906 0.8148320621 0.2408513758 -0.0072496997 -0.0169823224 -0.0378584124
0.4001105153 0.8075159628 0.1638414309 0.0101185753 -0.0149533535 -0.0372560664
-0.1236278668 1.0688957176 -0.2533986229 0.0066181493 0.0047827123 -0.0205986767
0.3165877474 0.7459969384 0.1481513025 0.0000105836 -0.0043584071 -0.0531161243
-0.2444674801 1.4168585642 -0.4074160310 -0.0037644778 -0.0030984174 -0.0544049664
0.1221572060 0.8333509726 0.0069198872 -0.0021232394 0.0181305689 -0.0389382686
-0.3609683349 0.8795084496 0.1010992696 0.0084270395 0.0164935158 -0.0370378210
0.2318260459 0.5298214553 -0.2616263341 0.0151027363 0.0021790091 -0.0277972921
0.1588539272 1.4931007151 -0.4074160310 0.0000105836 0.0026358891 -0.0188256392
0.2099827687 0.7777942411 0.3111123074 0.0000105836 -0.0185189105 -0.0370378210
-0.4603808466 0.0780643005 0.3462324027 0.0086626556 0.0016467571 -0.0211313362
-0.3909933594 0.9375633636 -0.1481512840 0.0000105836 0.0000000000 -0.0555567315
-0.1596889449 1.4815128402 -0.4073706412 0.0000105836 0.0161324526 -0.0293079537
0.2759912770 1.0816664508 -0.3117726918 0.0048839830 -0.0039146940 -0.0544179111
-0.4811250820 0.0180685121 0.2564167608 -0.0173439319 0.0062377431 -0.0386378178
-0.3196741646 0.0319167682 -0.1162345159 0.0000105836 0.0130948512 -0.0501326723
0.3191661168 0.7702209141 0.0925945525 0.0000105836 0.0000000000 -0.0555567315
-0.0160955166 1.1657261560 -0.3172342889 0.0131054348 0.0000000000 -0.0239429698
-0.0959001688 0.7053767638 -0.0849453536 -0.0043770278 -0.0172031419 -0.0409305515
-0.1489026055 0.7777942411 0.4132936925 0.0000105836 -0.0185189105 -0.0370378210
-0.3553654386 0.6676160386 0.2390549118 -0.0181487082 0.0036318547 -0.0370378210
0.1528323553 1.4661128661 -0.4259349415 -0.0008421197 0.0017054250 -0.0189258450
0.4259455251 0.0082702676 -0.2010538668 -0.0185083269 0.0000000000 -0.0370378210
-0.1269449926 1.4259561087 -0.3547805651 0.0000920853 0.0100806949 -0.0216071981
0.0207939864 0.7752304276 -0.2487233943 0.0011063845 -0.0102304943 -0.0523835717
-0.1847894762 0.7218675388 0.2037080155 0.0000105836 0.0000000000 -0.0555567315
0.3219245456 0.8518698090 0.4262724117 0.0000105836 0.0185189105 -0.0370378210
-0.1339816230 0.8518698831 0.2857768267 0.0000105836 0.0185189105 -0.0370378210
-0.2652944024 1.4444750192 -0.3482141113 0.0012256463 0.0135085267 -0.0247373384
-0.1986991595 0.8349572844 0.2037080155 0.0052897509 0.0164557928 -0.0434481048
-0.3852044590 0.8703887936 0.2177706836 0.0000105836 0.0185189105 -0.0370378210
-0.3535916047 0.8876271400 0.0430846342 0.0088356963 0.0160395802 -0.0346604188
0.3012234777 1.0311666412 -0.2163345791 -0.0010057528 0.0059906824 -0.0195673957
0.3782655344 1.1014881852 -0.2637009891 0.0073341089 -0.0056250450 -0.0514065140
0.1241756191 0.7708524090 -0.2268621538 0.0041675790 -0.0144370834 -0.0477106765
0.3799437921 0.8889077041 0.0600671603 -0.0026184906 0.0180994572 -0.0363805478
0.4359528480 0.8454026351 0.0699870369 0.0130418964 -0.0128146231 -0.0399126782
0.0268710225 0.7275048618 -0.2006338764 0.0016523590 -0.0164267551 -0.0446930756
0.0000105836 0.9056206690 -0.2744962731 0.0185294941 0.0000000000 -0.0370378210
-0.3296866173 0.8703887936 0.1351805465 0.0000105836 0.0185189105 -0.0370378210
0.0000105836 0.7798272286 -0.0884197604 0.0185294941 0.0000000000 -0.0370378210
-0.2519163600 0.9057633757 -0.1666701945 0.0013480933 0.0013375098 -0.0188434359
0.1367871638 1.3358819984 -0.4074160310 0.0036477161 -0.0048494915 -0.0544572268
-0.0781089403 1.3472662764 -0.3333403890 0.0014151874 0.0078372770 -0.0203514308
0.1011820398 1.3988515535 -0.4408392015 0.0040685583 -0.0068043292 -0.0537028589
0.0261144694 1.4259561087 -0.4492676762 0.0000105836 -0.0122824452 -0.0508372612
0.1107347420 1.4861277341 -0.4074160310 -0.0008691017 0.0034424062 -0.0200042938
-0.4547749501 0.1828492962 0.3232345455 -0.0182610995 0.0029962856 -0.0370378210
-0.1691113480 0.9006976203 -0.1945273212 0.0038300533 0.0103026440 -0.0224547531
-0.3082470709 0.8889077041 -0.0962420556 0.0041976907 0.0171060843 -0.0344118765
-0.0589360345 1.0946971711 -0.3703782100 -0.0002913302 -0.0030513424 -0.0552792997
-0.0374595429 1.2331069341 -0.3148214785 0.0000105836 0.0000000000 -0.0185189105
-0.1195489656 1.4629939297 -0.4539452011 -0.0043961208 -0.0079466126 -0.0526120025
0.1373160084 1.2733861756 -0.3148214785 -0.0001722536 0.0001828372 -0.0185340960
-0.4062153112 0.9021833370 -0.0080323552 0.0058951340 0.0164812377 -0.0321642549
-0.1526348141 0.5555673151 -0.2451111326 0.0000105836 0.0185189105 -0.0370378210
-0.4113044374 0.8518698831 0.3162503236 0.0005939107 0.0182567198 -0.0376211482
-0.2201002977 1.0942923847 -0.3333403705 -0.0071976986 -0.0040416781 -0.0535297442
-0.0927441020 0.8149922136 -0.1058254066 0.0082715177 0.0165724989 -0.0370378210
-0.1388727080 0.8381058140 0.2317367014 0.0014553364 0.0174608881 -0.0428581109
-0.3715361512 0.7974816763 0.3275805264 -0.0082713325 -0.0165638136 -0.0370378210
-0.3552977334 0.9444644356 -0.1660329588 0.0019189573 0.0128493646 -0.0247584129
-0.1839303284 0.8518698831 0.0979563327 0.0039039067 0.0177197825 -0.0370378210
-0.1423569114 1.3353453759 -0.3177133731 0.0031957991 0.0070130373 -0.0202635400
-0.3909251172 0.8919641206 -0.0936124259 -0.0090823311 -0.0132586510 -0.0461307357
0.0646891007 1.4432686973 -0.4617663666 0.0020359042 -0.0081336351 -0.0533727223
0.3627953736 0.7963131516 0.2745275331 0.0004352963 -0.0184481312 -0.0368254647
-0.0345487220 0.8124893644 -0.1876676204 0.0060491558 0.0110647157 -0.0238563013
-0.4057556903 0.9175239024 -0.1615480491 -0.0140170282 -0.0059585706 -0.0471486646
0.2499008359 0.7592753306 -0.1248606244 0.0063651995 -0.0160655252 -0.0436317569
-0.2777730740 1.4097787662 -0.3906497317 -0.0086479516 -0.0005400670 -0.0532747573
-0.1895602624 0.8518698831 -0.0729433958 0.0062470674 0.0170649538 -0.0370378210
0.4812615108 0.0000000000 0.2967085581 0.0000105836 0.0185189105 -0.0370378210
-0.4629621790 0.0157694634 0.2464792912 0.0182352656 0.0000000000 -0.0352247456
-0.1438421280 1.4813283177 -0.3888971205 0.0014140577 0.0129264773 -0.0241113437
0.3463578405 1.3863168993 -0.3148214785 0.0048262781 0.0053833732 -0.0207590690
0.2505533682 1.0712254891 -0.2300507213 -0.0021770368 0.0063719126 -0.0199692005
0.0661818360 1.1296535406 -0.2851991663 -0.0039150921 0.0126951391 -0.0243426819
-0.0162303343 0.7777942411 0.4289175973 0.0000105836 -0.0185189105 -0.0370378210
0.1114930729 1.4498182434 -0.4497970763 0.0033025606 -0.0061215555 -0.0536444503
0.0881188744 0.7777942411 0.4047467153 0.0000105836 -0.0185189105 -0.0370378210
0.1032779731 1.1783206448 -0.3804276079 0.0033731547 -0.0039775286 -0.0545328950
0.4632113509 0.0020981555 0.1129378164 0.0183841206 0.0000305377 -0.0393370549
0.1614090369 0.7046306184 -0.0925945525 0.0000105836 0.0000000000 -0.0185189105
-0.2498335011 0.7700242433 -0.1543510819 -0.0066172049 -0.0155724592 -0.0441214154
-0.1840391825 0.5405103482 -0.2407458365 0.0000105836 0.0000000000 -0.0185189105
0.1058541387 0.7473808566 -0.1955625468 0.0053297147 -0.0152471561 -0.0459679730
-0.0888079816 0.7777942411 0.4409461667 -0.0006794310 -0.0180037144 -0.0339298848
-0.3000783609 1.0527172455 -0.2948722044 -0.0055796644 -0.0056448047 -0.0536733768
0.0192468611 0.8518698831 0.4330960931 0.0000105836 0.0185189105 -0.0370378210
-0.2429711151 0.8518698831 0.4572457154 -0.0036442345 0.0112092558 -0.0260733482
0.0777628219 0.9322813814 -0.3272488527 0.0023954674 -0.0052638336 -0.0545869888
-0.1412202762 0.0185189105 -0.1295764094 0.0000105836 -0.0185189105 -0.0370378210
-0.3326307907 0.7764574350 0.0520617131 -0.0183156562 0.0000000000 -0.0396950254
-0.4003603354 0.8148320621 0.3415899155 -0.0003702764 -0.0184571129 -0.0370378210
-0.2955611357 0.7681693522 0.1174365228 -0.0041839497 -0.0176828558 -0.0337157136
0.0298962347 0.8148320621 0.1056556993 -0.0046298665 0.0164330701 -0.0416782711
0.3062548250 1.1437512650 -0.2520833358 -0.0023379662 0.0060624061 -0.0197948264
0.0775704104 0.8866913239 -0.2037080155 -0.0078855651 0.0081615061 -0.0228532059
0.3986337618 0.8060392093 0.1311020157 0.0087862508 -0.0158216682 -0.0391736440
0.2940401776 0.8889077041 -0.1443439257 -0.0072548295 0.0168037816 -0.0370378210
0.1835860063 0.8510630512 0.2459695212 -0.0026979738 0.0178882305 -0.0404748012
0.1019574451 1.3609527142 -0.4259349415 0.0020538861 -0.0049020482 -0.0546289896
-0.2063025797 0.8417408724 0.4629727626 0.0000105836 0.0052411480 -0.0203574124
0.0071425493 1.2842673503 -0.4106472476 0.0000105836 -0.0047296186 -0.0549344591
0.3555010526 0.9356699532 -0.2283202587 0.0085746722 -0.0091353415 -0.0501690434
0.3673243584 0.8302865003 -0.1098330841 0.0131939552 -0.0119098632 -0.0419589622
0.1919942398 0.8460077035 0.0096176665 -0.0058456145 0.0175685756 -0.0370378210
-0.0300899425 0.8518698831 0.3707516994 0.0000105836 0.0185189105 -0.0370378210
0.4062018665 0.8703887936 0.2760242684 0.0000105836 0.0185189105 -0.0370378210
0.1191105119 0.8388361998 0.2331973434 0.0000105836 0.0175305007 -0.0430043177
-0.1023058229 0.8637486716 -0.1873460581 0.0079356402 0.0079250566 -0.0224330304
0.4429260142 0.8333509726 0.3071816872 0.0148294713 -0.0085322917 -0.0352059489
-0.0681182844 0.7037185991 -0.0706909222 0.0000105836 -0.0185189105 -0.0370378210
0.3160683290 0.7777942411 0.0253975746 -0.0116153292 0.0135704724 -0.0364020112
0.2823013920 0.7592753306 0.0790731182 0.0040750400 -0.0179730101 -0.0360745599
0.0635953924 0.8148320621 0.0584822564 -0.0040683732 0.0174229614 -0.0394170380
-0.1953926636 1.0824417821 -0.2462957318 0.0031691504 0.0069089611 -0.0201965016
0.1116426687 0.8333509726 0.1922259206 0.0000105836 0.0185189105 -0.0370378210
-0.0809766492 0.7284373630 0.0911710409 -0.0038076639 -0.0175337971 -0.0326833029
0.3204920337 0.7777942411 0.1196731627 0.0066707801 -0.0170026377 -0.0343611718
-0.3145330558 0.0185189105 -0.1294972966 0.0000105836 -0.0185189105 -0.0370378210
-0.1624848930 0.8383541155 0.4629727626 0.0000105836 0.0035377786 -0.0199843119
-0.0064604979 0.8278384855 0.4814916360 0.0000105836 0.0000000000 -0.0185189105
0.0586853440 0.8518698831 0.4143106770 0.0000105836 0.0185189105 -0.0370378210
-0.3364645570 1.3091278210 -0.3333403890 -0.0083318893 -0.0017360923 -0.0534075008
0.4040420985 0.8114475830 0.2172071716 0.0121871376 -0.0136877897 -0.0362631379
-0.4034279744 0.8889077041 -0.0525122226 0.0000105836 -0.0185189105 -0.0370378210
-0.2148640757 0.7777942411 0.2504461900 -0.0011030326 -0.0182136077 -0.0346211217
0.2934139050 0.7963132257 0.4149952100 0.0000105836 -0.0185189105 -0.0370378210
0.1757259695 0.7452790529 -0.1784192210 0.0058492627 -0.0163849394 -0.0433010091
0.1300480953 1.4444750192 -0.4108910490 0.0000105836 -0.0171288996 -0.0398178428
-0.1834023913 1.3959123246 -0.3351165192 0.0036676610 0.0041808292 -0.0198209751
0.0321768570 0.8518698831 0.3850642616 0.0000105836 0.0185189105 -0.0370378210
0.4140428472 0.8518698831 0.3325811137 0.0000105836 0.0185189105 -0.0370378210
-0.0994803927 0.8518698831 0.3365696611 0.0000105836 0.0185189105 -0.0370378210
0.4683983496 0.0163474757 0.1544337318 0.0183303417 0.0007250524 -0.0393882041
-0.1513270272 0.9082494098 -0.2037080155 0.0026756770 0.0063123003 -0.0204354511
-0.2395855620 1.4556968308 -0.3630811482 0.0022149450 0.0110648453 -0.0227220180
-0.3700575644 1.0661928085 -0.2690793807 -0.0119804665 -0.0035973539 -0.0503400100
-0.1173067145 0.9760585673 -0.2345420015 0.0062080296 0.0046011529 -0.0202294652
0.3502241631 0.7592753306 0.1207227405 0.0000105836 -0.0185189105 -0.0370378210
0.2318199346 0.8518698831 -0.0919359645 -0.0037123286 0.0173130331 -0.0342456323
-0.2232164192 0.7407564201 0.0365193841 -0.0011455150 -0.0184378903 -0.0360398554
-0.3312466503 1.4581859020 -0.3703782100 -0.0033891180 0.0061317409 -0.0213746191
-0.1651057077 1.0482090945 -0.2407458365 0.0020824237 0.0045429665 -0.0192243514
0.2697128108 0.7524412230 0.0925945525 0.0000105836 0.0000000000 -0.0555567315
-0.0078996765 0.7919708004 -0.1957977555 0.0118998537 0.0000000000 -0.0229546340
-0.3231857760 1.3595307953 -0.3518592995 -0.0098893667 -0.0059421258 -0.0512388253
-0.0334503284 1.3851292260 -0.3518592995 0.0000105836 0.0058561980 -0.0194692454
-0.1811212134 1.1143469574 -0.2592647470 0.0019519209 0.0060984624 -0.0196889723
-0.1965314099 0.5555672780 -0.2412855331 0.0000105836 0.0185189105 -0.0370378210
-0.3505106136 0.2253492143 -0.3898891415 -0.0173019310 0.0065725280 -0.0370378210
-0.3297979529 0.9545552233 -0.2475571844 -0.0088190293 -0.0063906908 -0.0518939503
-0.2171239384 1.4244659475 -0.3503691384 0.0023478367 0.0125625992 -0.0238087817
-0.4581370583 0.0000000000 0.1155866873 0.0000105836 -0.0185189105 -0.0370378210
0.0871180014 1.1870111251 -0.3148214785 0.0000105836 0.0000000000 -0.0185189105
0.2058191250 0.8518698831 -0.0133464306 -0.0048393339 0.0177859876 -0.0370378210
0.3362156258 0.6757258214 0.2222269260 0.0000105836 -0.0031390850 -0.0550703323
-0.2115228939 0.8518698831 0.4376733011 0.0000105836 0.0185189105 -0.0370378210
-0.3753130645 1.0819443641 -0.2407458365 0.0000105836 0.0012941015 -0.0186782287
-0.2361204145 0.9905860230 -0.2082498709 0.0021575179 0.0056634717 -0.0195643586
-0.1915083406 1.2285113924 -0.2963025680 0.0000105836 0.0000000000 -0.0185189105
-0.0152156091 0.8333509726 0.4644170153 0.0000105836 0.0185189105 -0.0370378210
0.2848439459 0.7701224491 0.1513267031 0.0042110614 -0.0177219122 -0.0338238456
-0.2522228850 1.0830359613 -0.3178011898 -0.0051905265 -0.0053098346 -0.0538625660
0.1027158871 1.4638537997 -0.3888971205 -0.0013998537 0.0102149199 -0.0218870744
0.0000105836 0.7779890785 -0.0471179973 0.0185294941 0.0000000000 -0.0370378210
-0.2582457903 1.3831100721 -0.3888971205 -0.0069421192 -0.0035951872 -0.0537627861
0.2194518210 0.7222375096 0.0928302056 0.0049858741 -0.0177115416 -0.0370378210
0.0855144489 0.7777942411 0.3061995183 0.0028385138 -0.0177226344 -0.0336336564
-0.2553877853 0.8118963703 -0.2046386834 -0.0099558311 -0.0111919962 -0.0477357882
0.1227804414 0.8333509726 0.2115570520 0.0000105836 0.0181161242 -0.0395199106
0.0006811163 1.4082873273 -0.3527093916 0.0000105836 0.0061884828 -0.0196746016
0.2380661039 0.8518698831 -0.0479264219 -0.0070681774 0.0168478381 -0.0370378210
-0.2276627540 1.4665644127 -0.4259349415 -0.0058356143 -0.0038511926 -0.0525814093
-0.2581041762 0.9769245856 -0.2918818634 -0.0046661265 -0.0047486561 -0.0542165550
0.0365573942 1.2351951635 -0.4055587325 0.0074738156 -0.0035466862 -0.0534793172
-0.4091234098 0.8593087628 0.1147546327 0.0053829010 0.0167085944 -0.0325425407
-0.0858076959 0.8333509726 0.0588646719 0.0033725436 0.0176260953 -0.0370378210
-0.2317877302 0.7503277708 -0.1055872349 -0.0072808486 -0.0164017916 -0.0411006848
0.2003679356 0.7037185991 0.2190761001 0.0000105836 -0.0185189105 -0.0370378210
0.1794458260 0.7211671166 0.2222269260 0.0000105836 0.0000000000 -0.0185189105
-0.0174066925 1.2549154513 -0.4074160310 0.0000105836 -0.0039602320 -0.0551232594
0.1925965488 0.7712419357 0.2391854887 0.0016385439 -0.0179840658 -0.0331573685
-0.0035346026 1.4479960567 -0.3888971205 0.0000105836 0.0082819160 -0.0204740074
-0.3547305362 0.2121500275 -0.4117347151 -0.0103190981 0.0094374590 -0.0486805304
0.0211669203 1.4731967567 -0.3990999291 -0.0005649471 0.0109051197 -0.0224420491
0.1917599015 1.2107102193 -0.3703782100 0.0043688240 -0.0050853669 -0.0542049251
-0.1105508122 0.7037185991 -0.0437289071 -0.0026635471 -0.0180100294 -0.0358880189
-0.0524102482 1.4607094369 -0.4629727626 -0.0002706261 -0.0002812097 -0.0555218419
0.1923283765 0.7777942411 0.3689347721 0.0000105836 -0.0185189105 -0.0370378210
0.0394923637 1.3746425410 -0.3518592995 0.0000105836 0.0058561980 -0.0194692454
0.1825355952 0.5400797095 -0.2407458365 0.0000105836 0.0000000000 -0.0185189105
0.1484143359 1.1228091921 -0.2706868221 -0.0036680499 0.0074031752 -0.0205073415
0.3989648985 0.9627052291 -0.1481512840 0.0000105836 0.0128981249 -0.0238614865
-0.1803506971 1.2831730679 -0.3148214785 0.0010895879 0.0049939390 -0.0193719100
-0.3680500034 1.0587523547 -0.2407458365 0.0119858741 -0.0051809430 -0.0479414036
-0.3032483725 1.2503678180 -0.2777836575 0.0044734188 0.0057328991 -0.0200581653
0.2778375013 0.7777942411 0.2391763959 0.0008449531 -0.0184656131 -0.0365241990
0.2712927516 0.7509351726 -0.1007133170 -0.0058456145 0.0175685756 -0.0370378210
-0.0220659022 0.7963131516 0.4703806416 0.0000105836 -0.0159436153 -0.0299247075
0.4058807856 0.0917377196 -0.4634011420 0.0000105836 0.0076656437 -0.0538953075
-0.3333298055 0.7086617778 0.2208930274 -0.0185083269 0.0000000000 -0.0370378210
-0.4218989580 0.2784273749 0.3104488675 0.0090331079 0.0004217126 -0.0221028753
0.2391528676 0.8518698831 0.1411133943 -0.0020257929 0.0182067187 -0.0360196328
0.0495725215 0.7222375096 0.0936786866 0.0000105836 -0.0185189105 -0.0370378210
0.4355517284 0.0000000000 -0.0767050310 0.0000105836 0.0185189105 -0.0370378210
0.3289440830 0.7920745063 -0.1112816888 0.0105196023 -0.0139243688 -0.0429858913
-0.2866009275 0.9938677221 -0.2037080155 0.0010131789 0.0065306012 -0.0198084193
-0.1209243466 1.2797824406 -0.3148214785 0.0000641217 0.0002141712 -0.0185438740
0.2976329203 1.0505019208 -0.2222269260 -0.0007837110 0.0050402734 -0.0192932047
-0.0228670118 1.4815128402 -0.4208569081 0.0000105836 0.0145821790 -0.0275336939
0.3072887913 0.7963131516 -0.1501804010 0.0090200891 -0.0143814155 -0.0439571156
-0.2304310719 0.5734404341 -0.2222269260 0.0000105836 0.0000000000 -0.0185189105
-0.0463842688 0.8333509726 0.1980110986 0.0000105836 0.0185189105 -0.0370378210
-0.0814508629 1.4839688551 -0.4098719719 0.0014590587 0.0122177216 -0.0233716243
-0.3955256220 0.0964228002 -0.4433600696 -0.0062516045 -0.0034901850 -0.0211245397
0.0745289201 1.0788805400 -0.3657998354 0.0003980177 -0.0037295789 -0.0551133703
0.3788396206 0.9074266146 -0.0657099279 -0.0044018432 0.0172756620 -0.0352122824
-0.2192610947 0.5438636414 -0.2777836575 0.0000105836 0.0000000000 -0.0555567315
-0.0278097831 0.7071648202 0.2037080340 0.0000105836 0.0000000000 -0.0555567315
0.1215221741 0.7777942411 0.3534745374 0.0000105836 -0.0185189105 -0.0370378210
-0.1560031076 0.7493703987 0.1468602937 -0.0003090714 -0.0179879733 -0.0327006551
0.3729018098 0.7988262418 0.3431666896 0.0091143688 -0.0159661713 -0.0358016467
0.2295986839 0.7444369795 -0.1254954156 0.0070183615 -0.0162092875 -0.0425781975
-0.1778494219 1.3588934484 -0.4074160310 -0.0025594338 -0.0049364008 -0.0545413582
0.1478812320 1.4977592766 -0.4444538521 0.0057780390 0.0000000000 -0.0546208043
-0.3376496562 0.8017159326 0.3964656696 -0.0064232934 -0.0163019747 -0.0314803886
0.1405646512 0.7959104764 -0.2584593596 0.0065591851 -0.0108107473 -0.0495041960
-0.3440848665 1.0271145739 -0.2659382772 -0.0086477664 -0.0039389352 -0.0528887121
0.3341537303 1.2089582563 -0.3166332576 0.0085287268 -0.0053895400 -0.0525500568
0.0828508000 0.7191359625 -0.1429379329 0.0041664308 -0.0174025721 -0.0415054156
-0.1985448414 1.4086631500 -0.4259349415 -0.0058688927 -0.0058794763 -0.0531801442
-0.0777156357 0.8518698831 0.3645847541 0.0000105836 0.0185189105 -0.0370378210
0.0917293953 1.3188361561 -0.3188150260 -0.0015038929 0.0063416713 -0.0197987894
-0.0715778206 1.0574205117 -0.2611073045 0.0049585031 0.0051527757 -0.0200032753
0.3611596538 0.8796786199 0.0942836068 -0.0082980368 0.0165498503 -0.0370378210
-0.0359951786 0.7777942411 0.3876870209 0.0000105836 -0.0185189105 -0.0370378210
-0.3148108950 1.2057812446 -0.3308080762 -0.0077875259 -0.0025006640 -0.0534014266
0.2971554842 0.8156744133 0.4244773366 -0.0080545686 0.0120917559 -0.0479502927
0.0325368091 0.5555673151 -0.2485560574 0.0000105836 0.0185189105 -0.0370378210
0.0588422548 0.8333509726 0.2039062419 -0.0000112688 0.0185173920 -0.0370487472
-0.0968221883 0.9868377214 -0.3291021512 -0.0032588931 -0.0044020747 -0.0546736387
0.2458466760 0.7963131516 0.4161209375 0.0047375910 -0.0169675073 -0.0328778070
0.2135762707 0.8518698831 0.3867018889 -0.0044761410 0.0177908210 -0.0370378210
0.0853790942 1.4456677666 -0.4259349415 0.0001574200 -0.0005873087 -0.0553916910
-0.1219837950 1.0489936667 -0.2483838315 0.0068147091 0.0042295155 -0.0205474349
0.0422945341 0.7815296165 -0.2518729424 0.0002520516 -0.0102662729 -0.0524372210
-0.1041807885 0.9592388594 -0.3217435695 -0.0049970410 -0.0042199597 -0.0542693524
-0.3518487160 1.2000681237 -0.2624441477 -0.0061278242 0.0007397564 -0.0229888570
0.1686376343 1.3864937919 -0.4235105384 0.0022433716 -0.0063166337 -0.0542678524
-0.0179753527 0.7777942411 0.3743217380 0.0000105836 -0.0185189105 -0.0370378210
-0.2100682150 1.1467088461 -0.3454884795 -0.0048265188 -0.0041677549 -0.0543000382
-0.0998431411 0.7350599662 0.0925945525 0.0000105836 0.0000000000 -0.0555567315
0.2604512073 1.1928721751 -0.2777836575 -0.0026505468 0.0051276456 -0.0200045345
0.1590876174 1.1230640123 -0.3578239813 0.0016473589 -0.0052559261 -0.0545750996
-0.4814810895 0.0181604400 0.3074127291 0.0184534369 0.0001582441 -0.0366026266
-0.3580679402 1.2732991552 -0.3033092163 0.0000105836 -0.0044172231 -0.0484397475
-0.1506446053 1.4319294944 -0.4444538521 -0.0008626386 -0.0027514286 -0.0551377782
0.3968705578 0.3976020641 0.2719460525 -0.0179918530 -0.0042427565 -0.0368069272
-0.2140262987 1.2633216662 -0.2963025680 0.0023865598 0.0047519524 -0.0197455661
-0.3410260054 1.1680838911 -0.3003743209 -0.0103410985 -0.0027599473 -0.0517589104
-0.3621325077 1.0306320002 -0.2560512531 -0.0059993399 -0.0056074891 -0.0526723927
0.2290264311 1.4815128402 -0.4187505117 0.0001720314 0.0184463349 -0.0371992689
0.0700851964 1.0033777567 -0.3370191706 0.0051121175 -0.0036810224 -0.0543835956
-0.3029072356 1.0163354198 -0.2810166519 -0.0054623471 -0.0056457491 -0.0538022314
-0.1549192328 0.8148320621 0.4347956106 0.0000105836 -0.0185189105 -0.0370378210
-0.0571271444 0.9708663648 -0.3414776354 -0.0034010627 -0.0034950555 -0.0548505314
-0.3332231736 0.7592753306 0.0805507791 0.0000105836 -0.0185189105 -0.0370378210
-0.0234892842 0.7592753306 0.2484994821 0.0000105836 -0.0184143898 -0.0359822061
-0.1713020240 1.0015085134 -0.3271203685 -0.0061907144 -0.0036024096 -0.0540605517
0.0642305540 0.7446651510 -0.2261356754 0.0018774564 -0.0142173750 -0.0483228932
0.1312910846 1.3705875663 -0.4259349415 0.0003934065 -0.0082031551 -0.0535830971
-0.1312292314 0.5555673151 -0.2410275092 0.0000105836 0.0185189105 -0.0370378210
-0.3980222859 0.8148320621 0.1610282973 -0.0082713325 -0.0165638136 -0.0370378210
0.2050504791 1.0472489631 -0.3243910885 0.0020808311 -0.0046538763 -0.0546919910
0.1162385252 0.7407564201 0.1277213701 0.0011041437 -0.0180252149 -0.0333516874
-0.0396411817 1.3621553508 -0.4259349415 -0.0006648011 -0.0051254048 -0.0546570273
0.4177873339 0.3928135923 0.2740444302 0.0004241479 -0.0034861479 -0.0551894830
-0.2476539179 0.4881666477 -0.2847023225 -0.0098441436 -0.0014850129 -0.0218930190
-0.0914812419 0.7290321164 0.0713514362 -0.0031197420 -0.0176919115 -0.0330466625
-0.4099247971 0.8328615548 0.3303316587 -0.0139988426 -0.0115252810 -0.0336230265
-0.0692043074 0.7777942411 0.4483453233 -0.0011491817 -0.0172225682 -0.0324910766
-0.1642621528 0.7543272814 -0.1987599663 -0.0043012114 -0.0130392204 -0.0490440751
0.0607298688 0.7104009627 -0.1429969897 0.0026095089 -0.0172630506 -0.0427921650
-0.0294326693 1.4649038590 -0.3908069202 0.0023944673 0.0086605166 -0.0210672237
0.2272228558 0.7715330530 -0.1812150394 0.0092853354 -0.0137548467 -0.0448316156
-0.2441074169 1.2948241108 -0.2963025680 0.0074514077 0.0055328393 -0.0216291800
-0.3955026030 0.8399670756 -0.0518138930 -0.0142730892 -0.0100524906 -0.0425322151
0.2948127495 1.1004011252 -0.2353790748 -0.0025123402 0.0067386612 -0.0201568711
-0.3576021341 0.8889077041 0.0060804250 0.0064814427 0.0165449243 -0.0348875718
-0.1984293575 1.2005511894 -0.3687892505 -0.0024800988 -0.0040555118 -0.0548996991
0.2037130619 0.9968758783 -0.2190872114 -0.0046710896 0.0063645792 -0.0203113558
-0.0032340962 0.8148320621 0.1276833878 0.0014406323 0.0181343468 -0.0374631263
-0.3333298055 0.7749638849 0.1464179881 0.0173739511 0.0011555430 -0.0358822780
0.0965150151 0.8333509726 0.0568957784 -0.0049147800 0.0177284123 -0.0371486382
0.3467394967 0.2109041678 -0.3895299117 -0.0135732780 -0.0082360262 -0.0276238440
0.3204633109 0.8703887936 0.1002919006 0.0000105836 0.0185189105 -0.0370378210
0.1820312326 0.8333509726 0.1549492057 -0.0045031972 0.0177420978 -0.0357295711
0.2129696282 0.8518698831 0.2903660350 -0.0004994458 0.0184836320 -0.0372928264
0.3165988032 0.7489668161 0.1705351467 -0.0081748119 0.0151813584 -0.0305745546
0.2097150408 0.5370484046 -0.2608527806 0.0000105836 -0.0185189105 -0.0370378210
-0.3073550520 0.8612793786 0.2485018155 0.0043010818 0.0174830367 -0.0409611263
-0.2105778739 0.7407564201 -0.1219571740 -0.0067498744 -0.0164199216 -0.0417664026
-0.3888865370 0.9796927183 -0.1738613097 -0.0121627852 0.0063455417 -0.0306922793
0.0622274560 1.4590630131 -0.3849662781 -0.0008471939 0.0082395448 -0.0205587315
-0.0927868251 0.7729153600 -0.2380020933 -0.0066824100 -0.0112985910 -0.0498856670
0.3068285964 0.8906705562 -0.1296323735 -0.0075089089 0.0127589923 -0.0270521467
0.2912629706 0.8703887936 0.1375737083 -0.0022479272 0.0179857511 -0.0370378210
-0.1635249335 0.9991699084 -0.2218012689 0.0014265765 0.0069181094 -0.0199974974
-0.3230414210 1.1288688203 -0.2439137184 0.0039077772 0.0075207333 -0.0206280477
-0.2145770326 1.3243164388 -0.3888971205 -0.0027288263 -0.0048022868 -0.0546634719
-0.3633431074 0.9744777746 -0.1761723031 0.0051961192 0.0125510064 -0.0244868146
-0.2396824714 0.8518698831 0.1301610514 0.0021132577 0.0181965518 -0.0359864839
-0.1793645280 0.9605064233 -0.3135830264 -0.0011639413 -0.0047279890 -0.0547740668
0.1564627840 1.4815128402 -0.4511929021 0.0000105836 0.0034789070 -0.0370378210
0.1785485293 0.8201348225 0.4629727996 0.0000105836 -0.0059489778 -0.0221955809
0.2514959067 0.7777943152 0.2715662482 0.0012421652 -0.0184213899 -0.0359776319
0.2727160780 0.7541971490 -0.0225492551 0.0071993098 -0.0170584722 -0.0370378210
0.1680960303 1.4639825247 -0.3888971205 -0.0011559782 0.0129649411 -0.0239184878
0.1402350331 0.9215885625 -0.3023443441 0.0043102672 -0.0046877659 -0.0543946514
0.2934086457 0.8596771039 0.2627138756 -0.0045039009 0.0174167390 -0.0409110882
0.1015682332 0.8237951592 -0.1000667107 -0.0066791506 0.0171733265 -0.0358396845
-0.0271416393 0.7460492173 0.1825487528 0.0000105836 -0.0181592918 -0.0334059664
0.3585020235 0.9868073504 -0.1851891050 -0.0025627302 0.0025733137 -0.0199639596
-0.3008922485 1.1996219476 -0.2664705292 0.0038647762 0.0043899448 -0.0194780419
-0.3518008816 1.0816471726 -0.2815588486 -0.0022930763 -0.0072359865 -0.0531588845
0.2042176837 1.4806465996 -0.4250686640 0.0048890942 -0.0098290414 -0.0519226361
0.3073721635 0.3223685272 -0.3469054910 -0.0154311137 -0.0083558250 -0.0318182476
-0.0187218870 0.7592753306 0.2675104586 -0.0000235098 -0.0183931486 -0.0360385406
-0.0588608663 0.8518698831 0.3648915754 0.0000105836 0.0185189105 -0.0370378210
-0.3351518626 0.8881175577 -0.2024019323 -0.0113961208 -0.0089668935 -0.0483153745
0.4444644356 0.8881716700 0.1364402398 0.0185294941 0.0000000000 -0.0370378210
0.3029721629 0.9452381372 -0.2622520695 0.0081651265 -0.0058252714 -0.0525210747
-0.2679931818 0.7494954384 0.0192799636 -0.0061505654 -0.0174606103 -0.0370378210
0.3205634056 1.4009896543 -0.3333403890 0.0048659086 0.0047972682 -0.0219816319
0.4134023892 0.3279561825 0.2970984367 -0.0178572761 -0.0037941914 -0.0344707296
0.2237653382 1.2319955587 -0.2963025680 0.0000105836 0.0000000000 -0.0185189105
-0.2361929716 0.4720573437 -0.2953333623 0.0168208468 -0.0076869405 -0.0370378210
0.2246428383 0.7777942411 0.3752178866 0.0008331380 -0.0183462402 -0.0366852950
0.2965898612 0.9068015643 -0.1666701945 0.0000105836 0.0000000000 -0.0185189105
0.3840858983 0.1032437038 -0.4404013959 -0.0113725278 -0.0092983264 -0.0257927311
-0.2245145022 0.7777942411 0.4089917496 -0.0038345349 -0.0175810573 -0.0345169899
-0.1731914900 0.8333509726 0.1962605986 0.0017396572 0.0178218772 -0.0404959683
