-0.3500000050 0.7392226254 -0.1005775133 -0.0159411161 -0.0033910332 -0.0022606833
0.4166666361 0.9209401193 0.1041193465 -0.0161102661 0.0024761666 0.0010516666
0.3655940378 0.7368455088 -0.0258362825 0.0154139828 -0.0047850498 -0.0036491999
0.0868044138 0.5166666494 -0.0941604469 -0.0000000167 -0.0166666661 0.0000000000
-0.2666666744 0.0605577646 -0.1170120628 0.0166666494 0.0000000000 0.0000000000
0.3104356563 0.6465589951 0.1222467293 0.0083835497 -0.0136581162 0.0045526998
-0.2500000250 0.0804594473 -0.4666605511 0.0166666494 0.0000000000 0.0000000000
-0.0594752814 0.6129342129 0.1296009123 0.0002493333 0.0158051661 -0.0052683832
0.3666666711 0.8312395390 -0.0628751812 -0.0164832995 0.0020349833 0.0010720000
-0.1400165787 0.5499999817 -0.1851035938 -0.0000000167 -0.0166666661 0.0000000000
-0.2678272577 0.8945353535 -0.3278687057 0.0091672497 0.0082151997 0.0106885996
-0.3867703871 0.9367703521 -0.1053266132 0.0148131662 0.0063338165 0.0039039665
-0.3878790204 0.9089357030 -0.0709788810 0.0147565328 0.0067517998 0.0036855332
-0.2257357425 0.7587697080 -0.2998503233 0.0080812497 0.0060842998 0.0130767996
0.3228954392 0.6415563453 0.0709011976 0.0114326663 -0.0119955829 -0.0015651666
0.4076443697 0.7243110425 0.2865277904 0.0063723331 -0.0117009496 -0.0096578997
0.1360844288 0.8170820561 -0.3834717872 0.0042076165 -0.0041256332 -0.0155651828
-0.1643933612 1.0221975659 -0.4377783354 0.0031651666 0.0079690664 0.0141990829
-0.2091157764 0.4718124176 0.0551457315 -0.0000000167 0.0128445162 -0.0106014830
0.0873796471 0.5166666828 -0.1318629456 -0.0000000167 -0.0166666661 0.0000000000
0.1745960942 0.6166666461 0.1794030274 0.0025067999 -0.0160428328 0.0035680165
-0.0766859141 0.7004485933 -0.3333333222 0.0037244332 0.0047088665 0.0154646995
0.3499999717 0.7116159263 0.1221423293 -0.0146399995 0.0076739831 -0.0000191500
-0.1433266952 0.5723359309 -0.0253147492 0.0046739332 0.0151516828 -0.0049470832
-0.3795040207 0.8236859392 0.0019886833 0.0147944662 0.0060599498 0.0046004332
0.0830955139 0.5333333156 -0.1721575609 0.0008575166 -0.0163209661 -0.0017150666
-0.3333333389 0.7751800242 -0.1429668286 0.0157746328 0.0034059332 0.0027247499
-0.2544001582 0.6114368796 -0.1315263123 0.0108999163 0.0125650662 0.0000000000
-0.4371140854 0.9666666344 -0.1857475605 -0.0000000167 -0.0166666661 0.0000000000
0.1529873616 0.9627995512 -0.4328934856 0.0048324498 -0.0059125998 -0.0147501495
-0.1697391777 0.6191068460 0.2018079266 -0.0047409498 -0.0151467828 0.0050339665
0.2666666411 0.0607844146 -0.3300312557 -0.0166666828 0.0000000000 0.0000000000
-0.4430010519 0.8071911898 0.2499999917 0.0038890999 0.0099870997 0.0124299996
0.0268705824 1.1298250457 -0.5149124995 -0.0000000167 0.0090564497 0.0139769162
-0.3333333389 0.0805367640 0.4778365341 -0.0166666828 0.0000000000 0.0000000000
0.0494970484 0.5499999817 -0.2309012923 -0.0000000167 -0.0165418661 -0.0007690833
-0.1285379457 0.9593548847 -0.4213834693 0.0040816665 0.0054865832 0.0151097162
-0.2051031432 0.4168037194 -0.0462541985 0.0161844495 0.0000000000 0.0039769332
0.3833333039 0.8685128210 -0.1498242783 0.0138295995 -0.0065115831 -0.0065115831
0.0630348646 0.7022516099 -0.3362750221 -0.0029789499 0.0052172998 0.0154328995
0.2420340753 0.1072310798 -0.3133624229 -0.0160985661 -0.0037319499 -0.0009805333
-0.4826613672 0.9833333006 0.0361336988 -0.0143309829 0.0078854831 0.0003527000
-0.3280944891 0.1166666628 0.5365756821 -0.0000000167 0.0166666661 0.0000000000
-0.4004115533 0.9337448522 -0.0135665329 0.0160877328 0.0025584666 0.0020681833
0.0476301151 0.5333333156 -0.1470244284 -0.0000000167 -0.0166666661 0.0000000000
0.1451671785 0.5954634802 0.1075936131 0.0006787333 -0.0157965995 0.0052520832
-0.4310624856 0.9833333006 -0.1132943962 0.0086118497 0.0129882162 0.0015279666
0.4333333022 0.9177980694 0.0524815983 0.0162481161 -0.0030592332 -0.0015296166
-0.2532204582 1.0628828979 -0.4628829179 -0.0087016830 0.0129957162 0.0050897665
0.3166666394 0.0032660832 0.0548154815 0.0166666494 0.0000000000 0.0000000000
0.2999999733 0.0801761307 -0.3472799884 0.0166666494 0.0000000000 0.0000000000
0.1971190434 0.7872693738 -0.3548742548 0.0054416332 -0.0052041165 -0.0148340162
-0.1483378451 0.6312839290 0.1792344940 0.0015586666 0.0157246995 -0.0052793998
0.4293688190 0.7815658906 0.2644696245 -0.0061090998 0.0095924830 0.0117896663
0.1158343628 1.1027734966 -0.4861068171 -0.0017197666 0.0088473164 0.0140065662
-0.2508628083 0.8577582381 -0.3284477391 0.0087372330 0.0069161664 0.0122141496
0.0337155155 1.1101708297 -0.5297032157 0.0066143831 -0.0052334665 -0.0143089995
-0.4544642849 0.8792914374 0.1833333272 -0.0072761998 -0.0072761831 -0.0124055829
-0.4696461010 0.9833333006 0.0639694979 -0.0046231665 0.0143881329 0.0045949998
-0.0271765658 0.6725283776 -0.3445975218 -0.0000000167 -0.0074535664 -0.0149071162
-0.1971980434 1.1097343130 -0.4974503668 -0.0081188664 0.0140709995 0.0029513999
-0.3610491546 0.6831394606 0.3501938717 -0.0034875666 0.0099305163 0.0127231329
-0.1577522281 0.6571491614 0.4095175030 -0.0000000167 0.0136730829 0.0092819830
0.1535394782 0.5999999133 0.0713191476 -0.0005317500 0.0157980995 -0.0052660332
0.2756852908 0.0833333306 -0.3473201051 -0.0000000167 0.0166666661 0.0000000000
0.0245980658 1.0306177490 -0.4653088678 0.0004215333 0.0071759664 0.0150256328
-0.0299985490 0.9082121864 -0.4124394529 -0.0000000167 0.0071330331 0.0150510495
0.2855112405 0.0999999967 -0.4064577365 -0.0000000167 0.0157070495 0.0042802832
0.3142045729 0.6982519601 -0.1707167776 0.0143588495 -0.0067664498 -0.0050748332
-0.3000000067 0.0854299805 0.5448049318 0.0166666494 0.0000000000 0.0000000000
-0.1062147631 0.9447431185 -0.4171455861 -0.0011161500 0.0070268664 0.0147455162
-0.4282665357 0.9615998346 -0.1530697782 -0.0117190329 -0.0117190163 -0.0016642166
-0.4091783530 0.9142708195 -0.0601849647 -0.0138953995 -0.0081741997 -0.0040870999
0.0327986322 1.0301566657 -0.4898109837 -0.0018978333 -0.0071636831 -0.0148688995
-0.0876252804 1.0774620974 -0.4970644168 -0.0009543833 -0.0068010164 -0.0151551495
0.3833333372 0.7391013254 0.0682980977 0.0153961662 -0.0059581998 -0.0018611666
0.2682486577 0.0199363160 -0.1135026295 -0.0164023995 0.0000000000 0.0027473999
0.4099980697 0.9766647008 -0.1577629114 -0.0092070830 0.0137674995 0.0016597666
0.2666666411 0.0363233655 -0.3825508039 -0.0166666828 0.0000000000 0.0000000000
0.2572770748 0.6666666444 0.3513711216 -0.0000000167 -0.0166666661 0.0000000000
-0.0724035309 1.0322683656 -0.4799324173 -0.0048287165 -0.0066324664 -0.0144860829
-0.3333333389 0.0695620477 0.5001313667 -0.0166666828 0.0000000000 0.0000000000
0.2504198417 0.3098750063 0.0794102640 0.0109799330 0.0109799496 0.0060527665
0.4166666361 0.9132181529 0.1348107122 -0.0127866662 0.0083334664 0.0045844498
0.1479111451 0.5999999800 0.1275520624 0.0003692833 -0.0163583328 0.0018906833
-0.0913159470 1.0352266655 -0.4588475347 0.0032764999 0.0066332998 0.0149236162
0.3069647231 0.7266808591 -0.1660776445 -0.0148524162 0.0053218832 0.0052715832
0.1204753627 0.6499999783 0.3176984727 0.0000675833 -0.0165811994 0.0004055833
-0.0691663977 0.6332123789 0.1832123606 0.0005043666 0.0157987828 -0.0052662665
-0.1105402130 0.8156790061 -0.3894597870 -0.0045041498 -0.0039053332 -0.0155362328
0.2668436078 0.0388858320 -0.1163127128 -0.0163632995 0.0000000000 0.0029248999
-0.4228801692 0.9499999683 0.0708088310 0.0131786996 0.0088682830 0.0032835499
0.4819174173 0.9039769199 0.1626895779 -0.0000000167 -0.0117851163 -0.0117851163
0.1159415295 0.9559045515 -0.4241903859 -0.0031631166 0.0055447498 0.0153150995
0.2565013081 1.0370845488 -0.4204179027 -0.0005445166 0.0106431163 0.0118962329
0.0003773000 1.1751191108 -0.5666666478 -0.0000000167 0.0000000000 -0.0166666661
-0.0991259467 0.7120721596 -0.3477027717 -0.0008438666 -0.0069243998 -0.0149714662
-0.3122674396 0.0496619317 0.4159905361 -0.0000000167 -0.0159784828 0.0046340332
0.0220422826 0.5833333139 0.0882138637 -0.0000000167 -0.0165414328 0.0007716833
0.0749540142 0.3005161233 -0.2224862093 0.0046588998 0.0000000000 0.0160006328
-0.2409155420 0.3055319065 0.2435078252 -0.0150290995 0.0009656666 -0.0064891665
0.0447920485 1.0716226809 -0.5052079332 0.0049745332 -0.0053639332 -0.0149236495
-0.4479880684 0.9666666344 -0.2735725075 -0.0000000167 -0.0166666661 0.0000000000
0.0884999137 0.6166666461 0.1574264948 -0.0015064166 0.0157439995 -0.0052479998
0.3619485879 0.7166666428 0.2455723751 -0.0099972163 0.0130485162 0.0007625166
-0.1708236943 0.6666666444 0.3981693201 -0.0000000167 0.0152412828 0.0063416998
0.2652853745 0.6333333122 0.1755299941 0.0051860832 -0.0148983328 0.0050346665
0.2666666411 0.0798593640 -0.4166555028 -0.0158119828 0.0000000000 0.0052669332
-0.4366127354 0.9666666344 -0.0823761639 -0.0094879830 -0.0127223662 0.0000000000
-0.2471842084 0.1276774624 -0.3037705565 -0.0000000167 0.0080536164 -0.0145832328
-0.3166666728 0.0187098160 0.1969384601 -0.0166666828 0.0000000000 0.0000000000
0.0009840166 0.5999999800 0.1073718131 -0.0000000167 0.0160498828 -0.0038008165
-0.3274869724 0.6752078775 0.0630993646 0.0132740662 0.0099632163 0.0011036333
0.0971475801 1.1666666278 -0.5433632986 0.0022139999 0.0162286328 -0.0001729667
0.1374907288 0.6666666444 0.3612645380 0.0005111500 -0.0151082495 -0.0031765166
0.3815504039 0.7835703239 -0.0204693827 0.0141415662 -0.0075358997 -0.0044960665
0.3450314885 0.6783648607 0.1536319115 0.0095821330 -0.0133664829 0.0018150166
-0.3773688374 0.9837512672 -0.3448713885 -0.0036635665 0.0158320495 0.0036635499
-0.2156334261 1.0285181990 -0.4285182190 0.0029248166 0.0094480830 0.0133855829
0.0978270634 1.0971442801 -0.4891523837 -0.0020919166 0.0081599831 0.0143432995
-0.1225798126 0.6120361796 0.1757462775 -0.0014188666 -0.0157264828 0.0052421665
0.1469818451 0.5499999817 -0.0739766975 -0.0000000167 -0.0166666661 0.0000000000
-0.4166666694 0.7478922917 0.3003198233 0.0011775166 0.0103599497 0.0126555496
0.2749469575 0.6440985119 -0.1691515610 -0.0142886829 0.0070267498 0.0047504998
-0.1597832280 0.6072419298 0.0905752636 0.0010335333 0.0157589328 -0.0052529832
-0.2411134420 0.6720905109 -0.2782651241 -0.0100809663 -0.0067279164 -0.0111179996
0.1538834949 0.8990009700 -0.3828338539 -0.0046758665 0.0059333331 0.0148304495
-0.4736812675 0.9666667011 0.0256863658 -0.0000000167 -0.0166666661 0.0000000000
-0.2708783910 0.6011353633 -0.1147256295 -0.0109593996 -0.0118911829 -0.0038556665
-0.3565596548 0.8144795395 -0.1680269277 -0.0141689162 -0.0075447497 -0.0039966332
0.4698822010 0.9833333006 -0.1633323112 -0.0000000167 0.0166666661 0.0000000000
-0.0937136635 0.6034965299 -0.3034965399 -0.0004982500 -0.0110565163 -0.0123020996
-0.2563093915 0.6499999783 0.1787809440 0.0019153333 0.0156343661 -0.0049731665
-0.3305176556 0.0437439985 0.2943685735 -0.0153574828 0.0000000000 -0.0064506998
-0.2380684754 0.7208815593 -0.3028528066 -0.0085647997 -0.0057123165 -0.0130918496
0.0233073159 0.5999999800 0.1607184946 -0.0000000167 -0.0158113828 0.0052704665
-0.1691704110 0.9937104835 -0.4420626519 -0.0041551999 -0.0061211998 -0.0147614162
-0.0873512138 0.5999999800 0.0857234471 0.0001883500 0.0165369661 -0.0007534666
0.2092811930 0.2288915090 -0.2642048412 -0.0052704832 0.0000000000 -0.0158113828
-0.1992938100 0.5666666478 -0.0259926658 -0.0004820833 -0.0165891994 0.0006008833
0.2908420236 0.6666666444 0.3521645049 -0.0005535666 -0.0144649662 -0.0079977497
0.3833333039 0.8418703386 -0.0748671808 0.0163536995 -0.0016181499 -0.0008090833
-0.3344401055 0.8903231037 -0.2851680405 -0.0138749995 -0.0043827832 -0.0080111997
0.3257392891 0.0496060817 0.4158787861 -0.0000000167 -0.0158034328 0.0052921998
-0.2670518911 0.6230776292 0.0620514313 0.0087805997 0.0133918329 -0.0046112165
0.3499999717 0.9103811030 -0.2327413422 -0.0147339828 0.0053682832 0.0053682832
-0.2667929411 0.6074375631 -0.0738516809 0.0116514829 0.0111112163 0.0033987999
-0.2666666744 0.0419426319 -0.3149223562 0.0166666494 0.0000000000 0.0000000000
0.3122996729 0.8138468729 -0.2612904413 0.0120588329 -0.0050811165 -0.0102125330
0.2654209912 0.8433737219 -0.3112860563 -0.0105858163 0.0045763332 0.0120189329
0.3808267873 0.6845693938 0.3191731727 -0.0086839664 -0.0028704166 -0.0113391830
0.2759074908 0.9598432847 -0.3892905037 0.0064495331 -0.0088227497 -0.0124747329
0.2632512579 0.6845446105 -0.2225046926 -0.0123483996 0.0066763164 0.0088761830
0.3049936065 0.8576438047 -0.3076438731 0.0113713496 -0.0070129331 -0.0096674497
-0.3624492046 0.6845963605 0.3208841226 -0.0003375667 -0.0119046829 -0.0115671329
0.2029795599 0.9592328014 -0.4031266032 -0.0038526499 0.0068184331 0.0144578495
-0.2960008068 0.0833333306 -0.3795813040 -0.0000000167 0.0166666661 0.0000000000
-0.3314598390 0.6814597940 0.0447627985 0.0123119996 0.0111285663 -0.0000281667
-0.3094197730 0.9046007532 -0.3239135559 -0.0118052829 -0.0049753165 -0.0106161663
0.3655915211 0.6989248600 0.0720554476 0.0144843495 -0.0080572831 -0.0011934833
0.3166666394 0.6196877627 -0.0182476494 0.0121296496 -0.0113481663 -0.0000465667
-0.1599989447 0.6166666461 0.1253897458 0.0020013999 0.0163156328 -0.0019834333
0.4126868196 0.8282486891 0.0652291478 0.0152482828 -0.0054014998 -0.0035529332
0.1243899459 0.5410566153 -0.0826765972 0.0117850996 -0.0117851163 0.0000000000
0.2797582073 0.9263007858 -0.3535750882 -0.0100916663 0.0065002331 0.0111801663
0.0395375320 0.8800140040 -0.4211158026 0.0001406000 -0.0059437165 -0.0155623995
0.2680480077 0.6666666444 0.2022468099 -0.0037360999 0.0155860495 -0.0045109332
0.0142775995 0.5666666478 -0.2435924085 -0.0000000167 0.0155835828 0.0045879998
0.1660992111 0.6499999783 0.2483635417 -0.0001220833 0.0158256328 -0.0052137332
-0.1346668288 0.9410685520 -0.4358674855 -0.0030344832 -0.0065214998 -0.0150124328
0.2837235239 0.7335412755 -0.2164844928 -0.0141428662 0.0052793998 0.0070582831
0.2244384259 0.3730604709 0.2374935588 -0.0118190996 0.0011631833 0.0116883496
-0.4993625000 0.9673042011 -0.1581901447 -0.0117173163 0.0115421496 -0.0018202666
-0.3131277729 0.0499999983 0.3310851056 -0.0000000167 0.0166666661 0.0000000000
-0.3000000067 0.6271390124 -0.1023554133 -0.0129925829 -0.0094086497 -0.0044118999
-0.2668886911 0.0166666661 -0.3068603398 -0.0000000167 -0.0155403661 -0.0037524999
0.2431027086 0.5764360308 -0.0338886655 0.0077675664 -0.0144959495 0.0012426500
0.1356394121 0.5513000316 -0.0156605828 0.0034940332 -0.0156108995 0.0045436498
0.4859003671 0.9734890342 -0.1812211606 0.0129347662 0.0101363163 -0.0024502499
-0.3107224230 0.8490866050 -0.2726109076 0.0129424162 0.0060235998 0.0082938497
-0.0560191815 0.5666666478 -0.2443660419 -0.0000000167 0.0155019161 0.0049339832
0.0344373155 0.8163246561 -0.3748289875 -0.0011559333 0.0058377165 0.0155153161
-0.0899406970 0.6666666444 0.3333270556 -0.0000000167 0.0166666661 0.0000000000
0.1057690798 0.6666666444 0.3735687209 -0.0007381666 -0.0136699329 -0.0035044832
-0.0311594323 0.8577537881 -0.4122102529 -0.0000000167 -0.0061898498 -0.0154746162
-0.1624063613 0.8020181399 -0.3521301549 0.0042905499 0.0045221665 0.0154098495
-0.0852373138 0.5429925152 -0.2026517766 -0.0014063500 -0.0157952995 -0.0047971665
-0.3560093548 0.7577197747 -0.1025885132 -0.0156473161 -0.0047660165 -0.0028842832
0.0900013137 0.5973571634 -0.2740225075 -0.0042844332 0.0083028164 0.0136380662
-0.2901583403 0.9021603533 -0.3143343229 0.0098528330 0.0070968331 0.0112280163
-0.4294452024 0.7332814256 0.3000518733 -0.0018608666 0.0109290496 0.0118675829
-0.2833333406 0.0191853327 0.1121972129 0.0166666494 0.0000000000 0.0000000000
-0.4236961359 0.8403627720 0.1540454782 -0.0147577162 -0.0068126664 -0.0028249999
-0.4242546359 0.9694857010 -0.3424120219 -0.0111881330 0.0044093832 -0.0094904330
-0.3966403034 0.9543124182 -0.1410055120 0.0123216829 0.0097479830 0.0047588498
-0.0545131315 0.8449657218 -0.4058161865 -0.0003935500 -0.0062175498 -0.0154258162
0.0509328816 0.5999999800 0.1405834286 -0.0000000167 -0.0158113828 0.0052704665
0.2480456251 0.5980456467 0.0583545481 0.0058062331 -0.0146725162 0.0050642332
0.2970895568 0.6256793791 -0.1071796798 0.0131661996 -0.0092583330 -0.0042685332
-0.2539393415 0.6654245778 -0.2602432080 -0.0116832996 -0.0067253164 -0.0096292997
0.0857283138 0.5999999800 0.0727193476 -0.0001887667 0.0161149161 -0.0033540832
0.2219849759 0.6500568117 0.2667234578 0.0029299666 -0.0159551495 0.0036494165
-0.2519143749 0.0611442313 -0.4611442013 -0.0000000167 -0.0158113828 -0.0052704665
0.2566113748 0.5833333139 -0.0218693659 0.0063881498 -0.0151442995 0.0001391833
-0.3791878040 0.8695181210 -0.1541455282 -0.0144530495 -0.0055216831 -0.0057838665
0.1328747456 0.8792020540 -0.3833333206 -0.0034680332 0.0054463665 0.0152898328
0.1878901437 0.7695483243 -0.3264408391 -0.0066997831 0.0058870331 0.0140589495
-0.4000000033 0.8499703383 0.1008423466 0.0166666494 0.0000000000 0.0000000000
-0.2323361089 0.6833333106 0.3284900891 0.0013811833 0.0161600995 -0.0019081166
-0.3000000067 0.0497146650 -0.1042166799 -0.0166666828 0.0000000000 0.0000000000
0.2319354756 0.9075760197 -0.3544869049 -0.0043481832 0.0049414832 0.0151489662
0.3082819731 0.0441587485 -0.1084873631 0.0162554828 0.0000000000 -0.0036578165
-0.1117214963 0.5499999817 -0.0818062639 -0.0000000167 -0.0166666661 0.0000000000
0.4169567194 0.9833333006 -0.1782960607 -0.0075249164 0.0148088995 0.0002654833
0.3223164893 0.8501687050 -0.2280208591 -0.0137484662 0.0078526497 0.0049193998
0.3213538226 0.6987043767 -0.1446650118 0.0132292829 -0.0080655164 -0.0060491331
0.3095887230 0.8132205729 -0.2386882087 -0.0142881162 0.0032996332 0.0075158164
-0.1261823791 0.9616779679 -0.4457179185 -0.0015659499 -0.0069784164 -0.0149139995
-0.1189383960 0.2727600576 -0.2537876749 0.0029685166 0.0000000000 -0.0163902995
-0.0256393158 0.6175515294 0.2175515094 -0.0000000167 -0.0158113828 0.0052704665
-0.0740473142 0.5666666478 -0.0926278969 -0.0000000167 0.0160005495 -0.0041048332
-0.4019961699 0.8714570043 0.0992019634 0.0148522328 0.0054781665 0.0051783498
0.3166666394 0.0243675325 0.1955028768 0.0162361661 0.0000000000 -0.0034968999
0.1154168295 0.6165136794 -0.3165136561 0.0067612831 -0.0050813832 -0.0142626662
-0.1296913123 0.6166666461 0.1354123288 0.0009632666 0.0163370328 -0.0019630833
0.1267430958 0.6192031627 0.1550729782 -0.0002790500 0.0157754161 -0.0053514832
-0.2792123240 0.8455283218 -0.3018851733 0.0105735830 0.0046781832 0.0119425829
0.1410445120 1.0784061141 -0.4680586677 -0.0012400166 0.0078548664 0.0146073995
-0.4435950685 0.9769283008 0.0212756326 0.0104937997 0.0125062996 0.0026111499
0.3181214394 0.6522165783 0.3826059206 0.0083893331 0.0012227833 0.0138046162
-0.2833333406 0.0556349148 0.0090002164 0.0153739662 0.0033152999 0.0016631999
0.4526162182 0.9262185025 0.1571148114 0.0004554167 0.0117568663 0.0117568663
0.2689006577 0.6666666444 0.2900593903 0.0025504999 -0.0161886661 0.0020744666
-0.0769010974 0.5542393815 -0.0124272663 -0.0000000167 -0.0155813828 0.0058257665
0.3833333372 0.7852515238 0.1052808965 -0.0156980661 0.0045375332 0.0024638333
-0.1892543604 0.5629335812 -0.0429873986 -0.0040304332 -0.0153577828 0.0046805665
-0.2666666744 0.0148832995 -0.2379701087 0.0166666494 0.0000000000 0.0000000000
0.4283030524 0.9783031174 -0.1008373966 -0.0104988663 0.0126445162 0.0012111666
0.1266251124 0.9298970190 -0.4099692530 -0.0033937332 0.0066536664 0.0148612995
-0.0547620315 0.9441978852 -0.4447179685 -0.0038957665 -0.0065048664 -0.0147142162
-0.4102501530 0.9833333006 -0.2676182411 -0.0000000167 0.0166666661 0.0000000000
-0.0959291801 0.5666666478 -0.0840623139 -0.0000000167 0.0162203161 -0.0027504999
-0.0940938969 0.4833333172 0.2006093100 -0.0000000167 -0.0166666661 0.0000000000
-0.3333333389 0.7307079090 -0.1793343774 -0.0147849828 -0.0052897165 -0.0052677498
0.4166666361 0.8896632203 0.0500874150 0.0149891162 -0.0055348831 -0.0030408499
-0.1194355460 0.6499999783 0.2613241080 0.0014674000 0.0157718495 -0.0051415665
0.0773702641 1.0575829481 -0.4666202678 -0.0034071332 0.0062247831 0.0150666828
0.1432117452 0.5666666478 -0.0910084136 -0.0000000167 0.0166666661 0.0000000000
-0.1978648267 1.1021351799 -0.4798045340 -0.0048782498 0.0121655663 0.0096409497
-0.4408238186 0.9833333006 -0.2177873594 -0.0000000167 0.0166666661 0.0000000000
-0.4104171197 0.9208341860 0.0116327163 0.0157318328 0.0044616665 0.0021895166
-0.2959924068 0.0802687807 -0.2772042241 -0.0000000167 0.0158510161 0.0049648332
-0.1433804952 0.5166666494 -0.1007452633 -0.0000000167 0.0166666661 0.0000000000
0.2942744069 0.6833333106 0.2773988241 -0.0034289999 0.0161825661 -0.0017144999
-0.2157019095 0.9494872684 -0.3918927036 0.0080178497 0.0065739164 0.0128535829
0.2225384092 0.6833333106 0.3406253053 -0.0017720333 0.0162641328 -0.0005745500
-0.0792377140 1.0952549968 -0.5059608331 -0.0001873833 -0.0074387331 -0.0147120162
0.3069858231 0.0000000000 0.0720898809 -0.0000000167 -0.0166666661 0.0000000000
0.4146553362 0.9499999683 -0.1695200110 0.0099574330 -0.0129706996 -0.0030132499
-0.2032128932 0.6166666461 0.1692737444 -0.0027556832 -0.0157160995 0.0044522165
-0.2500000250 0.0506950316 -0.4247758358 0.0166666494 0.0000000000 0.0000000000
0.1425316286 0.5666666478 -0.1821515939 -0.0004531833 0.0165725494 0.0000906333
0.3830789872 0.7497456583 0.0255178658 0.0155219995 -0.0048479998 -0.0022090333
0.3938322369 0.8117951396 -0.0228344159 0.0151212828 -0.0043241999 -0.0051685498
-0.3666666711 0.7219163093 0.1868440938 0.0141007162 0.0087577497 -0.0012034666
-0.1016813299 0.6040062965 -0.2706730076 0.0039940999 0.0091407664 0.0131348829
-0.4333333356 0.9421407353 0.0483073151 -0.0147366995 -0.0055019498 0.0000000000
-0.3666666711 0.9633994679 -0.2924734736 -0.0109686163 -0.0113854163 -0.0043128999
-0.3500000050 0.8126837729 -0.1363068288 0.0152331828 0.0045330998 0.0046455665
-0.4666666678 0.8184122394 0.2260641591 -0.0166666828 0.0000000000 0.0000000000
0.0133600829 0.9024397866 -0.4095532030 -0.0000000167 0.0069141998 0.0151493328
0.0865936638 1.1176394961 -0.5004864167 -0.0020264333 0.0091899830 0.0137365662
0.3666666378 0.7010290600 0.1568892781 0.0142028829 -0.0086553830 -0.0001266667
-0.3651428545 0.7136190095 0.0263805325 -0.0157865495 -0.0050806332 0.0006018333
0.2999999733 0.0470545651 -0.1552205282 0.0165541161 0.0000000000 -0.0010902166
-0.3127993062 0.6611626113 0.0761927308 0.0102407997 0.0126758996 -0.0030769999
-0.3513810550 0.9027621366 -0.2068821764 0.0142660495 0.0060008498 0.0059224165
-0.2833333406 0.0356444821 0.2908959570 0.0166666494 0.0000000000 0.0000000000
0.0059855165 0.6499999783 0.3355203221 -0.0000000167 -0.0161829161 0.0029810332
-0.0334493656 0.9417176853 -0.4458588851 -0.0000036833 -0.0071331498 -0.0150504162
0.0605761980 0.5864758638 0.0396184153 -0.0000000167 0.0158113828 -0.0052704665
0.0413087153 0.6446812785 0.2280146257 -0.0000000167 0.0158113828 -0.0052704665
0.1120372296 0.6666666444 0.3203103893 -0.0000000167 0.0166666661 0.0000000000
-0.3859998038 0.8200156893 0.0686505310 0.0160786495 0.0030819832 0.0015409833
0.1102097297 0.5666666478 -0.0433842486 -0.0000000167 0.0164969161 -0.0010460500
0.1908235603 0.6666666444 0.3064123731 -0.0011259666 0.0165923828 -0.0009389666
-0.1799398607 0.5799397640 -0.2049242265 0.0128017162 0.0076815164 0.0069365498
-0.0577282147 0.5833333139 0.1637608279 -0.0000000167 -0.0166666661 0.0000000000
0.3617812879 0.6870966438 0.3462366551 0.0006204333 0.0114328496 0.0120532829
-0.2775134741 0.6499999783 0.3825160539 0.0007785666 -0.0103507663 -0.0125302162
-0.2451950752 0.1072130631 -0.3087067564 -0.0000000167 -0.0063130998 0.0153795162
-0.3223398559 0.9852977505 -0.3782333541 -0.0013395833 -0.0139267162 -0.0087096997
0.1368396788 0.5803896973 0.0607793980 0.0011436000 -0.0157101995 0.0053420665
-0.1717798276 0.4988494000 -0.1170501961 -0.0000000167 -0.0071191664 0.0146688162
0.1594071280 0.6166666461 0.1237081125 -0.0019495666 0.0162762161 -0.0021991333
-0.1137046795 0.6499999783 0.3103975897 -0.0001650000 -0.0165016828 0.0009898500
0.2330291922 0.6666318111 0.3999999867 0.0037879999 0.0115094663 0.0114217496
0.3653520045 0.7640373579 0.0255973658 -0.0154243662 0.0044956332 0.0038104499
-0.1784915774 0.6533253782 0.2566507414 0.0010651166 0.0158105828 -0.0049482832
0.2714048410 0.0666666644 -0.2400449087 -0.0000000167 0.0163803995 0.0027294332
-0.3000000067 0.0628413646 -0.3547014048 -0.0166666828 0.0000000000 0.0000000000
0.3333332722 0.7203018593 -0.0837232472 -0.0161295828 0.0021827666 0.0014661333
0.1376443121 0.4057462531 0.2258623591 -0.0000000167 -0.0052704665 -0.0158113828
0.1119929129 0.6408385453 0.4333333189 0.0007018166 0.0052778498 0.0144392995
-0.0498091483 0.6596253447 -0.3214793393 0.0003828000 0.0084110331 0.0142981329
-0.0725758476 0.5831495806 -0.0001837167 -0.0000000167 0.0149170828 -0.0074294998
-0.3491698550 0.8568312714 -0.2341634589 -0.0148016162 -0.0039529999 -0.0065143664
0.2257893758 0.6248644292 -0.2239395425 -0.0114395330 0.0097904497 0.0069939664
0.2666666411 0.0330476156 -0.2199896927 -0.0166666828 0.0000000000 0.0000000000
-0.4631396679 0.8968965868 0.1864367105 -0.0078790497 0.0081785831 0.0121180996
0.3333333056 0.0556492481 0.3859764371 0.0166666494 0.0000000000 0.0000000000
0.4457185185 0.9833333006 -0.0582943981 -0.0000000167 0.0166666661 0.0000000000
0.3186083227 0.0833333306 0.3169897894 -0.0000000167 0.0166666661 0.0000000000
0.0775274474 0.5999999800 0.0957897635 -0.0003486000 0.0163296661 -0.0019637499
0.0180884994 0.6084476297 0.1251143292 -0.0000000167 0.0158113828 -0.0052704665
-0.1832692606 0.5499999817 -0.1061293965 -0.0025556832 -0.0163520495 0.0000000000
0.3443062885 0.8451671385 -0.1841941772 -0.0147034828 0.0064417998 0.0040804332
-0.0968957634 0.6382254787 0.2097842430 0.0010835500 0.0158264995 -0.0050790832
0.0092544330 0.5333333156 -0.1356736288 -0.0000000167 -0.0166666661 0.0000000000
-0.2833333406 0.6255328958 -0.0022273999 0.0101720497 0.0129174329 0.0007266833
-0.0386678320 0.6398415620 0.2796831407 -0.0000000167 -0.0160293828 0.0045218665
0.2720446909 0.6933393269 -0.2446219252 0.0129126496 -0.0048529665 -0.0092069164
0.4118442863 0.8724638376 0.1339456789 -0.0157210828 0.0042159665 0.0021079833
0.3333333056 0.8434065886 -0.2121349596 -0.0147001995 0.0057615998 0.0051979665
0.0563933148 0.8031131399 -0.3682232377 0.0000510500 0.0062245831 0.0154593162
-0.2775809741 0.9838945672 -0.3724190209 0.0063356998 0.0089330164 0.0125435162
0.1386762954 0.5923365636 0.0423365653 -0.0004172333 0.0157802828 -0.0052600998
0.2973937068 0.0666666644 -0.1019122466 -0.0000000167 0.0166666661 0.0000000000
0.4352608688 0.9666666344 -0.1749503775 -0.0000000167 -0.0166666661 0.0000000000
0.2290261924 0.5999999800 0.0899004303 0.0047184498 -0.0154266828 0.0038655665
0.4530329349 0.9833333672 0.0538528815 -0.0026709999 0.0158958495 0.0026709832
0.4791236174 0.9723829009 -0.2469868918 0.0134313662 0.0085469997 -0.0042857999
-0.0983677634 0.6666666444 0.3584482714 -0.0000000167 0.0166666661 0.0000000000
-0.0904340303 0.5666666478 -0.0335167655 -0.0000000167 0.0162437328 -0.0026062332
-0.0773487641 0.5949189302 -0.2949189402 -0.0000000167 -0.0117851163 -0.0117851163
-0.2532128416 0.8655961045 -0.3530568382 -0.0081422497 -0.0063686498 -0.0129634329
-0.4000000033 0.7401452753 0.2360388088 -0.0141077495 -0.0083709164 -0.0026341166
-0.3068626398 0.0948901135 0.5666666478 -0.0000000167 0.0000000000 0.0166666661
0.4935129169 0.9608805013 -0.1680684277 0.0118363496 -0.0113985330 -0.0018814999
-0.2045041432 1.0472721318 -0.4621625346 -0.0083995831 -0.0045749998 -0.0136434662
-0.4216745359 0.9550079015 -0.1322497456 -0.0117108163 -0.0117692329 -0.0012301833
0.0164201328 0.7598773080 -0.3716053543 -0.0000000167 -0.0046786332 -0.0159632661
-0.0786678140 0.6333333122 0.2430873086 -0.0000000167 -0.0159160495 0.0049110665
0.2666666411 0.6571210614 -0.1990271434 -0.0139562329 0.0065617831 0.0061235165
-0.2666666744 0.0446278318 -0.2441241419 0.0166666494 0.0000000000 0.0000000000
0.2162516761 0.8203428060 -0.3520455549 0.0076643164 -0.0046744498 -0.0140060662
0.3746975208 0.8270669058 -0.1190360127 0.0141136995 -0.0066996664 -0.0056169998
-0.2621456913 0.6703295110 0.2663678078 0.0054293832 0.0153206995 -0.0035698999
-0.2136526929 0.7470113584 -0.3284321724 -0.0073270831 -0.0062664665 -0.0134602496
-0.1236894792 0.5669734811 -0.2336401922 0.0036533332 0.0144744829 0.0073622498
-0.3390787554 0.6557453615 0.0186750327 -0.0126924829 -0.0104284663 -0.0007308000
0.0191083327 0.6499999783 0.3139157229 -0.0000000167 -0.0165254994 0.0008699166
-0.2868731238 0.9370036688 -0.3667537544 -0.0084762664 -0.0095756497 -0.0106799663
-0.2800084240 0.6667047278 -0.1783439441 0.0142205995 0.0070291664 0.0049814498
0.4497476017 0.9362284688 0.0971048468 0.0091963664 -0.0111823496 -0.0066759831
-0.0219533326 0.6000000467 0.1003520800 -0.0000000167 0.0162299995 -0.0026908999
-0.2901147570 1.0136291162 -0.4302957690 0.0036317999 -0.0142148495 -0.0077630497
-0.2666666744 0.0497932817 -0.1358199121 0.0166666494 0.0000000000 0.0000000000
0.3499999717 0.6760795941 0.0198401827 0.0149218662 -0.0071624664 -0.0011433500
0.2595329747 0.2372678088 0.2693639744 0.0161783495 0.0038776332 -0.0005346000
0.0096104663 1.1204773793 -0.5333333156 -0.0000000167 -0.0057696165 -0.0156046328
-0.0315175489 0.4833333172 0.2008047600 -0.0000000167 -0.0166666661 0.0000000000
0.1654469612 0.9174794194 -0.3920730203 -0.0039222332 0.0062693665 0.0149064495
0.4582599347 0.9666666344 0.0641059479 -0.0000000167 -0.0156335828 -0.0052072165
-0.2109123596 1.0054945332 -0.4388279520 -0.0046065332 -0.0074865164 -0.0140356995
0.2954133068 0.0833333306 -0.3690678544 -0.0000000167 0.0165434494 0.0007593166
0.1054437798 1.1146368295 -0.4976241334 -0.0015624833 0.0092347497 0.0137820829
-0.3833333372 0.8643815045 -0.1119514963 -0.0165544828 -0.0009089500 -0.0008459666
0.2596855913 0.6263522958 0.0807787473 -0.0075763164 0.0138199662 -0.0050467998
0.1219953459 0.5833333139 0.1346154288 -0.0000000167 -0.0166666661 0.0000000000
0.3666666711 0.7218836259 0.2090669097 -0.0147570828 0.0063181998 -0.0001255833
0.3666666378 0.9032755866 -0.2261369758 0.0152707495 -0.0045945165 -0.0043692999
0.3383335221 0.7149860095 -0.0108261163 -0.0149266162 0.0061998665 0.0040083165
-0.2833333406 0.0310240656 0.1414526953 0.0166666494 0.0000000000 0.0000000000
0.4362180688 0.9695514343 0.0179782827 -0.0109382330 0.0115039663 0.0047225165
0.0461980485 0.6166666461 0.1635902612 -0.0000000167 0.0158113828 -0.0052704665
0.0093694830 0.5166666494 -0.1008485466 -0.0000000167 -0.0166666661 0.0000000000
0.2831025239 0.0653145478 -0.0837949305 -0.0163831828 0.0000000000 0.0029707332
0.4833333006 0.9526721682 -0.1947624435 0.0157313995 -0.0026863999 -0.0004173167
0.1255645791 0.7159494095 -0.3496414050 0.0023816666 -0.0059852331 -0.0152765328
0.3730161376 0.8460323051 -0.1364846955 0.0150480495 -0.0048163165 -0.0048163165
0.1759117608 0.6499999783 0.3900693370 -0.0022782666 -0.0133803329 -0.0080081997
0.4833333006 0.9525525682 -0.2144506429 0.0165271328 -0.0006921666 -0.0003460833
0.1697398777 0.6475222117 0.2280799591 -0.0012772666 0.0159202995 -0.0046978165
0.1196877460 0.5986237634 -0.2969788734 0.0048888498 -0.0100860663 -0.0122485663
-0.3833333039 0.7323149089 0.1429153452 -0.0148475828 -0.0073927498 -0.0007503666
-0.3160839395 0.1014069800 0.4694806010 -0.0000000167 0.0160979161 -0.0042664999
0.1888990437 0.9461475685 -0.4236698692 0.0040724499 -0.0063293998 -0.0147349995
-0.3542784382 0.7143926429 0.2368950754 0.0113192330 0.0118310163 -0.0016983999
-0.1856887271 0.6544873949 -0.2833333239 0.0059812498 0.0059812665 0.0143464829
0.2709007076 0.6166666461 -0.0191982160 -0.0073923331 0.0146894662 -0.0006848333
0.1651185778 0.9855109171 -0.4185295360 -0.0027689499 0.0076204831 0.0145340662
-0.3999999700 0.8435447385 0.0424979819 -0.0153114662 -0.0040372665 -0.0038534832
0.0107885663 0.5833333139 0.0205379160 -0.0000000167 0.0164679995 -0.0012242000
0.0602008147 0.5999999800 0.0880457304 -0.0000000167 0.0165457494 -0.0007451000
-0.1333974622 0.8616571213 -0.3983301367 -0.0021820666 -0.0058614498 -0.0153999328
-0.0901229137 0.7549786582 -0.3516595716 0.0006673666 0.0060040831 0.0155107495
-0.4271921191 0.9833333006 -0.1622502279 0.0032366666 0.0157041828 0.0006473333
-0.1382573287 0.5833333139 0.0207933493 0.0003844833 0.0161044828 -0.0032781666
0.3559909548 0.9393242854 -0.2878143237 0.0108553996 -0.0084704497 -0.0092178664
0.2516719749 1.0309536990 -0.4375383187 0.0020813666 -0.0104096330 -0.0124248163
0.1796126773 0.5666666478 -0.0953416468 -0.0016104333 0.0165099661 -0.0014461333
-0.2961255735 0.0666666644 0.1703786443 -0.0000000167 0.0166666661 0.0000000000
-0.3585270047 0.7414734920 -0.0503868483 -0.0156668828 -0.0052114498 -0.0014351333
0.1964037268 0.5499999817 -0.1351609955 0.0056812498 -0.0153504495 0.0003916667
-0.1173501794 0.6333333122 0.2467440918 -0.0004945167 -0.0158910995 0.0049793498
-0.2666666744 0.0256325158 -0.1780080441 0.0166666494 0.0000000000 0.0000000000
-0.0448566652 0.6151988795 0.1818655606 -0.0000000167 -0.0158113828 0.0052704665
0.1464683451 0.7185782594 -0.3499999883 0.0046373998 -0.0051911998 -0.0150966662
0.0281388657 0.5499999817 -0.2173169094 -0.0000000167 -0.0158447495 -0.0050648332
0.3318851889 0.9683911344 -0.3520009216 0.0049750332 -0.0140407329 -0.0073415164
-0.3051676232 0.6697836277 0.1927817602 0.0089903997 0.0133383996 -0.0043479832
-0.3166666728 0.0331341989 0.0932592636 -0.0166666828 0.0000000000 0.0000000000
-0.2833333406 0.0305371323 0.1987021267 0.0166666494 0.0000000000 0.0000000000
-0.3198824893 0.8914229370 -0.3048737732 -0.0126767996 -0.0050319498 -0.0094978164
0.1987780767 0.6821114606 0.3643707712 -0.0029878499 0.0149493662 0.0055376665
0.0416598486 0.5579329647 -0.0087336664 -0.0000000167 -0.0153809662 0.0063095665
0.3833332706 0.9433639852 -0.1480966451 -0.0152331162 0.0048220165 0.0027219166
-0.0120313496 0.6242465792 0.1742466442 -0.0000000167 0.0158113828 -0.0052704665
-0.1963742935 0.8077577897 -0.3369590388 0.0069484998 0.0044151165 0.0144594662
0.3333333056 0.0352680655 0.2652488912 0.0166666494 0.0000000000 0.0000000000
0.4833333006 0.9760366675 0.0175665827 0.0166666494 0.0000000000 0.0000000000
0.1027733299 0.5666666478 -0.0611956313 -0.0000000167 0.0166666661 0.0000000000
0.1119174629 0.6775743941 -0.3304538557 0.0025707999 -0.0061842665 -0.0149393328
-0.3405569053 0.9813613506 -0.3649422878 -0.0035760999 -0.0143974495 -0.0068194331
-0.3135063895 0.6635063612 0.1088658297 0.0114906663 0.0120450329 0.0000000000
-0.2963544568 0.6565105281 0.3641467879 0.0003715167 -0.0113955163 -0.0118670329
-0.3000000067 0.0690702644 -0.2621062746 -0.0166666828 0.0000000000 0.0000000000
0.3698454543 0.7391362254 0.1994452434 -0.0144631829 0.0079632497 0.0001293500
0.3132518562 0.6632518612 0.1883429937 0.0063341165 -0.0152355828 0.0019712666
0.0585397314 0.8639980045 -0.3949781868 0.0002828167 0.0061400498 0.0153489328
-0.1586677614 0.5166666494 -0.1158521961 -0.0000000167 -0.0166666661 0.0000000000
-0.1065729131 0.6166666461 0.2135920095 -0.0006088000 -0.0157830495 0.0052610165
-0.0575181981 1.1070120131 -0.5118392829 -0.0032090166 -0.0077513497 -0.0142606162
0.3479357051 0.9615440013 -0.2874619071 -0.0130798996 0.0060774331 0.0080470497
0.3666666378 0.7603561080 0.0686635977 -0.0152859995 0.0063427665 0.0007828500
-0.3436020219 0.8928203202 -0.2230646426 0.0148406328 0.0049180165 0.0055354498
0.0733400809 0.5499999817 -0.1773445941 -0.0000000167 0.0155393661 0.0047753332
-0.3666666711 0.7631727579 -0.0814225140 -0.0157104661 -0.0037331999 -0.0031143666
-0.3666666711 0.7612114913 -0.0470968151 -0.0158793328 -0.0041729332 -0.0011369000
0.3090121897 0.9530012516 -0.3606557046 0.0092629997 -0.0090161164 -0.0103805330
-0.0934062302 0.7762477575 -0.3797905540 -0.0000000167 -0.0064584665 -0.0153539828
-0.1287973624 1.1499999617 -0.5436982319 -0.0066461164 0.0148856662 -0.0016842166
0.3666666378 0.8125512229 -0.1341535789 0.0157904161 -0.0028790832 -0.0022853666
-0.4166666694 0.8351809555 0.1179760461 -0.0160582995 -0.0035536999 -0.0018429833
0.0548738648 0.5969097634 0.0604862147 -0.0000000167 0.0158113828 -0.0052704665
0.2833333072 0.0545250815 0.3245430558 -0.0166666828 0.0000000000 0.0000000000
-0.4684731177 0.9833333672 -0.1858463605 -0.0000000167 0.0166666661 0.0000000000
-0.1881188104 0.6925355602 -0.3210834393 -0.0062151665 -0.0057262498 -0.0141804995
-0.2288555257 1.0129834162 -0.4378111354 -0.0072225331 -0.0058746498 -0.0137523329
-0.0766122808 0.5759636308 -0.2592969414 0.0005700166 0.0128620329 0.0101362330
-0.4622559513 0.8122558896 0.2494479584 -0.0125675496 -0.0009625000 0.0105321163
-0.1415937286 0.6461003451 0.2794336907 -0.0004264833 -0.0158007328 0.0052669165
-0.1903090770 0.6623709113 0.4042957865 -0.0002980000 0.0140828829 0.0085480164
0.2796695073 0.0833333306 -0.3271744891 -0.0000000167 0.0166666661 0.0000000000
0.2999999733 0.0770489974 -0.3207856726 0.0166666494 0.0000000000 0.0000000000
-0.4808882006 0.9147777862 0.1518888783 -0.0000000167 -0.0117851163 -0.0117851163
0.3333333056 0.6723303276 -0.0739066975 0.0155195328 -0.0054982665 -0.0003979000
-0.0698837643 0.5666666478 -0.2172000761 0.0003539167 0.0162438661 0.0025479499
0.2278769924 0.9613195680 -0.3907440703 -0.0068860831 0.0056702498 0.0139547829
-0.3169963561 0.0932799136 0.3599465547 -0.0001903500 0.0140655495 -0.0079832831
0.3136849729 0.0833333306 0.3406449220 -0.0000000167 0.0162914661 -0.0023121333
-0.0247289992 0.5607963313 -0.2049261098 0.0008420333 0.0157136661 0.0054044498
-0.1156224628 0.5166666494 -0.1301190290 -0.0000000167 -0.0166666661 0.0000000000
-0.3990545034 0.9666665678 -0.2924486736 -0.0000000167 -0.0166666661 0.0000000000
-0.2019022433 0.6791352440 0.3397017053 0.0052637832 0.0153779662 -0.0034815499
0.2014797266 0.6166666461 0.1670164278 0.0026170166 -0.0157247661 0.0044935332
-0.2791781240 0.0747480142 -0.2661627078 -0.0000000167 0.0158376661 0.0051433332
0.0644367979 0.8855352038 -0.4229561692 0.0014576333 -0.0059305331 -0.0154426328
-0.3665951211 0.8781512874 -0.1949610935 -0.0156882161 -0.0038010499 -0.0037921165
-0.1480882117 0.6451487618 0.2236309425 -0.0000000167 0.0158505328 -0.0051464665
-0.1704299610 1.1071342131 -0.5238008992 -0.0000000167 0.0117851163 0.0117851163
-0.4340752355 0.9833332339 -0.0466378151 0.0095583997 0.0134498162 0.0000000000
0.1919140603 1.0470412818 -0.4470413018 -0.0033308332 0.0083911497 0.0139858162
0.0116044329 0.6311520623 0.4166666528 -0.0000000167 -0.0015423833 -0.0160277995
-0.3620692546 0.9454025518 -0.2376365587 0.0134629329 0.0080888164 0.0052700498
-0.0256229325 0.5534863649 -0.0131802996 -0.0000000167 -0.0156222328 0.0057271331
0.1634625612 0.3661233545 0.2390699920 -0.0000000167 0.0052704665 0.0158113828
0.0939042802 0.6488609117 0.4333333189 -0.0000000167 0.0109796996 0.0121187329
0.1450878618 0.5739886475 -0.0255317158 -0.0049329998 0.0150719328 -0.0049178998
0.3299282057 0.0999999967 0.4152855695 -0.0000000167 0.0166666661 0.0000000000
-0.3000000067 0.0526533482 -0.0691172977 -0.0166666828 0.0000000000 0.0000000000
0.2999999733 0.1015669966 0.5262105825 -0.0166666828 0.0000000000 0.0000000000
0.1600272947 0.6166666461 0.1047314798 -0.0007944166 0.0158739495 -0.0046474332
-0.2915623403 0.6512169950 -0.1263213458 0.0142766829 0.0074443331 0.0040837332
0.3575327881 0.8075327231 -0.1571229781 0.0151498162 -0.0055295998 -0.0036904832
-0.2835863239 0.0666666644 -0.1249756958 -0.0000000167 0.0166666661 0.0000000000
0.3588823047 0.7755490408 -0.0008687166 -0.0156136995 0.0048534332 0.0028052999
-0.4516499516 0.9505609183 -0.2967000901 0.0135412495 -0.0050540665 0.0081851664
0.4166666361 0.8322007223 0.1617037279 0.0137693329 -0.0076018164 -0.0044319332
-0.2401790087 0.5812537306 -0.0110047996 -0.0049858498 -0.0153664328 0.0037964165
0.1495241117 0.6277610624 0.2221886926 0.0003046500 -0.0160389495 0.0044610332
0.4378119521 0.9499999683 0.0267760824 0.0119485163 -0.0110691663 -0.0026343499
0.3333333056 0.0731320976 0.4010479200 0.0166666494 0.0000000000 0.0000000000
-0.2756748908 0.6423415286 0.0943234969 0.0077747664 0.0143008995 -0.0032852999
0.0461044151 0.5666666478 -0.0628875479 -0.0000000167 0.0166666661 0.0000000000
-0.0755961141 0.5505555316 -0.1838888772 0.0000292167 0.0149365328 0.0073805498
-0.4401759853 0.8595925380 0.2139167429 0.0060123998 0.0059941831 0.0140779162
0.0335748822 0.5666666478 0.0146678828 -0.0000000167 -0.0164556495 0.0008938833
0.2833333072 0.0427480486 0.1524209949 -0.0166666828 0.0000000000 0.0000000000
0.4901537170 0.9765128841 -0.0953445802 0.0117663663 0.0117663829 -0.0006005000
0.0750909642 0.7694055910 -0.3564685048 -0.0002649333 0.0057189498 0.0156219828
-0.2251703092 0.8402268387 -0.3388208887 0.0066841664 0.0065894164 0.0137484329
-0.3500000050 0.7499494917 -0.0224477659 0.0158309161 0.0049136665 -0.0003822167
0.1209216293 0.5542549649 -0.1338292122 -0.0073771164 0.0147922162 -0.0018109833
0.2844401405 0.0333333322 -0.3738297042 -0.0000000167 -0.0166666661 0.0000000000
-0.3846099872 0.9666666344 -0.3047797065 -0.0000000167 -0.0164213828 -0.0015114833
0.3778176707 0.8035002065 0.0188017994 -0.0151538495 0.0051964332 0.0044422165
0.3333333056 0.0828969806 0.4421551186 0.0166666494 0.0000000000 0.0000000000
0.1531054116 0.2513118416 -0.2494752250 -0.0000000167 0.0065594164 -0.0153215328
0.2042639099 0.4421979186 -0.0843958472 0.0010577333 -0.0135139662 -0.0094088330
-0.3003529900 0.7149706262 -0.1734459942 0.0146990828 0.0055798665 0.0054488998
0.2999999733 0.0278419324 -0.1451522952 0.0164542328 0.0000000000 -0.0020537333
0.2999999733 0.0964803801 0.5452023652 -0.0166666828 0.0000000000 0.0000000000
-0.1004935133 1.1334645289 -0.5501311483 -0.0000000167 -0.0117851163 -0.0117851163
0.1128818629 0.5499999817 -0.0979731801 0.0008734000 -0.0161941161 0.0022824666
0.2914407403 0.0666666644 -0.0084900664 -0.0000000167 0.0160148328 0.0040941165
0.2541276915 0.6041277299 0.0039959332 -0.0076777497 0.0146076662 -0.0013707500
0.2634140079 0.7570696248 -0.2984541234 0.0113620663 -0.0043652832 -0.0112503996
0.1492381450 0.5499999817 -0.2113367430 0.0022560833 -0.0154823495 -0.0045121998
0.2387379587 0.6280641957 0.1007237966 -0.0061411665 0.0146354995 -0.0045394665
0.2876116237 0.6222192626 -0.0111140830 -0.0089265497 0.0137549495 -0.0021357499
-0.3166666728 0.0528094982 0.0763629975 -0.0166666828 0.0000000000 0.0000000000
-0.1438221119 0.6169577628 0.4166666528 -0.0000000167 -0.0001301833 -0.0166359328
0.4683522177 0.9666666344 -0.0911872470 -0.0000000167 -0.0166666661 0.0000000000
0.3861235705 0.8027902399 0.1182587294 -0.0154401828 0.0059691831 0.0005404333
0.4200137527 0.9666666344 -0.2726935576 -0.0000000167 -0.0166666661 0.0000000000
0.1819177439 0.5742234309 -0.2014155600 -0.0109446330 0.0100125997 0.0062680665
-0.2928250736 0.6499999783 0.1070234964 0.0087952497 0.0139693162 -0.0010578833
-0.3876134537 0.7562914248 0.2583639414 0.0131415496 0.0080414331 0.0044258832
-0.4252120358 0.7639505745 0.2527159582 -0.0039643665 -0.0093289830 -0.0111722330
-0.0650382145 0.6333333122 0.2065351264 0.0005237833 0.0157918995 -0.0052639665
-0.1041001465 0.9146496195 -0.4239914692 -0.0018830499 -0.0063533165 -0.0150514995
-0.2666666744 0.0393049320 -0.1146826128 0.0166666494 0.0000000000 0.0000000000
-0.1590071447 0.8069539064 -0.3743261875 -0.0058220831 -0.0046454498 -0.0148152328
-0.0524638983 0.8045309398 -0.3689321377 -0.0000743500 0.0062403998 0.0154523495
0.4634173012 0.8630818379 0.2068341264 0.0064314831 0.0095950830 0.0114376996
0.4166666361 0.8872571038 0.0179632494 0.0159106495 -0.0036007832 -0.0022633166
-0.0900452970 0.6281576624 0.1729819942 0.0009318166 0.0157830328 -0.0052610165
-0.3152086395 0.0166666661 0.2683234077 -0.0000000167 -0.0162815328 0.0023732833
0.3348239555 0.7058896098 -0.0289342990 -0.0157143161 0.0051448165 0.0014692500
0.1533190116 0.5539015982 -0.0438563485 0.0033843499 -0.0155265161 0.0048405665
0.2175943927 0.9924754836 -0.4258088358 0.0048871165 -0.0066925831 -0.0144434495
-0.1264496625 0.5499999817 -0.2221635259 -0.0006556500 -0.0159879161 -0.0036637165
-0.2970619568 0.9765550841 -0.3862714038 -0.0087645830 -0.0067231164 -0.0123127329
-0.4212248860 0.9120577196 0.0258337825 -0.0139972995 -0.0073483164 -0.0051533332
0.2833333072 0.0158892495 -0.0101229497 -0.0166666828 0.0000000000 0.0000000000
-0.2459734085 0.5959734468 -0.0985166634 0.0104705497 0.0124825329 0.0025799332
0.0156810161 0.8675369544 -0.4169567528 -0.0000000167 -0.0061898498 -0.0154746162
-0.3833333372 0.8131023729 0.0502158317 0.0164613161 0.0015189499 0.0007138833
0.3627029712 0.7420727086 -0.0652033478 0.0157362828 -0.0045976332 -0.0018959333
0.3606902546 0.9999999667 -0.3747147042 0.0031067832 0.0161180661 0.0028248832
0.3072892898 0.9806758506 -0.3533599716 -0.0064591331 0.0107259163 0.0109088996
0.1486386784 0.6473298118 0.2279929591 -0.0000000167 0.0158354161 -0.0051939998
0.3017740233 0.0544413315 -0.1280111957 0.0163776661 0.0009340500 -0.0026256499
-0.1691629277 0.8930134202 -0.3785919040 0.0039057665 0.0067011331 0.0147126828
-0.1030476632 0.5362862155 -0.1696195443 -0.0014476333 -0.0160365661 -0.0042480665
0.2542975915 0.2624689413 0.1664669278 0.0110541163 0.0110541330 0.0057715498
-0.0700482143 0.9966848001 -0.4633183346 -0.0047619165 -0.0071428498 -0.0142857162
0.1218017126 0.9148179028 -0.4240755525 0.0026335999 -0.0066400998 -0.0149846328
0.1711146443 0.5833333139 -0.0230825826 -0.0024127833 0.0160442995 -0.0033600499
0.3609695213 0.8696911877 -0.1977521267 0.0153456828 -0.0036113165 -0.0049925165
-0.1498182783 0.7348543588 -0.3257605058 0.0047999665 0.0064104665 0.0145637328
0.4315611189 0.9499999683 -0.0616611813 0.0116785663 -0.0118696829 -0.0001911000
0.2099514763 0.6466272118 -0.2567151581 -0.0097972330 0.0070579664 0.0114204330
-0.3131851562 0.9325349522 -0.3193498560 0.0113564996 0.0069820831 0.0098921997
-0.4500000017 0.7511063583 0.2701708743 -0.0157418495 -0.0046295165 -0.0017102166
0.3499999717 0.8507865050 -0.1659658778 -0.0155264161 0.0036179665 0.0021707833
0.0134198162 1.0025063499 -0.4762531675 -0.0000000167 -0.0067266831 -0.0152335328
0.1077519131 0.6499999783 0.2434633252 -0.0000000167 0.0160186495 -0.0045750665
-0.2746763908 0.6080096964 0.0417014486 -0.0089629164 -0.0139105662 0.0007618333
-0.0536069649 0.6666666444 0.3763961041 -0.0000000167 0.0166666661 0.0000000000
-0.4209629360 0.9376295354 0.1003890633 0.0138315829 0.0085065497 0.0025415166
-0.0798307140 0.5333333156 -0.1724721609 -0.0009066833 -0.0163011661 -0.0018133333
-0.1315794123 0.6499999783 0.3253175392 -0.0005667500 -0.0159501161 0.0034004332
0.2634425246 0.6451402452 -0.2150310762 0.0098034330 -0.0108805163 -0.0075155831
-0.3503220883 0.8383711221 -0.1326891456 0.0152054995 0.0033886332 0.0053513498
0.1160799295 0.8623277379 -0.3989448034 0.0013977000 -0.0056543998 -0.0155665661
-0.1900104270 0.6251322292 0.1917988769 -0.0029572832 -0.0157434495 0.0044418332
-0.2928826069 0.6666666444 0.2706642410 -0.0045926998 -0.0154493828 0.0028414832
-0.0445625985 0.5499999817 -0.1579565614 -0.0000000167 0.0166666661 0.0000000000
-0.1797148440 1.1209345126 -0.5091849164 -0.0072417664 0.0145965162 0.0034192832
0.1641037779 0.6666666444 0.3698381377 -0.0017047833 0.0164338661 0.0005682500
-0.2031142599 0.5833333139 -0.2372631421 -0.0051388832 -0.0142721829 -0.0065638998
0.3166666394 0.0442868652 0.1950505435 0.0164209161 0.0000000000 -0.0025861832
-0.4166666694 0.8610935546 0.1720916109 0.0163869495 0.0023148833 0.0017854666
0.4166666361 0.8031412566 0.1762534275 0.0158810495 -0.0048758165 -0.0004254333
0.2101918763 0.6479633117 -0.2877714071 0.0092513497 -0.0074954164 -0.0114241996
-0.1212144293 0.5378810654 -0.1403221287 -0.0063528831 -0.0150584495 0.0024570499
-0.4048985198 0.7764636741 0.1890543104 -0.0153261828 -0.0059324165 -0.0014826500
0.0952865468 0.5833333139 0.1505492616 -0.0000000167 -0.0166666661 0.0000000000
0.3818888706 0.8351087888 -0.0082152997 -0.0145974662 0.0067857831 0.0042974165
0.4203055360 0.9203055360 0.0202514993 0.0144800829 -0.0067936331 -0.0040042499
0.3497067217 0.6830400939 -0.0032749166 0.0137939829 -0.0086605164 -0.0035059999
0.2999999733 0.7278566757 -0.1867155438 -0.0147199162 0.0052094998 0.0056379165
