-0.1771515027 0.7169811050 -0.2066290677 -0.0141439995 -0.0180733955 -0.0104561694
-0.4963829435 1.0907225249 0.2086191431 -0.0246092066 -0.0103694902 -0.0094237921
0.2376119722 0.9722245105 -0.1891955023 -0.0089942638 0.0115469052 0.0052722262
0.3441278361 1.4101443996 -0.3490464208 -0.0156582824 0.0022041886 0.0074544337
-0.2096557279 0.5387356400 0.2286752933 -0.0277212820 0.0045868300 -0.0093637921
0.2891707061 0.9245282670 -0.0863808081 -0.0094339808 0.0170711503 -0.0094237921
-0.4156781730 1.0955072417 0.0192243578 0.0076519242 0.0072964526 -0.0093343959
-0.3120560260 1.1505067490 -0.2545574621 0.0034573395 0.0043561130 0.0036294716
0.3341485157 0.7958280832 0.1747109557 0.0011699811 -0.0155188296 -0.0080599620
-0.3196570634 0.2752870085 -0.2435765191 -0.0269294518 0.0065239243 -0.0090007166
0.3104455732 0.9245282670 0.1965138794 -0.0095829808 0.0188400936 -0.0094610374
0.1041387319 0.9007373622 -0.3867822684 -0.0087049431 -0.0033937735 -0.0276955839
0.2085106148 0.3666387409 -0.2390548023 -0.0096721883 0.0051791696 -0.0275014141
0.3043357244 0.7924528003 0.2863168383 -0.0045741130 -0.0176746031 -0.0055383771
-0.3193411955 0.7627373863 -0.1048953357 -0.0210816973 -0.0147322259 -0.0094997544
-0.4191117955 0.8609656279 0.0887899400 -0.0257054141 -0.0085652261 -0.0074929620
-0.4245283047 1.0556422809 0.2454349719 0.0080752450 0.0061052451 -0.0072605658
-0.0771406386 1.5664466390 -0.4245181161 -0.0050453583 0.0023745659 0.0082000752
-0.1143324863 0.9056603432 -0.0090115280 -0.0061949620 0.0182441503 -0.0094237921
0.0047607923 0.8583411186 0.4718576426 -0.0094339808 0.0133416410 0.0039178489
-0.3636887033 0.1409024286 -0.2953693096 -0.0166186409 0.0080438676 -0.0239717349
0.3396117419 0.7830079705 0.0505177905 0.0014530188 -0.0151108485 -0.0094237921
-0.0082876978 1.4276110971 -0.3836067214 -0.0094339808 0.0052261130 0.0086403393
0.0781605254 0.7011828603 -0.0970182982 -0.0227756218 0.0000000000 -0.0227654331
-0.4121242486 0.9912995098 0.3177947805 0.0047279432 0.0081972638 -0.0005075094
-0.2555331979 1.2504061792 -0.3228980067 -0.0031091508 0.0045476979 0.0075221695
0.3867924194 1.0218000180 0.1321623158 -0.0264182820 0.0062459620 -0.0058586602
-0.0196324898 0.7728793671 0.2113472750 -0.0094339808 0.0188446597 -0.0101275845
-0.3364957420 0.0684377521 -0.3250932141 -0.0008802641 -0.0079907733 0.0043412263
-0.2247888594 0.4890030759 -0.1418900135 -0.0158523390 -0.0015664716 0.0054451507
0.2610361788 0.3178417805 -0.2145775579 -0.0243437727 -0.0083316035 -0.0015314905
0.0833313365 0.7550943111 0.2932176493 -0.0040560376 -0.0171216220 -0.0037366602
-0.0041167923 1.5094189430 -0.4056426262 -0.0094339808 0.0084364525 0.0074527544
-0.2690731408 1.3973301737 -0.3679143446 -0.0094339808 0.0000000000 0.0094441317
0.2574014620 1.3800428347 -0.3751046085 -0.0185696597 0.0163731126 -0.0094237921
-0.4120785694 1.0252860745 0.2719688765 0.0062957545 0.0090399242 -0.0046052451
-0.1655925032 1.3661725900 -0.3703813822 0.0004071887 0.0115795467 0.0013334150
0.2930768191 0.9376086439 -0.3420108173 -0.0012676037 -0.0046455470 -0.0257203575
0.3981426454 1.1170400522 -0.0391650174 -0.0263099613 0.0084379997 -0.0094237921
-0.2528186697 0.4432070587 0.2528288584 -0.0227756218 0.0000000000 -0.0227654331
-0.4811320762 1.1729719369 -0.1019036188 -0.0283019046 0.0000000000 -0.0094237921
0.4534502848 1.1763959556 0.1515736924 -0.0253597726 0.0072784148 -0.0027896225
0.3535735338 0.0871995061 -0.3430534210 0.0032678112 0.0082784148 -0.0204081690
0.1946882379 0.9245281915 0.3178562333 -0.0116831128 0.0182224333 -0.0071671129
-0.2022289546 1.2428618588 -0.4598328883 -0.0122193203 -0.0054748489 -0.0271540744
-0.2153452372 0.7169811050 -0.1914302003 -0.0163812447 -0.0173519805 -0.0104489430
-0.3946756455 1.2851507251 -0.3688840049 -0.0235662444 -0.0000908113 -0.0218140746
-0.1257965047 0.9056603432 0.2662429145 -0.0090726789 0.0188259804 -0.0094237921
-0.4471488133 0.9094129279 0.3240730821 -0.0243306029 -0.0107406222 -0.0060183017
0.1535430131 0.8867924194 -0.1949209549 -0.0094339808 -0.0188679238 -0.0094237921
-0.0796967328 0.9845943402 -0.4211508520 -0.0123689429 -0.0075597167 -0.0263245273
0.4067822677 0.8879143816 -0.0512737339 0.0078310563 -0.0065731884 -0.0125789052
0.1346168062 0.8302152140 0.4811422271 -0.0094339808 0.0000000000 0.0094441317
-0.4005922302 0.8610145713 0.3283570631 -0.0186715842 -0.0150389806 -0.0037474338
0.2323997459 1.4045222489 -0.3679143446 -0.0117335090 0.0011497547 0.0082943770
-0.3867924571 0.9407898890 0.3399139306 0.0082645469 0.0010640188 -0.0054320753
-0.3704144577 1.0737423746 -0.1347901081 0.0057998300 0.0064567167 -0.0006466981
-0.3398723645 0.8024524225 -0.2172868786 -0.0247026783 -0.0079991884 -0.0154000183
-0.4622641524 1.0165019805 0.3445544021 -0.0269802820 0.0000000000 -0.0062330941
-0.3223586671 1.1021952603 -0.3725620803 -0.0183220559 -0.0044908489 -0.0253900556
0.2130085014 0.9131080033 -0.1119028071 -0.0136926976 0.0179498484 -0.0116160562
-0.4282759838 1.0603514128 -0.2315127648 -0.0250799047 -0.0090013582 -0.0144010183
-0.3236479123 0.9695900578 -0.3301784970 -0.0202569615 -0.0055559621 -0.0236389614
-0.0947162040 0.9654257749 -0.4088118525 -0.0110748675 -0.0043592640 -0.0275400556
-0.2992293661 0.7735848765 0.1234669199 -0.0164873390 -0.0174769616 -0.0094666978
0.0330514138 0.8867924948 -0.1055786187 -0.0094339808 0.0188679238 -0.0094237921
0.3294755913 0.9615509826 -0.0568751111 -0.0255299990 0.0081878487 -0.0056087356
-0.0342453761 0.7358490288 0.1177895805 -0.0097616600 -0.0188452634 -0.0092599619
0.2049286338 0.9140171165 -0.0705124502 -0.0146793013 0.0171927918 -0.0141913014
0.0078258110 0.7366559533 0.0689553370 -0.0086005091 -0.0187524144 -0.0078746601
-0.0267321877 1.6131406938 -0.4811218875 -0.0094339808 0.0000000000 -0.0282917159
0.4532829452 0.9155470975 0.2855610647 0.0053548489 -0.0114469052 -0.0094237921
-0.3931475323 0.8225668746 0.2030144640 -0.0209180747 -0.0135507919 -0.0057444715
0.1057241658 0.6792452574 -0.1187594861 -0.0196958860 -0.0106605279 0.0008381132
0.2918221211 0.2861376307 -0.2725351218 0.0025657546 0.0084433770 -0.0212593011
0.2143734070 0.7251112368 -0.2047166338 -0.0032912452 -0.0176484144 -0.0114755845
0.4003592113 1.0346505836 0.1573022582 -0.0198276408 0.0000000000 0.0056573394
0.2794556121 0.9245282670 0.0290386593 -0.0094339808 0.0188679238 -0.0094237921
-0.4405564362 0.9216884747 -0.0549164696 -0.0264026028 -0.0076246978 -0.0108820939
0.3167168371 0.8113207241 0.3560861564 -0.0035378112 -0.0176885276 -0.0073825658
-0.3179471012 0.9500224547 -0.1025470905 0.0050859809 0.0116612637 -0.0091309431
0.0520332245 1.0424350173 -0.4245181161 -0.0093059996 -0.0037252263 -0.0276838291
-0.1605575222 0.7169811050 -0.1606201826 -0.0146843202 -0.0180966597 -0.0090478676
0.4726843595 1.0208404520 -0.0126755278 0.0084036978 -0.0061145092 -0.0094237921
0.3301886479 0.9798203593 -0.0314412252 -0.0266984896 0.0076002827 -0.0094237921
-0.3410456286 0.0767968273 -0.3045850828 0.0025000942 -0.0084344714 0.0025102829
0.4046255130 1.0178330937 0.2160865579 -0.0256482821 0.0055510187 -0.0017810377
-0.4622641524 0.9560219828 0.3000820830 -0.0283019046 0.0000000000 -0.0094237921
0.2541352734 0.7639415372 0.1611321826 -0.0036989621 -0.0173900371 -0.0051039621
0.4027313056 0.8505567604 0.3157601013 0.0048320564 -0.0116767920 -0.0058496602
0.4245282670 1.2635617070 -0.3016541018 0.0092613770 0.0004166038 -0.0094237921
-0.3609360807 1.2483512925 -0.3937707587 -0.0226302822 -0.0040241697 -0.0219653388
-0.3505547415 1.2090452185 -0.2763276688 0.0034599244 0.0128939052 -0.0082005846
-0.2330468403 0.7735848765 0.3205731388 -0.0143586976 -0.0175610748 -0.0054168489
0.0510339226 0.7008730113 0.1464875982 -0.0181603578 -0.0087263770 0.0048361885
-0.1612178241 0.7358490288 0.0785020914 -0.0113624335 -0.0186559804 -0.0087809808
-0.1914387286 0.9056603432 0.3608996656 -0.0057035847 0.0183240370 -0.0090787355
0.2014423698 1.2386409344 -0.4556120017 -0.0057596036 -0.0051612262 -0.0270496405
0.0876015250 1.4154468145 -0.3679143446 -0.0091205846 0.0010516603 0.0092372827
0.1366856364 0.9503360585 -0.3985459284 -0.0057587356 -0.0071902450 -0.0263530556
0.3113207241 1.1029715999 -0.2002888226 -0.0192244521 0.0019596980 0.0064488299
-0.3705835143 0.9460551718 0.1970200303 0.0043649810 0.0127248297 -0.0094237921
0.1105740713 1.0385263948 -0.2366294628 -0.0105641883 0.0125147354 0.0045747168
0.2974296869 0.1310358818 0.3251716858 -0.0247913953 -0.0055904338 -0.0185380370
-0.3900213438 0.8145496108 0.1639740504 -0.0206300370 -0.0146653202 -0.0096913015
-0.2715060464 1.4943893210 -0.4056502300 -0.0048234149 0.0046889055 0.0081001318
-0.4811320762 1.0255925462 0.1052745809 -0.0282591876 -0.0004719245 -0.0098957166
0.4468575680 0.9125830788 0.0660251862 0.0057592262 -0.0102012449 -0.0114455845
0.2230202369 0.7394555004 -0.2629244429 -0.0037925848 -0.0164354145 -0.0165178484
-0.2808872158 0.3005694792 -0.2068171809 0.0032905659 -0.0083599808 0.0014767547
0.0223285652 1.2506863113 -0.4676572654 -0.0081792450 -0.0051992074 -0.0275080933
-0.1019109207 0.7169811050 -0.2777641971 -0.0101945468 -0.0182363201 -0.0119912071
0.1022893358 0.7365323684 -0.0610167147 -0.0093573015 0.0187945276 -0.0110471317
0.3307411951 1.1571722582 -0.2037793508 -0.0205670558 0.0086834525 0.0022667924
-0.4811320762 1.0827477893 0.0668892428 -0.0281316593 -0.0010670188 -0.0096905468
0.3536199867 1.2452881606 -0.2735747067 -0.0094339808 0.0000000000 0.0094441317
-0.3083062336 0.7815115365 0.2054833507 -0.0153555089 -0.0177645654 -0.0076111318
0.3835002685 1.2231228972 -0.2498357264 -0.0255666028 0.0091530751 -0.0076437544
-0.0036906225 0.8867924194 -0.1046267319 -0.0094339808 0.0188679238 -0.0094237921
-0.0435966399 0.7038332187 -0.2604268770 -0.0094339808 -0.0168759805 -0.0178617918
-0.0270349235 0.8679244956 -0.1961628039 -0.0094339808 0.0188679238 -0.0094237921
-0.3748929859 1.1715878426 -0.2236785953 0.0051614715 0.0084658299 -0.0013969433
0.1650492013 0.9056603432 -0.0909146192 -0.0094339808 0.0188679238 -0.0094237921
0.1268028254 0.7822894422 0.4434063795 -0.0057016036 -0.0127124335 0.0016644339
-0.1638572391 0.7169811050 -0.0505737905 -0.0094339808 -0.0188679238 -0.0094237921
0.0016820943 1.6011112981 -0.4811218875 -0.0088530374 0.0011618679 -0.0279532820
0.2831404799 0.2422400663 -0.2510984811 -0.0213111313 -0.0085942638 0.0024533584
0.1606718430 0.7708873860 -0.3274810065 -0.0053100941 -0.0121779995 -0.0231984142
0.3679244578 1.0321993950 -0.1311962781 -0.0254538104 0.0060805847 -0.0138676410
-0.3956970417 1.1707030502 -0.1603671826 0.0048838111 0.0073080186 -0.0024140188
-0.4124351354 0.8935671738 -0.0971555058 -0.0253589802 -0.0091487921 -0.0116826222
0.3703446275 1.0024200565 0.1178450899 -0.0237283387 0.0110813203 -0.0068254714
0.2307706894 0.4133240976 -0.1569476356 -0.0026332074 -0.0033909433 0.0075308865
-0.2051710300 1.1899702192 -0.4433860399 -0.0118999052 -0.0015815094 -0.0277061688
0.1395563155 0.8848392874 0.4585559827 -0.0132835655 0.0140150749 0.0019204905
-0.1789395782 0.5777880159 0.2565065564 -0.0201907162 0.0060726979 0.0041102640
-0.1372854099 0.9138502863 -0.1792351064 -0.0094339808 0.0000000000 0.0094441317
-0.2101848411 0.7924528003 0.4406107758 -0.0107576222 -0.0186375087 -0.0089256978
0.3697668162 1.1069272224 -0.3301784970 0.0015225848 -0.0072778865 -0.0229103388
-0.1210175803 0.7547169527 0.2281329725 -0.0094339808 -0.0188679238 -0.0094237921
-0.3187670068 0.7924528003 0.2640452919 -0.0146867164 -0.0178233201 -0.0064323582
-0.1941449549 1.1571952016 -0.4433860399 -0.0139102259 -0.0049190187 -0.0270363575
0.2868455363 1.1453361077 -0.2685608389 -0.0205730558 0.0141055278 -0.0037331319
0.2388941985 0.4850133968 -0.1634123523 0.0011477735 -0.0002817170 0.0012790000
0.1924389361 0.5358401496 0.2471983303 -0.0220126029 -0.0062893016 -0.0220024143
0.4622641146 1.1511064471 -0.1716953520 0.0092986034 0.0000000000 -0.0111067354
-0.1675649937 0.6194383729 -0.0981773359 0.0031446414 -0.0062893016 0.0031548301
0.3871795703 0.9433962663 0.3990633623 -0.0140391315 0.0169693767 -0.0093203204
-0.3961291171 0.8395253079 0.1417554475 -0.0238367161 -0.0117299618 -0.0113818109
0.3635236655 0.8113207241 0.1862906533 -0.0010832075 -0.0168443201 -0.0088820940
0.2466488020 0.7466488020 -0.2597374430 -0.0021715282 -0.0160576220 -0.0145561693
-0.0159791692 1.0997000151 -0.4433860776 -0.0094339808 -0.0021357358 -0.0279451310
0.1314309007 1.4614212656 -0.3816438724 -0.0112087166 0.0076945091 0.0075901129
-0.0228856029 0.8867924194 0.1275855612 -0.0094339808 0.0188679238 -0.0094237921
0.1192851464 0.8844788345 0.4457198888 -0.0097047544 0.0164313579 -0.0003957736
0.0578486582 0.9013336075 0.3765880801 -0.0115467731 0.0177422069 -0.0035097168
-0.4473718322 0.9096359091 0.2874565175 -0.0252023009 -0.0101493958 -0.0094237921
-0.1983137095 0.9109914939 -0.3840164761 -0.0154462258 -0.0021065660 -0.0270674141
0.2236108595 0.4706767936 -0.1974010680 0.0087283204 0.0050646979 -0.0094237921
0.2374986137 0.8509115905 0.4699559445 -0.0094339808 0.0138740749 0.0028489244
-0.4844115666 1.0787512234 0.1825152195 -0.0253648292 -0.0091126034 -0.0060199998
-0.4204580973 1.1050670904 0.1445624851 0.0068271507 0.0091954714 -0.0094237921
-0.4770468877 1.2075471242 -0.1082852223 -0.0121574524 0.0175061880 -0.0107855279
-0.2698381596 0.4248323047 0.2734466123 -0.0223882067 0.0051329432 0.0032867169
0.0444163191 1.1833823893 -0.3113105732 -0.0094339808 0.0060691885 0.0080113959
0.1334624101 0.8875983250 0.4237325878 -0.0131887731 0.0173149616 -0.0042383017
-0.3107292524 0.7729933859 -0.1827626535 -0.0225382067 -0.0131042259 -0.0126534712
-0.3825368346 0.8155425164 0.1330083535 -0.0255439990 -0.0086282072 -0.0138797542
-0.0492443755 1.3460970624 -0.3679143446 -0.0090271317 0.0047405470 0.0072369997
-0.1441917304 0.8679244956 -0.3770059103 -0.0144428296 -0.0089462261 -0.0245427349
0.3645364391 1.3648475334 -0.3993947396 0.0018001320 -0.0015857358 -0.0241915085
0.2592148393 1.4047599093 -0.3679143446 -0.0094339808 0.0000000000 0.0094441317
-0.0589146393 1.4901475098 -0.4999898113 -0.0094598864 -0.0000129434 -0.0282896970
-0.1170441465 0.7924528003 0.4661749069 -0.0094339808 -0.0188298483 -0.0089636978
0.1000152226 0.8617993826 -0.3867822684 -0.0063102073 -0.0056777545 -0.0265371499
-0.0892584872 0.7473667454 0.1603875222 -0.0191295842 0.0000000000 0.0047074904
0.4123475127 1.1729219746 -0.3234913274 0.0032396980 -0.0050315470 -0.0220573577
0.1358271269 1.6037735244 -0.4787747367 -0.0062173583 0.0163539050 -0.0140213391
0.3442096097 0.8253416858 -0.2186633125 0.0062643394 -0.0070894714 -0.0158480560
-0.0547739791 0.7358490288 0.0944999021 -0.0094339808 -0.0188679238 -0.0094237921
0.2183474823 1.0119200939 -0.2100231430 -0.0070605092 0.0117756977 0.0047253772
-0.4006972490 1.3068498752 -0.3717744954 -0.0236011689 0.0017263018 -0.0199177540
-0.1694462200 1.6021942414 -0.4229389086 -0.0121683392 0.0069097922 0.0076295280
0.0534543376 1.4848429251 -0.3933547021 -0.0109263015 0.0059364337 0.0083461884
0.1253000519 0.7735848765 0.3391934966 -0.0094339808 -0.0188679238 -0.0094237921
0.4959088115 1.0718544690 0.1456107870 0.0081710374 -0.0050259809 -0.0063081696
-0.1329675044 0.7580064431 0.0923641286 -0.0094339808 0.0187894333 -0.0110198298
-0.3401261947 1.0112896033 -0.3391089117 -0.0216126784 -0.0049789432 -0.0226640935
-0.3880028344 1.1079815808 -0.3225318369 -0.0222656218 -0.0066824337 -0.0214267916
0.1861195779 1.0938497134 -0.2735747255 -0.0094339808 0.0092008487 0.0070105658
0.3562080809 0.9467021718 -0.2924426493 0.0017123396 -0.0040643583 -0.0237602444
-0.2802213668 1.3488872699 -0.4508158886 -0.0167410560 -0.0041535659 -0.0261407726
0.0617325826 1.6098391845 -0.4305836630 -0.0094339808 0.0100143770 0.0063159998
-0.4245283047 0.9630043788 0.3710184388 0.0014385849 0.0115171882 0.0004450566
0.3119269316 0.1033022225 -0.3180557427 -0.0155241126 0.0029051697 -0.0265804330
0.1957799926 0.7590318015 0.2114195015 -0.0043883395 -0.0175911880 -0.0048962640
-0.3679245710 0.8096852336 -0.0829704120 -0.0255599613 -0.0096919996 -0.0094237921
-0.1198427502 1.1320754290 -0.3273469876 -0.0094339808 -0.0183891125 -0.0055343960
-0.3679245333 1.4317311158 -0.3928816833 -0.0283019046 0.0000000000 -0.0094237921
0.1789844838 1.0101909619 -0.2271619914 -0.0128698486 0.0131245655 0.0023860376
-0.2891105174 0.1390821834 0.3401182702 0.0017380943 -0.0055691885 -0.0233046029
0.0498178849 0.7924527248 0.4649005485 -0.0094339808 -0.0144307164 0.0015432641
-0.4033948150 1.3392622891 -0.3701799106 -0.0245075274 0.0031420565 -0.0175943390
-0.3301886857 1.5216908860 -0.4080745318 -0.0224524709 0.0090237166 -0.0023438678
-0.2603278958 0.2437590663 -0.2671438012 0.0025230754 -0.0083699431 0.0025332641
0.1037759017 1.2633171410 -0.3301784970 -0.0094339808 0.0084379997 0.0074521884
-0.2128075391 0.5643538089 0.2217261803 0.0077639054 -0.0039714338 -0.0125225467
-0.1310371649 1.0201795653 -0.4161224371 -0.0125788674 -0.0033316603 -0.0275378103
-0.0922804871 0.8404738551 -0.3679143446 -0.0094339808 -0.0032524716 -0.0277639046
-0.4793790762 1.0171148484 0.0518532999 -0.0273233763 -0.0058253960 -0.0098369808
-0.4811320384 1.0459660549 0.0449649040 -0.0280375838 -0.0015843584 -0.0097252260
0.3045072715 0.2163500107 -0.2421506890 -0.0238584331 -0.0083379053 -0.0008633585
0.4999999245 1.1367129571 0.1620176165 0.0094339430 0.0000000000 -0.0094237921
-0.3113207618 0.9234625312 -0.0853667704 0.0094339430 0.0000000000 -0.0094237921
-0.3387760061 0.7821721969 0.0562123375 -0.0197139993 -0.0154002636 -0.0103362072
-0.0725003746 0.7379450288 -0.0543046017 -0.0094168864 0.0187416597 -0.0115775090
0.3113207241 0.9122784750 -0.0408571494 -0.0283019046 0.0000000000 -0.0094237921
-0.3389845910 0.9245282670 0.1683772012 -0.0094339808 0.0156817541 -0.0171158673
-0.3431476474 0.9882591891 -0.1473311076 -0.0002896792 0.0110516222 -0.0204754143
0.1880350306 0.8666902692 0.4735866802 -0.0065150375 0.0127640184 0.0037406602
-0.4092148902 0.8526111565 0.2973301020 -0.0213297728 -0.0139879429 -0.0070069243
0.1533848433 0.7547169527 0.2157158975 -0.0080123393 -0.0186167918 -0.0084760185
0.4776325291 1.0531042244 -0.0244427538 0.0088005091 -0.0030946980 -0.0113009052
0.0887550721 0.9131135504 -0.1792351064 -0.0094339808 0.0000000000 0.0094441317
0.1212575426 0.7351570666 -0.2978406680 -0.0048958111 -0.0158837919 -0.0183473201
-0.1814268799 1.1132075052 -0.2937430455 -0.0086237544 0.0183067729 -0.0082084525
0.0186456408 1.3890194570 -0.3679143823 -0.0094339808 -0.0050960564 0.0073332827
0.1792452574 0.6444771078 0.2013342566 -0.0265580556 -0.0050986224 -0.0153476975
-0.2750477066 0.8865772118 -0.3294471196 -0.0190876597 -0.0071210752 -0.0239636406
-0.3490566095 0.9175050408 0.0745635632 0.0083410186 0.0000000000 -0.0047941130
-0.3234979312 0.0790051102 0.3906219098 -0.0191993389 0.0053960941 0.0048773394
0.3418330437 1.4261268141 -0.4245181161 0.0031114338 0.0018387546 -0.0229202822
-0.1076772035 0.7381703872 -0.0663241107 -0.0094339808 0.0187351691 -0.0115884147
0.3413414966 0.9922848493 -0.0955439021 -0.0243139613 0.0108086411 -0.0119876222
0.2187745767 1.0093933393 -0.3943821172 -0.0021929622 -0.0069250752 -0.0253716217
0.2750111028 0.9639725863 -0.3490464208 -0.0017684339 -0.0050325470 -0.0259088481
0.1299961460 1.0742316576 -0.2547068017 -0.0094339808 0.0084379997 0.0074521884
-0.3111425920 1.2845307440 -0.3114887807 -0.0025907735 0.0065955469 0.0068318111
-0.4056603809 0.8629347222 -0.0186181502 -0.0251529424 -0.0081438487 -0.0120091694
-0.2040196338 1.3481732699 -0.4622539637 -0.0138228108 -0.0039416414 -0.0269426971
0.0484915642 0.7406893117 0.0810828837 -0.0095468298 -0.0186741125 -0.0067413016
0.3507108547 0.0000000000 0.3821379478 -0.0094339808 -0.0188679238 -0.0094237921
0.0746616953 1.1530201263 -0.4454627756 -0.0087449997 -0.0053759809 -0.0274275084
-0.0498728094 0.7585411412 0.2169912937 -0.0094339808 0.0038241697 0.0056199621
-0.3679245333 0.9652328126 0.1347056364 0.0088891695 0.0012119811 -0.0082118110
0.3909638909 0.0501429981 -0.3299443272 0.0005909056 0.0084601695 -0.0222933576
-0.1307661271 0.7169811050 -0.2755473670 -0.0107884902 -0.0179079805 -0.0145509617
-0.1981132189 0.3958657586 -0.2245271802 0.0072207733 0.0000000000 -0.0147668674
-0.3157359126 1.0832414120 -0.2159103881 0.0001034340 0.0045534149 0.0059170564
-0.3421118361 0.9101025128 0.1226516746 -0.0163178296 0.0100249053 0.0031037357
0.0029926225 0.8867924194 -0.1333926742 -0.0094339808 0.0188679238 -0.0094237921
0.2166454447 0.6044448829 0.2084163884 0.0074419997 0.0084379997 -0.0094237921
0.1662724466 0.9056603432 0.3817517780 -0.0095812638 0.0188463578 -0.0091292261
0.3579280431 0.8013242716 0.0572862243 0.0039076602 -0.0133416410 -0.0094237921
0.2630603108 0.3743250802 -0.2409450098 0.0033199055 0.0082867733 -0.0197082634
0.2008242754 0.7277706518 -0.0664742428 -0.0038720376 -0.0178760371 -0.0072035469
-0.1784408235 0.4732922086 -0.1749907104 0.0021784150 -0.0092899242 0.0021886037
0.4433961908 1.1463762964 0.1583607676 -0.0270245273 0.0056684904 -0.0062839998
-0.1946544266 0.5783587518 0.2946452908 -0.0185554521 0.0070880941 0.0037738867
-0.2857761402 1.2372398590 -0.4245181161 -0.0183312257 -0.0031219999 -0.0257322820
-0.1981132189 0.5906018456 -0.1196861464 -0.0266335273 0.0000000000 -0.0053959621
-0.4553870772 1.1547160130 0.1830281629 -0.0063584526 -0.0063429620 0.0067454903
-0.4430453418 0.9788788499 -0.1229822218 -0.0265487915 -0.0055607545 -0.0150611126
-0.3218684029 1.1656980881 -0.2735747255 0.0005500000 0.0113550373 -0.0010400943
-0.3708465898 0.9085823997 -0.2690495181 -0.0228958671 -0.0079084903 -0.0195404144
-0.3031285735 0.0901306758 0.3499085528 0.0021731320 -0.0056120564 -0.0229751689
-0.4078928148 1.0233327350 0.2148198787 0.0059408300 0.0097594147 -0.0046950753
-0.2925517059 0.9107534751 0.1654805787 -0.0085027733 0.0143769051 -0.0210458860
-0.3217288747 0.2439831983 -0.2587042167 -0.0196904710 0.0084649053 -0.0222549614
-0.4450344549 1.1903174268 0.0178828672 0.0069583205 0.0087211129 -0.0079135280
-0.2421138588 0.7295474442 -0.1587759374 -0.0155786032 -0.0178177540 -0.0101197732
-0.3589719487 0.9910473022 0.0538870168 0.0058386036 0.0107604336 -0.0081569620
-0.2006191056 0.7358490288 -0.2536720470 -0.0152089051 -0.0168109994 -0.0151987164
-0.0377845457 1.2964582152 -0.3462834209 -0.0043541319 0.0061772073 0.0075340752
-0.2758094236 0.9784862272 -0.1981030303 0.0023346792 0.0000000000 0.0045693961
0.3533265904 0.9854020572 0.1176508446 -0.0252075085 0.0084107544 -0.0048469243
0.2349365006 0.3221340444 -0.2524062169 -0.0106611883 0.0045780376 -0.0274078480
-0.0210972634 0.9056603432 0.2291064631 -0.0089017921 0.0185014710 -0.0115525656
-0.2958052153 1.4786229631 -0.4536632659 -0.0204051313 0.0000000000 -0.0237473199
0.2225628973 0.4487980774 -0.1498528434 -0.0057565092 -0.0035330187 0.0082412827
-0.4811321139 1.0940321097 0.2716990275 -0.0283019046 0.0000000000 -0.0094237921
-0.2212628973 1.5397354136 -0.4056501922 -0.0076466224 0.0008263207 0.0091748110
-0.0012834528 1.0015855848 -0.2374245382 -0.0101973392 0.0125098108 0.0045585093
-0.4907058494 1.1227812406 0.0878840722 -0.0269338858 -0.0064997545 -0.0109250185
-0.1976196718 0.4076689846 0.2883794986 0.0034141319 -0.0050822451 -0.0222719048
0.4055898715 0.8867218911 -0.1284672027 0.0063428299 -0.0090036412 -0.0139941504
0.3935495512 1.0700667332 -0.2978476680 0.0029533395 -0.0010679056 -0.0235462633
-0.0666028843 0.8899862494 0.3647408164 -0.0062754149 0.0178307729 -0.0043575847
0.2442234247 0.3560519488 0.2758739519 -0.0219376784 -0.0054725092 -0.0223821690
0.3066684224 0.9245281915 0.0822687893 -0.0094339808 0.0188679238 -0.0094237921
0.2356404817 0.7845539327 0.3411678928 -0.0046627734 -0.0174190182 -0.0040429998
0.2848453477 0.8113207241 0.4449339832 -0.0033436603 -0.0158272069 -0.0020925848
-0.0125843958 0.8867924948 0.1903900117 -0.0109941505 0.0176805088 -0.0144856410
-0.2926164041 1.1398181079 -0.2735747255 -0.0039475093 0.0076327356 0.0052498677
0.3743235708 1.4091125506 -0.3619325335 0.0002497170 0.0133232825 -0.0011908867
0.3701500049 1.0233189991 0.1054396187 -0.0260661122 0.0036173772 -0.0016967358
0.4811320384 0.9925320758 0.1466585039 0.0088701129 -0.0027616225 -0.0101142072
-0.2247499727 0.7310105573 -0.0500040736 -0.0153676598 -0.0178010559 -0.0100890940
0.2844609893 0.3277338744 -0.2361501609 0.0036797923 0.0083739242 -0.0192028295
-0.1000785057 0.9038128716 0.3522522131 -0.0074304148 0.0183944521 -0.0062138300
-0.2498250283 1.0921109399 -0.4056501922 -0.0154838862 -0.0032615470 -0.0268923763
-0.4003131170 1.2210678596 -0.2276436329 0.0025627924 0.0118151505 -0.0020774905
-0.3094847430 0.7821008007 0.2287048782 -0.0153464900 -0.0177375465 -0.0072484337
0.3861306835 0.8295269121 0.2540222734 0.0037359244 -0.0134595089 -0.0092449053
-0.0962415813 0.8966075699 0.1890705589 -0.0077254903 0.0173239239 -0.0160302258
0.3756360047 0.9125348524 -0.2281273687 0.0065250752 -0.0067633771 -0.0152763390
0.3176055163 0.7987375548 -0.2229861237 0.0042333017 -0.0107286600 -0.0164264899
-0.2643999712 1.2013156339 -0.4245181161 -0.0143360372 -0.0041004527 -0.0271302254
0.3908713437 1.0964880530 0.0732404878 -0.0260697915 0.0046364904 -0.0019028301
0.1981131812 1.6096569393 -0.4319517762 0.0009359622 0.0154835088 -0.0094237921
0.0035203772 0.8839354195 0.1226516746 -0.0094339808 0.0000000000 -0.0282917159
-0.1447447115 0.9056603432 0.3607521185 -0.0087897544 0.0188233578 -0.0091016789
-0.0365622439 1.1154784673 -0.4433860399 -0.0094339808 -0.0003590755 -0.0282334518
0.4447586059 1.2075471242 -0.0194513012 -0.0249879613 0.0095054713 -0.0070368111
0.1406026928 0.9056603432 0.3324734025 -0.0145271881 0.0180435088 -0.0091584902
0.4569004356 1.0034693961 -0.1044559583 0.0077990752 -0.0028974527 -0.0153113390
0.4169056824 1.1356981647 0.1051624866 -0.0258647915 0.0072243771 -0.0062460186
0.1979929925 0.4917167173 0.2735950651 0.0055000941 0.0047351319 0.0008953207
0.1885061816 0.9056603432 -0.1293291461 -0.0111968864 0.0185496785 -0.0120117354
-0.0276643197 0.7735848765 0.3466587794 -0.0094339808 -0.0187443578 -0.0086623204
0.0449263002 0.6981131812 -0.0436497531 -0.0094339808 -0.0188679238 -0.0094237921
0.4433961908 1.0397689796 0.3165486296 -0.0218430180 0.0110434901 -0.0021628112
0.1953851813 0.5747620727 -0.1603671826 -0.0094339808 0.0032076791 -0.0277711876
0.3634987976 1.1828815780 -0.1981030303 -0.0195882823 0.0097747355 0.0026414905
-0.5000000000 1.1504055604 0.1883790118 -0.0218190746 0.0118473014 -0.0044667923
0.2843209138 1.3828868723 -0.4515179264 -0.0018968867 -0.0024900754 -0.0263156783
-0.0484012623 0.8867924194 0.1265500896 -0.0094339808 0.0188679238 -0.0094237921
-0.4635157750 1.0025032641 -0.0361616967 -0.0275059990 -0.0028317546 -0.0120726033
0.3580815337 0.9181845691 0.1415195984 -0.0094339808 0.0000000000 -0.0282917159
0.2946192908 0.2675252729 0.3265861764 0.0010603962 0.0052428677 0.0050613394
0.1093831091 0.7169811050 0.1300067309 -0.0094339808 0.0188679238 -0.0094237921
0.1881213703 0.8714047973 -0.3669566465 -0.0034361508 -0.0088012450 -0.0248002443
-0.4174159842 1.1555866356 -0.0554117904 0.0067087167 0.0097015657 -0.0094237921
-0.2452259341 0.8921139852 0.1415195984 -0.0083501695 0.0106627354 -0.0228420369
-0.2729123859 0.3723671558 0.2981438001 -0.0202496596 0.0059099809 0.0045824527
0.4314899837 1.0727763180 0.2455163681 -0.0263373952 0.0066997545 -0.0049884149
-0.3117455165 1.3230279312 -0.4254423613 -0.0163761692 -0.0035211508 -0.0265956405
-0.3447971379 0.8070612148 -0.1672946729 -0.0236280746 -0.0123349618 -0.0103533581
0.2583968959 0.7560699526 0.1032967508 -0.0046316413 -0.0178623578 -0.0060842639
0.1714234841 0.8160264032 -0.3490464208 -0.0077065657 -0.0050571885 -0.0270387348
0.1131490901 0.6586104091 -0.1270123348 -0.0214395086 -0.0077868110 0.0025817358
-0.2492952547 0.2301028215 0.3407820626 -0.0094339808 -0.0037003017 -0.0279253197
-0.2924528380 1.0732114123 -0.2234190104 0.0019471131 0.0038281508 0.0046725659
-0.3320947044 0.2065333130 -0.2750883104 -0.0209425841 0.0085055846 -0.0210899803
0.4433961908 1.1688982012 -0.2403865004 0.0075938110 -0.0029256980 -0.0163824899
0.3374731382 0.2205795011 -0.2650161409 -0.0033192263 0.0079206601 -0.0247466217
-0.3029241018 0.0524751867 0.3574396280 -0.0001773962 -0.0053804149 -0.0247551123
0.2107688034 1.2737777444 -0.4622539637 -0.0037686980 -0.0038887734 -0.0268468480
0.2124088976 1.5903470909 -0.4245181161 -0.0104317166 0.0059552262 0.0079281129
-0.2122681618 0.9056603432 0.1796324461 -0.0088265091 0.0188168672 -0.0100312638
0.1792452574 1.5786405631 -0.4263529839 0.0013339622 0.0000000000 -0.0094237921
0.3209944030 0.1340860515 -0.2925733663 -0.0213191501 -0.0085717733 0.0024613773
0.2805727064 0.3424193833 0.2683354050 0.0035317923 -0.0001941132 -0.0229979425
0.1304110706 0.8906772117 -0.1303309196 -0.0144917730 0.0176957163 -0.0131882637
-0.2947544228 0.8809719102 -0.3195937615 -0.0190750936 -0.0043800753 -0.0247439802
0.2152701240 1.1582573525 -0.3113105732 -0.0076600752 0.0000000000 0.0092257544
0.0744267708 0.9056603432 0.2839456685 -0.0094339808 0.0188679238 -0.0094237921
0.2310636894 1.1586062959 -0.3301784970 -0.0144449806 0.0000000000 0.0082611884
-0.2899310645 0.3192793842 0.3107836864 -0.0207014898 0.0059374149 0.0042458489
0.1141272787 0.7119474260 -0.0556738470 0.0017698490 0.0088597355 -0.0206276219
-0.0182237163 0.7298811234 -0.0848954874 -0.0094339808 0.0000000000 -0.0282917159
0.2213044633 0.8938180795 0.4363807949 -0.0090646034 0.0151020183 0.0017077735
0.4622641146 1.0102047732 -0.0521892056 0.0085905280 -0.0037993206 -0.0127370561
-0.2631735561 0.4621589071 0.2651805938 -0.0223364709 0.0051339432 0.0033434527
0.3531870244 1.0041304904 0.0502593189 -0.0262695839 0.0084178110 -0.0088147921
0.1461082964 0.8228395916 -0.3559663828 -0.0035680187 -0.0098305091 -0.0243636217
-0.0089556034 0.9460471907 -0.4056501922 -0.0094339808 -0.0034024527 -0.0277395839
-0.3502379868 1.4698507370 -0.4226707199 -0.0221513577 0.0130152448 -0.0081459997
0.0160468485 1.6415093720 -0.4439488134 -0.0094339808 0.0133416410 0.0031219433
-0.1338538063 0.7015751999 0.1981233699 -0.0094339808 0.0000000000 -0.0282917159
-0.2147213127 0.9056604187 0.0021364339 -0.0094339808 0.0188679238 -0.0094237921
-0.2409807268 0.4700393785 -0.1654430315 -0.0245349047 0.0005237736 0.0015798113
-0.0528050923 0.9793692083 -0.2152081051 -0.0062761507 0.0105202072 0.0055716790
-0.3953682492 0.8576323639 0.3590426280 -0.0210631879 -0.0146854523 -0.0073578110
0.4811320384 1.1980328416 -0.0537538470 0.0094339430 0.0000000000 -0.0094237921
0.3705608162 0.8328249686 0.3162042334 0.0032294338 -0.0139189429 -0.0081682638
0.1831230308 1.3227462331 -0.4632497372 -0.0059453960 -0.0017771131 -0.0277355650
-0.1936826908 1.0720972992 -0.2358388779 -0.0083672261 0.0085900940 0.0072230186
0.3678806276 1.0565159979 -0.0691672615 -0.0262498103 0.0085498865 -0.0094196034
0.1864284647 0.7735848765 0.3328863271 -0.0087416223 -0.0187926219 -0.0084835846
0.0685368465 0.7443297455 0.1240301651 -0.0082754336 -0.0187654333 -0.0081932638
0.4376227948 0.8810189856 0.2318621233 0.0059807168 -0.0104549430 -0.0092246412
0.2550159526 0.3006907434 0.3008491396 -0.0249899613 -0.0056027545 -0.0182561691
0.2220136709 0.4227410595 -0.1942796530 -0.0094339808 0.0066000375 -0.0270794329
-0.1520717112 1.4724165105 -0.4811218875 -0.0104621883 -0.0005141132 -0.0282117725
0.1176050522 1.3912223437 -0.4811218875 -0.0085741884 0.0000000000 -0.0282381876
-0.3444947983 0.0191594710 0.3968846454 -0.0230533954 0.0057632262 0.0020098867
-0.2960202718 1.1124516939 -0.3867822684 -0.0173721880 -0.0032608112 -0.0262038858
0.0544094508 1.3773584386 -0.3679673635 -0.0094339808 -0.0133416410 0.0039178489
-0.0123502637 0.9090983242 -0.1792351064 -0.0098571694 0.0004231887 0.0093916412
-0.2533010848 1.3384885533 -0.4536688885 -0.0151611881 -0.0031596037 -0.0268703763
-0.3200521011 0.8848626836 -0.3025792339 -0.0216435841 -0.0029997357 -0.0227956406
0.3659394768 1.2852978572 -0.2778388386 -0.0144635466 0.0088057921 0.0063733771
0.4744981708 1.1030582603 -0.1093548261 0.0079129997 -0.0009027547 -0.0164604899
0.2886366684 0.8901900230 -0.3185243087 0.0001029434 -0.0074728488 -0.0238537538
-0.0377826778 1.6415093720 -0.4456289454 -0.0094339808 0.0133416410 0.0007458868
0.4811320384 1.0420661305 0.0049915092 0.0087335280 -0.0043659055 -0.0101632638
0.3285209121 0.8199207804 0.3735490236 -0.0027416603 -0.0169503956 -0.0053280187
-0.3323206667 0.1925166720 -0.2975028378 -0.0249045651 0.0078082639 -0.0151679051
0.2880028571 0.1822739743 0.3709516841 -0.0048973206 0.0045288300 0.0076496790
0.1457811077 1.1381301457 -0.4412502098 -0.0047286036 -0.0030068112 -0.0272016405
-0.1981132189 1.4165316447 -0.3997600793 0.0094339430 0.0000000000 -0.0094237921
0.1256167311 0.7320869535 -0.0848954874 -0.0094339808 0.0000000000 -0.0282917159
-0.4611000958 0.9233642104 0.3047128376 -0.0241011123 -0.0117840184 -0.0094237921
-0.2903342721 0.3162249315 -0.2384975382 -0.0218530935 0.0083864148 -0.0199242634
-0.3284804593 0.8085224601 0.3085326487 -0.0151909240 -0.0176493767 -0.0062143771
0.1580081638 0.9056603432 0.3508806471 -0.0100532638 0.0184004521 -0.0058633394
0.3548395715 0.9245282670 0.2637991787 -0.0094339808 0.0188679238 -0.0094237921
-0.2342286704 1.3773584386 -0.3689863068 -0.0090461883 0.0187073012 -0.0094237921
0.4064102866 1.1008349962 0.1045337130 -0.0265770179 0.0048828489 -0.0040519621
-0.2407510853 0.5323708478 0.2407612551 -0.0200406030 -0.0002504340 -0.0248741500
-0.0590704129 0.7358490288 -0.3151497428 -0.0101891883 -0.0165265277 -0.0184422635
0.3138487240 0.8606401562 0.4597463034 -0.0072995469 0.0051422262 0.0082308110
0.4813330573 1.1142626561 -0.0081676035 0.0089834336 -0.0000622075 -0.0133406221
0.3128878372 0.9245282670 0.2214161049 -0.0094339808 0.0188679238 -0.0094237921
0.3513243075 0.7947204606 0.0300156404 0.0034540753 -0.0136546976 -0.0090404714
0.3404741570 1.1223871086 -0.3676157220 0.0001030755 -0.0029681131 -0.0254214896
0.2650455372 0.7735848010 0.2028093131 -0.0070509997 -0.0185335276 -0.0082989053
-0.3230177803 0.0416430739 0.3977384756 -0.0121268863 0.0040853772 0.0080049431
0.2899834985 0.8019221773 0.3597707600 -0.0035662074 -0.0167546031 -0.0034978678
-0.1162428069 1.3728582501 -0.4811218875 -0.0094339808 0.0000000000 -0.0282917159
0.4913270003 1.1234023916 0.0445060361 0.0077809997 -0.0068594903 -0.0119768297
-0.1815072762 0.8953954190 -0.1517642207 -0.0079261506 0.0149411881 -0.0201287728
0.2923277437 1.2963092152 -0.3113105732 -0.0121136411 0.0053593017 0.0084627544
0.0093066412 0.7547169527 0.2441415002 -0.0094339808 -0.0188679238 -0.0094237921
-0.0614847901 1.4643116617 -0.4999898113 -0.0110590751 -0.0008125471 -0.0281653763
0.1737100123 0.5003676981 -0.1981030303 -0.0173045465 0.0000000000 -0.0249761311
0.1356062213 1.5780058838 -0.4210682294 -0.0149903013 0.0053167356 0.0073631318
-0.3906821551 1.0038896602 0.2273669914 0.0070700941 0.0088211883 -0.0091018864
0.4760069632 1.1509433528 0.2226581803 -0.0111423392 0.0131343769 0.0037105848
-0.4181852861 0.8615814392 0.2072699922 -0.0237295085 -0.0121199052 -0.0094237921
-0.3586675525 0.8020637433 0.0199839804 -0.0211729615 -0.0146224900 -0.0094237921
-0.2374689156 0.9769151518 -0.3809455705 -0.0194173766 -0.0065520752 -0.0239675274
0.3066549884 0.1260556368 -0.3129476486 -0.0198205842 0.0009991132 -0.0248375274
0.2515884433 0.3773584763 -0.0352900930 -0.0094339808 -0.0188679238 -0.0094237921
0.2675444427 0.2899237815 0.3491237227 0.0004523585 0.0055113960 0.0052485658
-0.1339932968 0.6565417677 -0.1091322034 -0.0241284897 0.0097246411 -0.0125936410
-0.4834491893 1.1014945811 0.1012629584 -0.0260587160 -0.0031062263 -0.0171564522
0.0205689049 0.7201645011 -0.2956260077 -0.0094339808 -0.0168759805 -0.0178617918
0.2569442922 1.0596572996 -0.3867822684 -0.0008337547 -0.0033989621 -0.0258532632
-0.0453802247 0.9056603432 0.3158628371 -0.0089632072 0.0186405842 -0.0074827167
0.3513530245 1.0400321872 -0.0088813770 -0.0271066216 0.0064369998 -0.0093790562
-0.4707742464 1.0170201314 -0.0151633579 -0.0272338103 -0.0040730187 -0.0123916222
0.4811320384 0.9992812076 0.1126982033 0.0091443770 -0.0016821697 -0.0098443393
0.3529311565 0.8038240451 0.2313473686 -0.0010943584 -0.0167144145 -0.0086379242
0.4999999623 1.0861822420 0.2076698224 0.0092723959 -0.0011422641 -0.0082815280
0.0580284884 0.9827265856 -0.4245181161 -0.0072425092 -0.0076522639 -0.0263228103
-0.2608409902 0.7876063288 -0.3003401207 -0.0188445842 -0.0130861504 -0.0188343955
0.4811320384 1.0913599399 0.0182436597 0.0094339430 0.0000000000 -0.0094237921
0.2217524633 1.4585413789 -0.3867822684 -0.0130132071 0.0041506602 0.0085678299
-0.1271808254 0.7735848765 0.3347007987 -0.0094339808 -0.0188679238 -0.0094237921
0.4921906984 1.0975889774 0.0786485253 0.0084784336 -0.0057955470 -0.0103772072
0.3500257981 0.9821012648 0.0881004684 -0.0265024141 0.0068032639 -0.0055112262
0.0302345460 1.5039680942 -0.4029173244 -0.0096538676 0.0077839431 0.0076896035
-0.1894170872 0.7780048952 -0.3288467989 -0.0141646598 -0.0114462260 -0.0236158482
0.1141013353 1.2455219341 -0.4622539637 -0.0081999431 -0.0006429434 -0.0282189423
-0.0368156967 0.8867924194 -0.1893613891 -0.0109160373 -0.0162156409 -0.0033344150
0.2415258211 0.3431653267 -0.2180711050 -0.0198723955 -0.0085145091 0.0035390376
0.1439613531 0.6390701646 0.2534948395 -0.0220293577 -0.0062146979 -0.0220191690
0.2640061410 0.7974301963 0.4245384557 -0.0033553772 -0.0167018484 -0.0031924716
-0.3444933644 0.9505767377 -0.3158738560 -0.0208655653 -0.0049452451 -0.0234222633
-0.3132066297 0.8028297810 0.3522416660 -0.0154877541 -0.0176014333 -0.0070114714
0.2092717280 0.7735848765 0.2390716325 -0.0051807545 -0.0179153012 -0.0061577545
0.3399464211 0.9908898117 0.0055436602 -0.0252418858 0.0101582072 -0.0085814336
-0.3863930609 1.2606308581 -0.3718337596 -0.0189107917 -0.0041357734 -0.0250936594
0.0216559803 0.8867924194 0.0921178833 -0.0094339808 0.0187699238 -0.0082397733
0.4335600214 0.9146920976 -0.0111787920 0.0071484903 -0.0084772638 -0.0115702260
-0.0926497135 0.8177487805 0.4935820568 -0.0098871694 0.0133228297 0.0038990376
-0.4184955502 1.2930857248 -0.2836415742 -0.0149478862 0.0111455279 0.0035596036
-0.2507383679 0.7735848765 0.2082963695 -0.0122150750 -0.0181801125 -0.0064622828
0.4856298496 1.0467314322 0.1085878827 0.0086159053 -0.0041854715 -0.0125217542
-0.2865529326 0.1770828235 0.3136501768 0.0047775847 -0.0058107734 -0.0199035653
0.2551899715 0.7358490288 -0.0946943549 -0.0037703395 -0.0179386408 -0.0084050374
-0.1491017868 1.0901186570 -0.4245181161 -0.0150578862 -0.0041546036 -0.0266982443
-0.3178211767 1.4731616048 -0.4433860399 -0.0210141313 0.0004412641 -0.0240672632
0.3867924194 0.8724675897 -0.1531298433 0.0072250186 -0.0062051130 -0.0121411694
-0.4116979656 1.0875468269 0.0928276003 0.0077935657 0.0074342450 -0.0084952827
0.0566954130 1.5050494526 -0.4034578904 -0.0107566411 0.0061481507 0.0082717921
-0.0170556220 1.5625079976 -0.4245181161 -0.0094339808 0.0051413017 0.0087162072
-0.3526542697 1.3433225531 -0.3150104787 -0.0100079996 0.0072183582 0.0078872072
-0.0590534883 0.6981131812 -0.2410525569 -0.0098883581 -0.0182826597 -0.0122098109
0.3908656456 0.8746285708 0.4204651917 0.0011363962 -0.0030164905 0.0044723017
-0.3239885161 1.0507911490 -0.1854352760 0.0035176225 0.0085225657 0.0010911132
0.3128923467 1.4320812101 -0.3679143446 -0.0094339808 0.0000000000 0.0094441317
0.3542054772 1.3909363060 -0.3437563267 -0.0094339808 0.0119667731 0.0049087923
-0.4433962286 0.9287844555 -0.0312039988 -0.0259976971 -0.0088490374 -0.0094237921
0.4251729840 1.1704560313 -0.0266464330 -0.0251732632 0.0103967355 -0.0094237921
-0.3907754758 0.9517393603 0.3595914770 0.0024089433 0.0131827354 -0.0034470187
-0.3398597419 1.0372659609 -0.3393753268 -0.0193876596 -0.0027798678 -0.0251675651
0.1503240321 1.1707749558 -0.2934063286 -0.0068766412 0.0015834150 0.0056645092
-0.0383583004 1.5392726023 -0.4999898113 -0.0094339808 0.0047179055 -0.0275261122
0.0401061306 1.1640015598 -0.4564442092 -0.0094339808 -0.0059665658 -0.0273234707
0.0473461114 1.3080177620 -0.3490464208 -0.0098004525 0.0014659245 0.0090321883
-0.0385229231 1.2464213303 -0.4633923221 -0.0101776600 -0.0050723017 -0.0275651310
0.0407619796 0.7372522552 0.0582588846 -0.0095422449 -0.0186759427 -0.0067541884
-0.0425706776 0.8867924194 0.0750019028 -0.0094339808 0.0188679238 -0.0094237921
0.0590393563 0.7583723676 -0.3371768741 -0.0050375281 -0.0080236035 -0.0257924707
0.1841362761 0.9153527768 0.2552440281 -0.0129422259 0.0179796597 -0.0135164523
0.4748707557 0.9596875298 0.2043846715 0.0063135092 -0.0089678110 -0.0050709055
-0.2207548785 0.9197033238 0.3746464576 -0.0040488489 0.0172036786 -0.0046188866
0.1780135782 0.7575017450 -0.3140953466 -0.0087109619 -0.0130618674 -0.0229134897
0.4407353985 1.0728108652 -0.2121364826 0.0073649054 -0.0064298299 -0.0143795278
0.4622641146 0.9302443423 0.0882088646 0.0086833582 -0.0048099432 -0.0112987920
-0.0851006572 1.5453327907 -0.4056501545 0.0031451131 0.0033544338 0.0039939621
0.1460448058 0.6665549748 -0.0714789407 0.0080489620 0.0057092073 -0.0055976602
-0.0427268286 0.7169811050 -0.2901401777 -0.0094339808 -0.0168759805 -0.0178617918
-0.2347333874 0.3773584763 0.2607489902 -0.0094339808 -0.0188679238 -0.0094237921
0.2953146870 0.3812013818 0.2796169894 0.0083536035 0.0037819810 -0.0077695280
-0.3121179882 1.1179557314 -0.2397898400 0.0012655849 0.0113137354 0.0011849245
-0.2718402162 0.8301886479 -0.3270237801 -0.0168103579 -0.0125039052 -0.0213089992
-0.0524726773 1.6226414482 -0.4792409630 -0.0094339808 0.0188679238 -0.0094237921
-0.4229154746 0.8851795892 -0.0506362434 -0.0265994141 -0.0076646978 -0.0098852638
-0.1412805230 0.7358490288 -0.0814676762 -0.0094339808 0.0188405087 -0.0098706789
0.3929393437 1.1632371825 -0.1427145795 -0.0238570746 0.0026393584 0.0014801509
-0.1469383718 1.0717229596 -0.2547068017 -0.0064975469 0.0096980562 0.0059617734
0.0506623754 0.8579772129 0.4722215860 -0.0094339808 0.0133416410 0.0039178489
-0.4811320762 1.1687268993 -0.0408043381 -0.0283019046 0.0000000000 -0.0094237921
0.4691916804 1.0823991478 -0.0861077137 0.0083209053 -0.0049092828 -0.0119923958
-0.2019955395 0.7547169527 0.2049674828 -0.0132245089 -0.0180420559 -0.0063642639
-0.2671777258 0.3650343447 -0.1835485591 -0.0161953201 -0.0024188112 0.0050447545
0.0894405061 0.6998047472 -0.2375304061 -0.0086790940 -0.0180694333 -0.0143483768
-0.4177681540 0.9887654721 -0.1972298227 -0.0253027726 -0.0025090754 -0.0190872446
0.0308008668 1.1423800701 -0.3113105732 -0.0094339808 0.0000000000 0.0094441317
-0.3388654589 1.0744935066 -0.2027095207 0.0015436415 0.0052128111 0.0046949244
0.3519784584 1.2474991039 -0.4027283433 -0.0002085283 -0.0047922828 -0.0248635462
0.4127461731 1.1342368440 0.0403223381 -0.0253582632 0.0096171506 -0.0064266790
-0.3930265701 1.0062341884 0.2561307073 0.0061436790 0.0096384713 -0.0062415281
0.3490565717 0.9061110601 0.1726573708 -0.0283019046 0.0000000000 -0.0094237921
-0.2497986321 0.2839650459 0.3496158925 -0.0076016790 0.0031096225 0.0090885280
-0.4622641524 1.1478993718 -0.1703160879 -0.0281214706 -0.0005726981 -0.0102828298
0.0795572423 0.6981131812 -0.0506016396 -0.0094339808 -0.0188679238 -0.0094237921
-0.3490565717 0.9705905860 0.0487900548 0.0064743960 0.0098789808 -0.0090568110
-0.4790338498 1.1214822218 0.2653203485 -0.0150066975 0.0104541128 0.0027381320
0.3650027975 1.2046254262 -0.2177868031 -0.0220455841 0.0126116033 -0.0034064338
0.1913050305 0.7330918025 -0.0121810373 -0.0063141318 -0.0175320748 -0.0034066225
0.3207037992 0.1925949173 -0.3056063470 0.0028413395 0.0083683204 -0.0209399049
-0.2521427829 0.3106962147 -0.2318060290 0.0008588679 -0.0083882638 0.0037181131
-0.3187996861 0.2280092933 -0.2815207630 -0.0258728669 0.0074330941 -0.0129357542
-0.3490566095 0.9360491534 0.1065946564 0.0091371883 0.0000000000 -0.0081667167
-0.2146004825 0.7912624796 0.4160815692 -0.0130256221 -0.0181948106 -0.0072941318
0.3214834784 1.2193535389 -0.2908920456 -0.0155131504 -0.0041470376 0.0078593771
-0.3679245333 1.0493638661 -0.1043087130 0.0077211318 0.0040039055 -0.0042803961
-0.0390829042 0.8867924194 -0.0733027520 -0.0094339808 0.0188679238 -0.0094237921
0.0950998643 0.9056603432 0.3233726859 -0.0094339808 0.0188679238 -0.0094237921
0.4999999623 1.1546314470 0.0726823746 0.0094339430 0.0000000000 -0.0094237921
0.2404534060 1.3420356475 -0.4576496242 -0.0043979621 -0.0026588867 -0.0272426405
0.1392128815 0.7547169527 0.2735135746 -0.0073473016 -0.0177848106 -0.0035091131
-0.3867924571 0.9720204539 0.1738693519 0.0079730186 0.0031055848 -0.0065447922
-0.2677998390 0.2075908601 -0.2849896119 0.0025230754 -0.0083699431 0.0025332641
0.2110733128 0.5212495275 -0.1228181274 0.0080452827 0.0065818865 -0.0076680186
-0.2302620479 0.4430294172 0.3089358563 -0.0254339990 0.0053797922 -0.0020110943
-0.1327519195 0.7169811050 -0.0388909042 -0.0094339808 -0.0188679238 -0.0094237921
0.0230539614 1.2713300086 -0.4779014537 -0.0071892261 -0.0057307168 -0.0272370178
-0.3934507587 1.1480109378 -0.1537088810 0.0045671885 0.0014724528 0.0029495093
-0.4245283047 1.1199526181 0.0211946973 0.0083981506 0.0042700187 -0.0071904337
-0.3367893269 0.9245282670 0.1961170869 -0.0094339808 0.0188679238 -0.0094237921
0.0524833754 0.7735848765 0.4358507571 -0.0094339808 -0.0188679238 -0.0094237921
0.1029143169 0.7727388010 0.2102231996 -0.0094339808 0.0188626219 -0.0095437544
-0.2873397816 1.2740515368 -0.3162609692 -0.0058899809 0.0066233960 0.0077736790
0.2689312351 0.2946529323 -0.2235824067 -0.0244580934 -0.0083466789 -0.0017031886
0.3191008370 0.9577204544 -0.1603671826 -0.0198964332 0.0000000000 0.0057302828
-0.3197798181 0.7735848765 0.1623425976 -0.0152008862 -0.0177135276 -0.0077455846
-0.3956177209 1.0006627170 -0.2654122541 -0.0235841123 -0.0037613017 -0.0203028483
0.3319781762 0.0904458645 -0.3364613081 -0.0225264520 -0.0004987358 -0.0230006406
-0.3798197593 1.0426584324 -0.0774131292 0.0079215846 0.0065515658 -0.0076446790
-0.4522806622 1.1309762969 0.1851289553 0.0029069056 0.0072796412 -0.0175753012
0.2383806891 1.1874887288 -0.3113105732 -0.0108249996 -0.0003477547 0.0089989619
-0.2150120485 1.2285105385 -0.3114369316 -0.0147220749 0.0048306036 0.0077430563
-0.0206864898 0.6981131812 -0.0127929429 -0.0094339808 -0.0188679238 -0.0094237921
-0.2277718405 0.7547169527 0.1405005041 -0.0094339808 -0.0188679238 -0.0094237921
-0.3736567217 0.8547886847 0.4045829847 -0.0212853577 -0.0136092825 -0.0064594526
-0.3887607400 1.1171439767 -0.1378995797 0.0073113960 0.0082306978 -0.0082299053
-0.3156668937 1.1863798798 -0.2924426493 -0.0094339808 0.0000000000 0.0094441317
-0.0258256594 0.9808570196 -0.2169709541 -0.0088177544 0.0091478487 0.0070232073
-0.1348874666 0.9645137749 -0.1814847856 -0.0094339808 0.0082524525 0.0075349620
0.1282331272 0.9648838692 -0.1818549365 -0.0094339808 0.0095389053 0.0067419620
-0.4002433623 0.0142196598 -0.3562994583 -0.0234964142 0.0084409053 -0.0183976408
-0.1703662955 0.5580522242 0.2662679711 0.0021453961 -0.0042555847 -0.0235140180
-0.1615232015 0.8867924194 0.1269314480 -0.0094339808 0.0188679238 -0.0094237921
0.2979862718 0.2497450283 -0.2252951613 -0.0227040180 -0.0083529053 0.0007258113
-0.2223960105 0.4934114153 -0.1819425403 -0.0103794902 0.0056929432 -0.0263907915
-0.0376977344 1.3714694011 -0.4811218875 -0.0094339808 -0.0038619999 -0.0278162820
-0.2438180851 0.4706970577 0.2438282361 -0.0227756218 0.0000000000 -0.0227654331
0.3030115923 0.8364437420 -0.2881390269 0.0023139999 -0.0105307166 -0.0195862445
0.2670542541 0.7547169527 0.0532356584 -0.0055325847 -0.0182348106 -0.0094237921
0.2510941415 0.3995781547 0.2583499525 0.0052078300 0.0037562451 0.0018449811
-0.0030320188 0.7237911991 -0.0319748856 -0.0095162261 -0.0186862823 -0.0068271318
-0.0865397137 1.5449793945 -0.4999898113 -0.0098443581 0.0056935092 -0.0273118103
0.2724928010 1.5611182996 -0.4056501922 -0.0150139617 0.0060379054 0.0068227733
0.3679244956 0.9521573980 0.3294264404 -0.0238061123 0.0081230752 -0.0017641697
0.0172149050 1.5333637157 -0.4176150974 -0.0094339808 0.0059890375 0.0083581129
