-0.2743706438 0.0000000000 -0.0119739863 0.0068493151 -0.0136986301 -0.0136986575
0.0178449041 0.4794520548 0.5077271918 0.0068493151 -0.0136986301 -0.0136986575
0.2388743836 0.5132727945 0.5142163562 0.0029907945 0.0131335068 -0.0136986575
-0.0537164247 0.5805071507 -0.2243428219 0.0046476575 -0.0077553699 -0.0247432466
-0.4219853425 0.5205478904 0.3275326027 0.0068493151 -0.0136986301 -0.0136986575
-0.3703540685 0.1086808493 -0.4964353699 0.0072057260 -0.0071859589 -0.0020837534
0.2417484658 0.4393673699 0.0437945753 0.0133966164 -0.0117388630 -0.0163390137
-0.3387273699 0.4894554384 0.5585328493 0.0114674795 0.0012700411 -0.0262830959
0.2906280411 0.4652768493 0.2015519041 0.0132788904 -0.0119879041 -0.0122190274
-0.3289012192 0.4912935068 -0.2797769726 0.0034474932 0.0071857123 -0.0242259726
-0.2380619315 0.8952427671 -0.3609961370 0.0078415753 0.0081917123 -0.0032425205
-0.4501504247 0.5479451507 0.0658757534 0.0068493151 -0.0133045616 -0.0169577534
0.0821848767 1.1643835616 -0.5857547397 0.0068493151 -0.0092284795 -0.0238032192
-0.2974091370 0.7719705205 -0.2651212329 0.0079862603 0.0092438630 -0.0037638082
-0.2052487808 0.4594370685 0.5890410685 0.0065038493 -0.0006909315 -0.0000853425
0.3423511507 1.0043178219 -0.4289754384 0.0068493151 -0.0082191781 -0.0246575616
-0.3396223973 0.5108552740 0.1204676712 0.0166018356 0.0095668082 -0.0135756712
-0.3636155890 0.0074753151 -0.0136986575 0.0068493151 0.0000000000 -0.0273972877
-0.2455372466 0.6795958493 -0.2321690685 0.0001764795 -0.0072311507 -0.0231378630
0.1568965890 0.5963893562 -0.1925986301 0.0019900822 0.0071694795 -0.0031366301
0.4337933151 0.5205479452 0.3771797260 0.0068493151 -0.0136986301 -0.0136986575
0.1799030822 0.4940118630 0.5607826301 0.0076112740 -0.0122890274 -0.0187030411
-0.2531237671 0.9042802603 -0.3699483288 0.0068679315 0.0082052329 -0.0027335342
-0.0934981644 0.4684309178 0.3588418493 0.0084608082 0.0130894521 -0.0164192055
-0.3266257260 0.6438240137 -0.1369746986 0.0086138082 0.0107780685 -0.0058502603
-0.3904109589 0.8928630274 -0.3550879315 0.0021688219 -0.0065119178 -0.0241321781
0.0379003288 1.1750981644 -0.5753424932 0.0068493151 0.0096863973 -0.0040122603
0.2806803836 0.4931506849 0.4104335479 0.0068493151 -0.0136986301 -0.0136986575
0.2148454247 0.4729650822 0.3177783151 0.0033318630 0.0122343425 -0.0186792192
0.3311097945 0.6427396438 -0.1917808493 0.0081294110 0.0000000000 -0.0271895616
0.0887163425 0.6585868904 -0.2676496164 0.0073698493 -0.0079171507 -0.0248425753
-0.3240324521 1.0215154110 -0.4324743151 0.0094923562 0.0063869315 -0.0020298630
0.2067706575 0.7791609041 -0.2997088493 0.0031611918 0.0071808493 -0.0026920137
-0.0175439863 1.0268029041 -0.4657534521 0.0068493151 0.0095319178 -0.0039009178
0.1333128493 0.4057707123 0.5753424384 0.0032834932 0.0053251507 -0.0247672329
0.2472175753 0.8915900685 -0.3841512055 0.0068493151 -0.0081291096 -0.0247132329
-0.0180425890 0.3835616438 0.0117565753 0.0068493151 0.0133528082 -0.0113988082
-0.1565316164 0.4854509041 0.4376578356 0.0013337534 -0.0111352055 -0.0079749041
0.3868926575 0.7111760959 -0.1906281781 0.0068493151 0.0096863973 -0.0040122603
-0.1173805068 0.9006164795 -0.4023630548 0.0060937945 -0.0063114795 -0.0258179452
0.4786382192 0.5342465753 0.2530099726 0.0034960548 0.0126235616 -0.0136986575
0.1843483836 1.0528488219 -0.4906219315 0.0009715342 -0.0106322055 -0.0197708082
0.4163833288 0.5205479452 0.3584231781 0.0068493151 -0.0136986301 -0.0136986575
-0.3876851233 0.8391999589 -0.3174575342 0.0068493151 -0.0085574658 -0.0243954932
0.1388066986 1.1780821918 -0.5923915205 0.0068493151 0.0136986301 -0.0136986575
-0.0066019452 0.3698630137 0.0207095068 0.0064555342 -0.0135049589 -0.0147487260
0.2239403425 0.4199744932 0.0815779315 0.0123609178 -0.0122013151 -0.0162787397
0.0089340411 1.1034991096 -0.5408129041 0.0104890137 -0.0077673973 -0.0241239452
-0.2200521507 1.0632870822 -0.5008740685 0.0066137397 -0.0072070548 -0.0251879726
0.0829532740 1.0136986301 -0.4758243562 0.0068493151 -0.0096863973 -0.0233850548
0.0426821096 0.8896232466 -0.3967351781 0.0057374658 0.0069463425 -0.0020716986
0.1453751507 0.8492293699 -0.3697773425 0.0081228904 -0.0070854247 -0.0253338082
-0.1512124658 0.4794520548 0.4806183836 0.0038753973 -0.0130739589 -0.0117160411
0.2444132740 0.4567420685 0.2276673973 0.0023227260 0.0126125753 -0.0161111644
0.0717978493 0.4121678767 -0.0435138904 0.0054409452 0.0119907534 -0.0072522055
0.4158038767 0.0000000000 -0.4755949589 0.0068493151 -0.0136986301 -0.0136986575
-0.0762752466 0.4241693562 0.5890410685 0.0068493151 0.0000000000 -0.0273972877
-0.0346146027 0.4286312740 0.2682214247 0.0076055890 0.0125839041 -0.0189952055
-0.2930438356 0.5634224795 -0.0976690959 -0.0032340411 -0.0068220685 -0.0198352466
0.3688465479 0.5550381370 0.0132113562 0.0003496849 0.0104647671 -0.0079608219
0.2328338630 0.4891256027 0.3932351644 0.0099508356 -0.0113780548 -0.0068775616
-0.3383414658 0.7290907534 -0.2222414658 0.0071675616 0.0097468082 -0.0041445479
-0.1193785890 0.6117352055 -0.2252333699 0.0112040959 0.0077693425 -0.0033116301
0.4131759726 0.7630624110 -0.2562131781 0.0068493151 -0.0091702603 -0.0238326986
-0.4863013699 0.5243209452 0.2109515342 -0.0068493151 0.0000000000 -0.0136986575
0.1078822603 0.4657534247 0.3969863973 0.0082383014 -0.0121892466 -0.0077409726
-0.1803519589 0.6486985205 -0.2126321233 0.0108154932 0.0074161918 -0.0029251233
-0.1154673151 0.4350193699 -0.0828530411 0.0035662466 -0.0111656301 -0.0208501096
0.0775242055 0.3972602740 0.1605624110 0.0062232466 0.0132760685 -0.0169181781
-0.3181286575 0.4850029041 -0.2622886301 0.0156517534 -0.0061317671 -0.0054183425
-0.1923895753 0.4794520548 0.3466677260 0.0091237260 0.0131261233 -0.0164806575
0.0934488904 0.4109589041 0.5990197945 0.0098100137 -0.0060438356 -0.0024334521
0.5000000000 0.5438287260 0.1386618630 0.0205479452 0.0000000000 -0.0136986575
0.0031682329 1.1734541781 -0.5753424932 0.0068493151 0.0096863973 -0.0040122603
-0.1279075068 0.3947784247 0.1616492877 0.0038062055 -0.0129862603 -0.0106865753
-0.2958212055 0.4061898493 0.3816020685 -0.0063861370 0.0035319863 -0.0136986575
0.4246382055 0.6721453699 -0.1378988493 0.0068493151 0.0104032192 -0.0048666575
-0.3908083425 0.0000000000 -0.2819796301 0.0068493151 -0.0136986301 -0.0136986575
-0.2198083151 0.4556063836 0.0041161507 0.0138584110 0.0112689863 -0.0104005342
-0.2790546164 0.4931506849 0.3742277534 0.0068493151 -0.0136986301 -0.0136986575
-0.2487281096 0.4473582740 0.1291518493 0.0147947260 0.0111188219 -0.0137535616
-0.3435041370 0.5750187945 -0.0246731370 0.0144003014 0.0092502466 -0.0077909041
-0.0879908493 0.3986423973 0.1695801370 0.0086538219 0.0132138630 -0.0167495479
0.3311183836 0.5590640548 -0.2125067945 0.0067033562 -0.0070454795 -0.0019562055
0.0572335068 0.4448196164 -0.1114083425 0.0088337397 -0.0103620000 -0.0223893288
-0.2390748082 0.4448798767 0.2297362466 0.0016095068 -0.0123602877 -0.0111907671
-0.2434778630 0.4669517123 0.3025681233 0.0023424110 -0.0122609315 -0.0096392466
0.3082191781 0.4760556712 0.1902539178 0.0175861781 -0.0073813014 -0.0130325753
-0.3313293425 0.4707800959 -0.2654771644 0.0024102603 -0.0051559452 -0.0040940822
0.3536332603 0.4931506849 0.2353565479 0.0140764795 -0.0114969041 -0.0125531096
0.3402715205 0.2934336712 0.3955913973 0.0201001781 0.0034736301 -0.0136986575
-0.2433620137 0.4525384795 0.1977795342 0.0120858082 0.0124168904 -0.0161005068
-0.3029827808 0.6204251370 -0.1312612466 0.0074644932 0.0098401918 -0.0042784658
-0.0222370274 0.4054299452 0.1944214795 0.0072273151 0.0129685616 -0.0179354521
-0.1213601507 0.4931506849 0.4505501507 0.0068493151 0.0136986301 -0.0136986575
-0.3997706575 0.0136986301 -0.2386779589 0.0068493151 0.0136986301 -0.0136986575
-0.4185294795 0.5205480000 0.2486156027 0.0068493151 -0.0136986301 -0.0136986575
0.3613778219 0.5901674795 -0.0715101781 0.0146961370 -0.0080434521 -0.0215180822
0.3502380411 0.5126037534 0.2995238904 -0.0015224384 0.0105541918 -0.0157915890
0.2412415342 0.4804060959 0.3230680959 0.0036800137 0.0126601781 -0.0178402740
0.1637642740 1.0572704110 -0.4794520822 0.0058385479 0.0043508219 -0.0012428356
0.3553561644 0.5256085890 0.0764950959 -0.0014606712 0.0103116986 -0.0104471781
0.3847513562 0.1457142877 -0.4961330685 0.0068493151 0.0073683973 -0.0252398356
-0.4387811096 0.8084113699 -0.2878634521 0.0068493151 -0.0082294658 -0.0246486301
-0.0479737397 0.9396063425 -0.4355566164 0.0064494247 -0.0074713014 -0.0251432603
-0.0903901370 0.4687546986 -0.1155916712 0.0087672740 0.0104252877 -0.0050609452
-0.4216024795 0.5342465753 0.4659224521 0.0068493151 0.0136986301 -0.0136986575
0.0274730411 0.8407902192 -0.3670214110 0.0068493151 0.0063173973 -0.0015511781
-0.2106457671 1.0191471644 -0.4438046986 0.0084673014 0.0087066301 -0.0033740548
-0.2732447260 0.9449603973 -0.4107138493 0.0063280411 -0.0069527534 -0.0254530959
-0.0916445753 0.7448383425 -0.3167726164 0.0044051096 -0.0059894521 -0.0257471096
0.4637822192 0.6160861507 -0.0540900274 0.0068493151 0.0122304521 -0.0075345753
-0.2011488767 0.8155012740 -0.3208027123 0.0101372740 0.0066087397 -0.0021875342
-0.1432664110 0.8213241781 -0.3559583699 0.0012403288 -0.0064317945 -0.0244000411
-0.0992443562 0.3818139589 0.0544163151 0.0034680274 -0.0132275753 -0.0144940137
0.1450235205 0.4769159041 -0.1040054247 0.0012860411 0.0092640959 -0.0053688219
0.1192638356 0.9676049589 -0.4403146438 0.0086966301 -0.0072039863 -0.0251848630
0.1550652466 0.5068493151 0.5108966301 0.0047332192 0.0131816849 -0.0152423973
0.3376970685 0.4709736027 -0.2909688356 0.0010041918 0.0055298904 -0.0240980274
0.2555245205 0.8825795479 -0.3483330000 0.0046905068 0.0073895479 -0.0025160274
-0.3309854247 0.8659444247 -0.3316978767 0.0068493151 0.0083521370 -0.0028427534
0.3097287260 0.5936685890 -0.1188441096 0.0068493151 -0.0122524247 -0.0198248767
0.2184936301 0.5068493151 0.5084406438 0.0068493151 0.0136986301 -0.0136986575
-0.3579106849 0.7228699315 -0.2297192740 0.0053185479 -0.0095553699 -0.0230837808
-0.2206297534 0.4288080274 0.1115611233 0.0114267534 0.0124923973 -0.0135965479
0.2997006438 0.6350495890 -0.1555975068 0.0035225205 0.0087250685 -0.0043319041
0.0587893151 0.0094844521 -0.0094844795 0.0068493151 0.0096863973 -0.0040122603
-0.0937084110 0.4014615068 0.5890410685 0.0039519726 -0.0007918630 -0.0005674795
-0.0100454384 0.9486144658 -0.4417651781 0.0068493151 -0.0067856849 -0.0254942055
-0.2329909452 0.4864156027 0.3385228493 0.0103511370 0.0125854247 -0.0177302329
0.4627301507 0.6953060137 -0.1610595205 0.0068493151 0.0109125479 -0.0054918767
0.2029190685 1.1749013562 -0.5847522055 0.0104835342 -0.0069011370 -0.0247295616
-0.4295747260 0.7114393151 -0.1900018767 0.0068493151 0.0109874110 -0.0055197671
-0.0603911644 0.8890299315 -0.3903468219 0.0098013288 0.0063854110 -0.0019890274
-0.0085208356 0.4657534247 0.4187107397 0.0059274795 -0.0129203014 -0.0104423562
0.2397260274 0.8809316986 -0.3707538493 0.0124574247 -0.0071246438 -0.0236786712
0.3754915205 0.1471818219 -0.4739583973 -0.0067183014 -0.0008968219 -0.0152803699
0.4041095890 0.0060935479 -0.1063488767 -0.0068493151 0.0000000000 -0.0136986575
-0.2290236575 0.5993262466 -0.1626768356 0.0130249863 0.0077190000 -0.0042235205
0.4178082192 0.0034925753 0.3760749863 0.0205479452 0.0000000000 -0.0136986575
-0.4655173836 0.5342465753 0.1842655068 0.0068493151 0.0136152192 -0.0129113151
0.2913093014 0.7039576438 -0.2382042466 0.0068493151 -0.0086674795 -0.0242687534
-0.0126000137 0.4022687397 0.2291949863 0.0068493151 -0.0128200685 -0.0088873973
-0.3276064932 0.4077847671 -0.3064210685 0.0152132055 -0.0062802466 -0.0053533014
0.0701594795 1.1738240548 -0.5753424932 0.0068493151 0.0096863973 -0.0040122603
0.3730361096 1.0015313151 -0.4261888767 0.0068493151 -0.0096043836 -0.0234561781
0.2568780274 0.6888686986 -0.2211467123 0.0058957260 0.0083655616 -0.0029780548
0.3447646575 0.9260205890 -0.3671199041 0.0063662740 0.0077809041 -0.0025190685
-0.1279712603 0.4591931370 -0.1041116575 0.0038742877 -0.0107038767 -0.0216792603
-0.3754048767 0.6621324658 -0.1747915068 -0.0040228904 0.0058135342 -0.0195121918
0.1865852055 0.4109589041 0.1141250000 0.0103965479 -0.0132060411 -0.0135022877
0.0630194932 0.5213398904 -0.1846396575 0.0095582740 -0.0082103699 -0.0243173425
0.1250247397 1.1722777945 -0.5720942466 0.0045868356 0.0089030685 -0.0035774795
-0.0458241918 0.4264426027 -0.0720633014 0.0093512192 0.0113946986 -0.0065749452
-0.3239485890 0.4931506849 0.1621718082 0.0082852877 0.0131038356 -0.0136986575
0.4426968767 0.7305067945 -0.2236574932 0.0068493151 -0.0107508493 -0.0221577260
-0.0164853699 0.6203428356 -0.2367812192 0.0068493151 0.0072337671 -0.0020788219
-0.0275965068 0.3698630137 0.0826218356 0.0066299041 -0.0136849452 -0.0134792466
-0.2831721370 0.4681035890 0.0525873699 0.0000767671 -0.0113068219 -0.0173769178
-0.0512101096 0.4794520000 0.5255980000 0.0068493151 -0.0136986301 -0.0136986575
-0.3990489726 0.0000000000 0.3821358082 0.0068493151 -0.0136986301 -0.0136986575
0.2500699178 0.4866854521 -0.0519282329 0.0145827260 -0.0088734932 -0.0206162466
-0.1093055342 0.4520547945 0.3053877534 0.0068009452 0.0123607397 -0.0194095753
-0.3578367397 0.2845579726 -0.3945120274 -0.0065231096 0.0000000000 -0.0107270137
-0.1405752192 0.4159785753 0.5809954521 0.0101987534 0.0038463836 -0.0253820274
-0.2889557945 1.1477144795 -0.5175774795 0.0129943836 0.0073490411 -0.0046019178
0.1986449041 0.4741090685 0.3645200000 0.0094164110 -0.0119987808 -0.0076653973
0.4257960411 0.5205479452 0.3255469726 0.0068493151 0.0136986301 -0.0136986575
0.0766846712 1.0009861781 -0.4530410000 0.0067236027 0.0064059315 -0.0016410685
-0.1940448082 1.1015700274 -0.5262275342 0.0068493151 -0.0076357945 -0.0249888904
-0.0178292740 0.3698630137 0.1200785890 0.0068493151 -0.0133375342 -0.0107654110
-0.3955929863 0.0000000000 0.1763476849 0.0068493151 -0.0136986301 -0.0136986575
0.1510115616 0.7336729452 -0.3016046712 0.0111463562 -0.0062047945 -0.0250162466
-0.3713868493 0.1004273836 0.4277144932 0.0137721096 -0.0038122740 -0.0247163562
0.3904109589 0.5126175616 0.1654395616 0.0172910000 -0.0082462466 -0.0149872466
-0.0008829178 0.3804963562 0.1445543014 0.0068493151 -0.0132896164 -0.0103762466
-0.4304658082 0.5916023836 -0.0177801507 0.0082881507 -0.0110654384 -0.0215840548
-0.1768740411 0.8638443151 -0.3702783425 0.0035845205 -0.0068699726 -0.0250667945
-0.4463626438 0.5367137945 0.1046545890 0.0068493151 -0.0132187123 -0.0172882466
-0.3563170548 0.5533787945 0.0146354384 0.0143469178 0.0085883288 -0.0062362466
0.1606913151 0.4625283288 -0.0999817945 0.0121564932 -0.0098934521 -0.0213856301
-0.3424636164 0.1991651507 0.4262361096 0.0068493151 0.0029316712 -0.0003175068
0.3123559863 0.4931506849 0.2716644795 0.0023268493 0.0124022329 -0.0154506849
0.3904109589 0.5392128904 0.1255883014 -0.0004461507 0.0109280000 -0.0115160685
-0.1694264658 0.4476420822 -0.0400230000 0.0117602192 0.0110340548 -0.0073412055
-0.1416350548 0.4931506849 0.4293750822 0.0068493151 0.0136986301 -0.0136986575
0.2843863562 0.6411272329 -0.1718093562 -0.0010828630 0.0064918493 -0.0048636849
0.0010956301 0.7780991644 -0.3278595616 0.0068493151 0.0069965753 -0.0019236027
0.2082253151 0.4363044384 0.2024378630 0.0016593014 0.0123163425 -0.0166399589
0.3722695068 0.5205479452 0.3612036301 0.0068493151 0.0136986301 -0.0136986575
-0.2471888356 0.5873372329 -0.1597488082 0.0000640411 -0.0082519589 -0.0221066849
0.4645688767 0.5342465753 0.3299381096 0.0035985753 0.0127517260 -0.0153240274
0.2687325205 0.6516567397 -0.1859033699 0.0028952466 0.0087128219 -0.0039264110
0.4178082192 0.0235365890 0.4442806712 0.0205479452 0.0000000000 -0.0136986575
-0.1815459726 1.0750348904 -0.5100055068 0.0068493151 -0.0065508493 -0.0254071781
0.0490265890 0.5335027671 -0.1777103288 0.0053528356 0.0062189726 -0.0016003562
0.4023883014 0.5205479452 0.5190916986 0.0068493151 -0.0136986301 -0.0136986575
0.3098994247 1.1034541781 -0.5007144795 0.0049543425 -0.0091128082 -0.0235681507
0.2924618630 1.0435196301 -0.4669653699 0.0088168219 -0.0069957534 -0.0252799726
0.3692917808 0.5205479452 0.5215885479 0.0068493151 -0.0136986301 -0.0136986575
0.1636989589 0.4911177123 0.4007281507 0.0030403973 0.0116269589 -0.0196910411
-0.1819718219 1.0094197945 -0.4383561918 0.0076024247 0.0041490685 -0.0007493973
0.2256156164 0.7232158082 -0.2711610411 0.0086208219 -0.0083337123 -0.0241934795
0.2123963562 0.4497450274 -0.0364087534 0.0112624932 -0.0112199452 -0.0200949041
0.2951890137 0.9986630822 -0.4345052055 0.0184984521 0.0057202877 -0.0149713425
0.4452054795 0.8389006849 -0.3089914521 0.0201389452 0.0007369589 -0.0162841096
0.3177532877 0.5121641781 0.3667393288 0.0007075479 0.0117093562 -0.0172439178
-0.2699596986 0.5205479452 0.4650143973 0.0126468493 0.0092914932 -0.0210626849
-0.1455920548 0.5123436301 -0.1309312877 0.0124023562 0.0080565753 -0.0041173288
0.0064198356 0.6745611233 -0.2893353562 0.0068362055 -0.0068152192 -0.0255605479
-0.1644810685 0.4007336849 0.1588793425 0.0022016575 -0.0126059178 -0.0111952329
0.0297029178 1.1917808219 -0.6007621781 0.0068493151 0.0136986301 -0.0136986575
0.1729670548 0.6608987534 -0.2285248356 0.0028969589 0.0075116575 -0.0030996986
0.2035850411 0.4931506849 0.3845153425 0.0039663151 0.0125643288 -0.0175426575
0.1421669863 0.4657534247 0.3588940137 0.0089553014 -0.0125738356 -0.0097327945
-0.1838924658 0.4907733425 0.4407334795 0.0047276301 -0.0104524247 -0.0215539178
0.0910165068 0.3835616438 0.1000976164 0.0048127397 0.0133631096 -0.0150968082
0.0049645890 0.9188080822 -0.4114588904 0.0068493151 0.0061262192 -0.0014462329
-0.3487293014 0.6133937534 -0.1171984932 0.0014343562 -0.0103433014 -0.0208115753
0.3412553973 0.6996142192 -0.2074476986 0.0116818630 -0.0083933699 -0.0228535068
0.1885823288 0.4881267808 0.5048457945 0.0097908082 -0.0122658767 -0.0087875068
0.0182371233 0.4659418630 0.4248459452 0.0085283562 -0.0121058082 -0.0075791233
-0.4880771918 0.5890410959 -0.0129241644 0.0068493151 0.0129413288 -0.0092356027
-0.3793533836 0.8060612055 -0.2865923014 0.0068493151 -0.0082191781 -0.0246575616
0.4409545479 0.8575328630 -0.3235703836 0.0198170822 0.0000000000 -0.0178911370
0.3212602740 0.5815342877 -0.1994191644 0.0035009041 -0.0063079041 -0.0023786849
0.2329895890 0.5702896575 -0.1540522329 0.0129180959 -0.0087187397 -0.0223315616
0.0338601918 0.5475108493 -0.2052623014 0.0075509315 -0.0077335890 -0.0249456027
0.0312832466 1.1232876712 -0.5547437534 0.0068493151 -0.0136986301 -0.0136986575
0.4098605342 0.8103131918 -0.2799348219 0.0068493151 0.0085372192 -0.0029858493
-0.1392253699 0.3881058356 0.0493088904 0.0027654795 -0.0128762055 -0.0151188630
-0.2688256849 0.7054267808 -0.2242723288 0.0131559041 0.0073592466 -0.0056355342
0.0596780411 0.4794520548 0.4199313288 0.0068493151 0.0136188082 -0.0146630959
0.4362513151 0.8053136301 -0.2862184932 0.0068493151 -0.0082191781 -0.0246575616
-0.3357226438 0.4931506849 0.3220403151 0.0019122055 -0.0122073973 -0.0116920959
0.4247057671 0.5369494658 0.1315804795 0.0068493151 0.0133074384 -0.0104633973
-0.1704493973 0.0105389452 -0.0105389726 0.0068493151 0.0096863973 -0.0040122603
0.1960493151 0.5134642055 -0.1104338630 0.0005011507 0.0086196164 -0.0052744110
0.4690790548 0.5431698904 0.1465369178 0.0043098493 0.0131170137 -0.0110737397
0.1589189452 0.4513868630 -0.0527662329 0.0018699452 0.0107848767 -0.0068937260
-0.3309821233 0.8349367945 -0.3054830274 0.0068493151 0.0086085068 -0.0030432466
0.1275526849 1.1369863014 -0.5454268493 0.0068493151 0.0136986301 -0.0136986575
-0.0760608356 0.7763804658 -0.3258061918 0.0071546027 0.0074920411 -0.0022582466
-0.1182045479 0.4745706027 0.6027396986 0.0051869452 0.0029701644 -0.0006668219
-0.0759168082 0.4109589041 0.2447911096 0.0050439726 -0.0125321507 -0.0086455479
0.0732302603 0.7160154932 -0.3071650411 0.0077959315 -0.0066705068 -0.0255655753
-0.0421367671 0.4109589041 0.2470437945 0.0067761507 -0.0129902055 -0.0093685890
-0.1376756575 0.5566098493 -0.1702559041 0.0113749589 0.0077016164 -0.0033304932
-0.1562493014 0.4926053973 0.5890410685 0.0068359726 0.0036055616 -0.0005666575
-0.1304663973 0.4456617260 0.6027396986 0.0060639041 -0.0011533014 -0.0001548630
-0.3817336164 0.0612095753 0.4333277397 0.0106075890 -0.0033677123 -0.0260866027
0.2677859452 0.8492467123 -0.3241553973 0.0042128356 0.0069830274 -0.0024131781
0.3051567397 0.3821127945 0.3789489178 -0.0064403014 -0.0033224110 -0.0136986575
0.2261081918 0.9758149178 -0.4382753973 0.0157726027 -0.0038922329 -0.0224327260
0.3222479589 0.5205479452 0.3933590685 0.0046669726 0.0131442466 -0.0147898219
0.4178082192 0.0127140137 0.0863592603 0.0205479452 0.0000000000 -0.0136986575
-0.0400065479 0.4974343836 0.5753424384 0.0075950137 0.0083019726 -0.0035976986
0.0448698082 0.4072581233 0.1980778082 0.0061360137 0.0130395479 -0.0177897808
-0.3378202055 0.5205479452 0.3714814932 0.0068493151 0.0136986301 -0.0136986575
-0.0325849589 1.0547944110 -0.5005251507 0.0061449041 -0.0096571507 -0.0233558082
-0.3932297534 0.0136986301 0.0800811918 0.0068493151 0.0136986301 -0.0136986575
0.1365384384 0.5598668082 -0.1772009315 0.0014324384 0.0074014521 -0.0035471644
-0.3579671370 0.6318634247 -0.1780822192 0.0068493151 0.0000000000 -0.0000000274
0.3721581507 0.5319113562 0.5365817671 0.0052554932 0.0129041781 -0.0095661233
0.1226297123 0.4885269041 0.5799662192 0.0068493151 -0.0109283288 -0.0216619589
0.2718850274 0.5068493151 0.4540129589 0.0024453014 0.0121320959 -0.0169955890
-0.0317430548 0.6468861233 -0.2617992740 0.0095878493 0.0074146027 -0.0026251096
0.0847071370 0.4931506849 0.5742319452 0.0068493151 -0.0136986301 -0.0136986575
-0.0661380822 0.3703893836 0.0349145068 0.0039904247 -0.0131002055 -0.0161250548
-0.3660220548 0.0924735479 0.4520547671 0.0068493151 0.0023998904 -0.0002266164
0.1165252329 1.1530557945 -0.5640147260 0.0080553973 -0.0100010685 -0.0227566575
-0.2218060411 0.4478334384 0.1973065753 0.0124133836 0.0123850000 -0.0154692329
0.0153013562 0.9966712877 -0.4520548219 0.0068493151 0.0061262192 -0.0014462329
0.3290918904 0.6499268493 -0.1491688767 0.0036637534 0.0100423014 -0.0052511096
-0.2505494247 1.1017933699 -0.4960259452 0.0145026027 0.0000000000 -0.0031701233
-0.0235802329 0.3698630137 0.0434523425 0.0067371644 -0.0136777534 -0.0139229452
0.3947290411 0.6608846438 -0.1403367397 0.0076179589 -0.0109161507 -0.0217447260
0.1896698219 0.9799957260 -0.4320506575 0.0068493151 0.0058355753 -0.0014384247
0.3327452740 0.4686433973 -0.2679016164 -0.0025848356 -0.0029376849 -0.0113580548
-0.3916425890 0.9127947671 -0.3605070000 0.0068493151 0.0075556986 -0.0023296986
-0.1488391370 0.7393584521 -0.3002221644 0.0018997808 -0.0059313699 -0.0249296849
0.0051386712 1.1189677671 -0.5299267397 0.0068493151 0.0096863973 -0.0040122603
0.4121764521 0.7340552466 -0.2272059315 0.0068493151 -0.0105860411 -0.0223477534
-0.4427702877 0.5205479452 0.3049308356 0.0068493151 -0.0136986301 -0.0136986575
0.1741054932 0.4192445342 0.2219408082 0.0111184658 -0.0125221781 -0.0103252192
-0.1438782055 0.4965663014 -0.1198327123 0.0127008767 0.0080118630 -0.0042962329
-0.3549028630 0.4987385342 0.2856470137 -0.0008547671 -0.0111944932 -0.0124618493
-0.2824324247 0.7998262740 -0.2929769589 0.0072899041 0.0085101096 -0.0030961918
-0.0481489726 0.5762282603 -0.2063652466 0.0094831781 0.0080561370 -0.0029571370
0.0637367534 0.4597777260 0.3775859452 0.0078694932 -0.0107624384 -0.0056057260
0.0173186712 0.9599126575 -0.4320111233 0.0068493151 0.0069166301 -0.0019049178
-0.1876539589 0.4343364110 0.2495120000 0.0031347808 -0.0123273014 -0.0092681233
0.3630136986 0.7543417534 -0.2403271507 -0.0038086849 0.0010492329 -0.0090683836
-0.2299497671 0.8102087808 -0.3033594932 0.0111899452 0.0064017260 -0.0025829315
0.1934960822 1.1270268082 -0.5393806575 0.0137133836 0.0000000000 -0.0254925342
0.1296782603 0.4041061918 -0.0205445616 0.0103786027 -0.0119084658 -0.0192647534
0.3904109589 0.0575925616 -0.5215951918 -0.0039633151 -0.0069674110 -0.0136986575
0.1026996575 0.4520547945 0.3147244110 0.0063996164 0.0132131918 -0.0162446849
-0.1615905753 1.0758180000 -0.5068493425 0.0068493151 -0.0032757671 -0.0266239863
-0.2524480411 0.5068493151 0.3937050274 0.0098818356 0.0119192603 -0.0179162603
-0.2341122603 0.4355492740 0.1004015068 0.0138654658 0.0113217123 -0.0119536986
-0.2810575616 0.4923434384 -0.0134630137 -0.0024555890 -0.0076864658 -0.0197749726
0.3373630959 0.5205479452 0.4342370000 0.0068493151 0.0136986301 -0.0136986575
-0.1129393425 0.4899400137 -0.1345806027 0.0115247945 0.0084540959 -0.0040732603
-0.0294364658 0.4657534247 0.3977959452 0.0068070959 -0.0136695616 -0.0135297808
0.1282633699 0.4816303562 -0.1390122740 0.0108687397 -0.0088451370 -0.0233454795
-0.1525386164 0.4744769041 -0.0934335479 0.0131976301 0.0096172055 -0.0063295342
-0.3270099041 0.8022369452 -0.2816890822 0.0075356438 0.0082546164 -0.0028018767
0.4058788767 0.0000000000 -0.5187115342 0.0068493151 -0.0136986301 -0.0136986575
-0.1997110685 0.4936911644 0.5301238493 0.0026574384 -0.0103835616 -0.0073146986
-0.2797574658 1.0762828630 -0.4716562466 0.0103793425 0.0074696849 -0.0036350959
0.2120005890 0.5103216849 -0.1236158767 0.0128235479 -0.0078302055 -0.0231926712
-0.3497914110 0.5205479452 0.4451591507 0.0047671644 -0.0133339315 -0.0131037534
0.3226925342 0.4931506849 0.1428813425 0.0041406164 0.0128022877 -0.0132682740
-0.1329130137 0.6437187671 -0.2382212329 0.0115653425 0.0067749041 -0.0028449315
-0.3916538767 0.5205524384 0.2328676438 0.0077249726 0.0129637945 -0.0106762603
-0.4137979589 0.6780191233 -0.1437725753 0.0068493151 0.0099413288 -0.0042970959
-0.0723225205 0.4931506849 0.5384292329 0.0068493151 -0.0136986301 -0.0136986575
0.3448058356 0.5587215616 -0.0152856027 -0.0008073836 0.0088442603 -0.0066000822
0.1570071096 1.1470096575 -0.5579686438 0.0069217260 -0.0096032877 -0.0234467534
0.0777821370 0.4113084247 0.2472743151 0.0079514384 -0.0124537945 -0.0081667123
-0.2765246027 0.8478025616 -0.3409532740 0.0047346438 -0.0079985753 -0.0243697123
-0.0646941507 0.4639198082 -0.1165701644 0.0089295753 0.0101586986 -0.0047957534
-0.0917464932 0.7055496849 -0.2854115479 0.0080556164 0.0056394384 -0.0014222877
-0.1063715205 0.4794520548 0.3850007808 0.0068493151 0.0136986301 -0.0136986575
0.1216809589 0.7369402055 -0.2973556849 0.0038929589 0.0069703425 -0.0023140137
0.0805720959 0.4263730274 0.2372070000 0.0057957123 0.0128383699 -0.0182034521
0.4133073973 0.0136986301 0.0409866164 0.0068493151 0.0136986301 -0.0136986575
-0.3216549589 0.4816046438 0.5616438082 0.0089736986 0.0000000000 -0.0270525479
-0.3082191781 0.5321658904 -0.0125194384 0.0174064521 0.0053615753 -0.0068946712
0.1572113699 0.4417212466 0.2788587260 0.0041773014 0.0125784247 -0.0184106712
0.4159191096 0.0000000000 0.2662269041 0.0068493151 -0.0136986301 -0.0136986575
0.1688114247 0.4931506849 0.5408496849 0.0092653014 -0.0130909178 -0.0114824110
0.2091139315 0.6377131781 -0.2229662055 0.0105530548 -0.0085406986 -0.0236380548
0.4117968767 0.5342465753 0.2271647808 0.0068493151 0.0134725890 -0.0115386301
-0.4716898219 0.6234295479 -0.0687769041 0.0068493151 -0.0118340411 -0.0205458356
-0.0135394384 0.0113256164 -0.0113256438 0.0068493151 0.0096863973 -0.0040122603
-0.3059968356 0.4931506849 0.3916787671 0.0030977260 -0.0125162466 -0.0114476986
-0.0145476164 0.3835616438 0.1775193699 0.0068493151 -0.0134296712 -0.0109990685
-0.0297784658 0.4383561644 0.3235135205 0.0056213425 -0.0128652740 -0.0093293699
-0.1518641781 0.7647737534 -0.3030301781 0.0105311918 0.0065764247 -0.0022713699
-0.3143134384 0.8772226575 -0.3609007534 0.0068493151 -0.0069320274 -0.0255110411
0.3087246986 0.7465379315 -0.2396886849 0.0047459315 0.0087214795 -0.0035504247
-0.1853464247 0.4887228082 0.4994685342 0.0042507397 -0.0129928630 -0.0131793562
-0.3745415068 0.5205479452 0.3867691507 0.0068493151 -0.0136986301 -0.0136986575
0.0266276301 0.4794520548 0.5339634247 0.0068493151 -0.0136986301 -0.0136986575
0.1367000411 1.0994058904 -0.5342466027 0.0068493151 -0.0044931644 -0.0261900548
0.3895660548 0.5342465753 0.4834792466 0.0068493151 0.0136986301 -0.0136986575
0.1180982329 0.4507059589 0.6027396986 0.0070381781 -0.0001888630 -0.0000267397
0.3255730000 0.5342300685 -0.2480454658 -0.0067019452 -0.0020024932 -0.0136986575
0.2799105753 0.5068493151 0.4897393836 0.0068493151 -0.0136986301 -0.0136986575
0.3630136986 0.7687480822 -0.2724814247 0.0203331781 0.0000000000 -0.0160133425
-0.1878155479 0.4520547945 0.2983197260 0.0044383836 -0.0122871644 -0.0082928082
-0.1312646986 0.9014714932 -0.3890919589 0.0068493151 0.0073806849 -0.0022224521
-0.1934491644 0.4109589041 0.0869495890 0.0029983562 -0.0130686438 -0.0145313699
0.1997172192 0.4891857534 0.4610716712 0.0109542329 -0.0125341370 -0.0125088082
0.1169346849 0.4657534247 0.3306133288 0.0054040411 0.0123323151 -0.0193684247
0.2316273973 1.0401023973 -0.4784586438 0.0080804658 -0.0088913699 -0.0238211918
-0.0511514932 0.3835616438 0.1211079452 0.0070423151 0.0133108493 -0.0167539041
-0.3904109589 0.0058818767 0.3654443699 0.0205479452 0.0000000000 -0.0136986575
-0.1817440548 0.4886905753 -0.1083163836 0.0003303288 -0.0084021507 -0.0221896164
-0.3767123288 0.4810705890 0.5503803699 -0.0033111507 -0.0085418904 -0.0136986575
-0.2272579452 0.9271000959 -0.3813583151 0.0074293836 0.0079255342 -0.0027929041
0.3771662055 0.8710479178 -0.3259349452 0.0040079726 0.0074959726 -0.0026357397
-0.1326131096 0.8368131096 -0.3474308767 0.0082425205 0.0063305479 -0.0017078219
0.0706529863 1.0322865479 -0.4657533973 0.0057276301 0.0033650411 -0.0015242740
0.1647066849 1.0347210548 -0.4794520822 0.0108871644 -0.0073669726 -0.0241451644
0.4868445753 0.5768721096 -0.0015296712 0.0068493151 -0.0113805342 -0.0213218904
-0.0898124795 0.4794520548 0.5122585753 0.0068493151 -0.0136986301 -0.0136986575
0.2127664521 0.4955507534 -0.0706744521 0.0009452877 0.0091380685 -0.0054855479
-0.0178087945 0.3824680000 -0.0126050274 0.0067205342 -0.0115182877 -0.0210340822
-0.0560368356 0.5575587123 -0.2102862603 0.0052723973 -0.0072183425 -0.0252266849
0.2742112603 0.4759563288 0.2907861096 0.0119819863 -0.0118686575 -0.0093498767
0.4574777260 0.5767645068 0.0245531096 0.0069330822 0.0123101918 -0.0077265342
0.4549783151 0.7124090274 -0.1919413699 0.0068493151 -0.0095892055 -0.0234773014
-0.1977752329 0.5016184247 -0.1128259041 0.0006328219 -0.0089386438 -0.0219596027
0.0535925616 1.1355627397 -0.5342466027 0.0068493151 0.0048307671 -0.0016102877
0.1084800000 0.3888560822 0.0088500411 0.0106510000 -0.0126455342 -0.0172416438
-0.1105296027 0.4383561644 0.2928963151 0.0048020822 -0.0127316712 -0.0091011918
-0.0390829315 0.4364723836 -0.0921228219 0.0085048219 0.0109296027 -0.0057027808
-0.3687647534 0.9291246027 -0.3823705479 0.0062713699 -0.0062917534 -0.0258057123
-0.4229199726 0.5616280548 0.0274287671 0.0068493151 -0.0122536164 -0.0198216438
0.4128785890 0.5342465753 0.4623520000 0.0068493151 0.0136986301 -0.0136986575
-0.0626124247 0.7351047534 -0.3135280822 0.0067517808 -0.0070059726 -0.0254565616
0.1124743288 0.4637714521 0.3776881781 0.0094034658 -0.0124298356 -0.0087058356
-0.3288150137 1.0377337260 -0.4395026438 0.0096353014 0.0058018082 -0.0017665068
-0.0303912466 0.4794520548 0.4506785479 0.0068493151 -0.0136986301 -0.0136986575
0.2181710822 0.4362308082 0.1464341781 0.0040493288 0.0130773014 -0.0165546712
-0.3760603836 0.5335946301 0.1269800685 0.0118236027 0.0123070548 -0.0106218904
-0.3390268767 0.4333255753 -0.3156306986 0.0014356712 0.0060601644 -0.0221206027
-0.1415354521 0.4657534247 0.3768350548 0.0052935479 -0.0121569863 -0.0092197808
0.3382164384 0.5205479452 0.3707703836 0.0068493151 0.0136986301 -0.0136986575
-0.1980255616 0.5004594384 -0.0777016849 0.0135038356 0.0086162740 -0.0054231644
0.4149029863 0.0136986301 0.3226904932 0.0068493151 0.0136986301 -0.0136986575
-0.2873939863 0.7344472192 -0.2549951918 0.0042392466 -0.0080009452 -0.0243096575
-0.1922831096 0.5530483288 -0.1669351644 0.0012674247 -0.0082799041 -0.0230180822
0.2842288082 0.4691603151 0.0983607671 -0.0017696986 0.0104747671 -0.0122758219
-0.2463215890 0.5312448219 -0.0999917397 -0.0006509178 -0.0081331781 -0.0217481233
0.1062097808 0.5885010822 -0.2229859589 0.0088061644 -0.0058289315 -0.0258574384
-0.2218054932 1.0958904110 -0.5166006027 0.0073830685 -0.0090294932 -0.0221943973
0.1504755342 0.7267411644 -0.2835809178 0.0037980000 0.0070710548 -0.0023795205
0.0739078356 0.4519056575 -0.0964586027 0.0045370685 0.0105137534 -0.0052462192
-0.0540692192 0.4931506849 0.5880952329 0.0068493151 0.0134180411 -0.0123885205
0.1486029178 0.5466285068 -0.1842731918 0.0109233973 -0.0081060274 -0.0238359178
-0.3607486849 0.5505668493 -0.0185853151 0.0004530822 -0.0098692329 -0.0206621918
-0.4516447945 0.7400372192 -0.2331879452 0.0068493151 -0.0103081918 -0.0226681096
-0.0386916027 0.4001290000 0.2249155205 0.0063759315 -0.0128747671 -0.0090615616
0.4863013699 0.6687413014 -0.1357871918 0.0201656986 0.0023555479 -0.0136986575
0.2638416849 0.8739220548 -0.3670727534 0.0084661918 -0.0080654658 -0.0245712603
0.2055866849 0.4794520548 0.4019213836 0.0115782192 -0.0117575753 -0.0089697534
0.2896511918 0.8366264384 -0.3297771781 0.0077307123 -0.0087339041 -0.0241868356
0.4832249452 0.5967547260 -0.0291260411 0.0068493151 -0.0113979452 -0.0212972877
0.3444008493 0.5019350959 0.1378332055 0.0003091233 0.0119782603 -0.0128638356
-0.0460916164 0.4446846986 0.3414241096 0.0057501918 -0.0132158904 -0.0105994384
0.2448281370 0.6721405616 -0.2277746301 0.0129510000 -0.0062961233 -0.0241752466
-0.0479266301 1.1917808219 -0.5938182192 0.0057576438 0.0121996301 -0.0169920000
0.1340938082 0.6844557671 -0.2601154247 0.0038072466 0.0064947397 -0.0020788904
-0.2094069178 0.5015188219 -0.0964615890 -0.0000182466 -0.0090712192 -0.0213078767
0.3175950274 0.5205479452 0.5054019041 0.0052044247 0.0132404247 -0.0148735753
0.3563781644 0.9984826849 -0.4170495342 0.0062605068 0.0076346986 -0.0024096575
-0.1738774247 0.4803779315 0.4722063014 0.0027530548 -0.0127105890 -0.0107715342
0.1354974384 0.4794520548 0.5081385479 0.0082767534 -0.0132012055 -0.0108437808
0.3319398082 0.8589113836 -0.3440912603 0.0155361918 -0.0043127260 -0.0231473288
-0.1275423699 0.9801961781 -0.4322509041 0.0074121781 0.0084025068 -0.0029574795
-0.0454163151 0.4051257671 0.1938132192 0.0074983288 0.0130862603 -0.0176196164
0.1951961644 0.5068493151 0.4796986301 0.0068493151 0.0136986301 -0.0136986575
0.2220586438 0.4708851370 -0.0367644932 0.0001751918 0.0097922055 -0.0069509178
0.1555976027 0.5217750274 -0.1391816986 0.0020410822 0.0088094521 -0.0043819589
-0.2766972329 0.7486088356 -0.2691568082 0.0068493151 -0.0096863973 -0.0233850548
0.2866033836 0.5813602329 -0.1098253973 -0.0006754110 0.0092485890 -0.0070493288
-0.4810190137 0.6731348493 -0.1388882466 0.0068493151 0.0100468767 -0.0044070000
0.4536199178 0.5205479452 0.2762574247 0.0068493151 -0.0136986301 -0.0136986575
-0.3736342055 0.7860766438 -0.2655286986 0.0117673014 0.0075273699 -0.0037122877
-0.0616853425 0.4458084110 -0.1107948904 0.0048186301 -0.0103704247 -0.0223654795
0.3756935890 0.0000000000 -0.0085892603 0.0068493151 -0.0136986301 -0.0136986575
0.1474230000 0.6111126712 -0.2078722603 0.0015266301 0.0073372329 -0.0034560822
0.2425304521 0.4260597534 0.1272317534 0.0128077671 -0.0122604658 -0.0133605890
-0.0404648082 1.1504418356 -0.5479452329 0.0068493151 0.0000000000 -0.0000000274
-0.0966160959 0.8233200548 -0.3469298356 0.0103644110 0.0067771233 -0.0023354521
0.4167909726 0.0000000000 -0.2387771096 0.0068493151 -0.0136986301 -0.0136986575
-0.3147714932 1.1229406849 -0.5139957397 -0.0028370822 0.0000000000 -0.0233850548
-0.1685418904 0.5943841233 -0.2019744247 0.0017537397 -0.0072062055 -0.0241493014
0.1550015068 0.4285314110 0.5804827123 0.0040215342 0.0076437397 -0.0243167945
-0.1790850137 1.0363312877 -0.4609888493 0.0087981507 0.0094499589 -0.0042486986
0.0275794384 0.3856094247 0.1273831918 0.0057600548 0.0135092192 -0.0153904795
0.3897559863 0.0985102466 0.4308346986 0.0201389315 0.0033224110 -0.0136986575
0.2696832877 0.4682590000 0.0138620411 0.0146861370 -0.0107506986 -0.0168853014
0.2668355890 0.6205458904 -0.1550801781 0.0021166986 0.0087430685 -0.0042778630
-0.0745699589 0.9046404110 -0.4069559315 0.0035769041 -0.0062948767 -0.0253638356
0.1437196849 0.4869013699 0.4122747671 0.0044958356 0.0125043151 -0.0182189452
0.2296661233 0.4931506849 0.4524414110 0.0068493151 -0.0136986301 -0.0136986575
0.2515804932 0.4511070274 0.0265522466 0.0140316849 -0.0112358767 -0.0166638630
-0.3128425342 0.5205479452 0.4363749452 0.0068493151 0.0136986301 -0.0136986575
0.4052864521 0.0000000000 0.3101210137 0.0068493151 -0.0136986301 -0.0136986575
-0.1503574658 0.4862163425 0.5205479726 0.0068460411 -0.0000065616 -0.0000011644
-0.4012532466 0.0136986301 0.4323016438 0.0068493151 0.0136986301 -0.0136986575
-0.3310601507 0.5264009452 0.5127022877 0.0108835616 0.0127283836 -0.0160378767
-0.0264056575 0.3771718219 0.1379052466 0.0065160822 -0.0132806986 -0.0104201370
-0.3684810000 0.5205479452 0.4551476438 0.0068493151 -0.0136986301 -0.0136986575
-0.4144863014 0.5702256438 0.0102335479 0.0068493151 -0.0117171233 -0.0207473014
0.4086378630 0.0000000000 0.0528503699 0.0068493151 -0.0136986301 -0.0136986575
0.4556119726 0.5297460685 0.1459872740 0.0069980548 -0.0132774384 -0.0169897260
-0.2146647260 0.4372973836 0.5878730959 0.0032534658 -0.0009257534 -0.0007178082
0.3741045342 0.6159207123 -0.0979805890 0.0122908904 -0.0102417671 -0.0209696164
0.3208539726 0.9816513014 -0.4086338767 0.0059001233 0.0073063151 -0.0023709726
0.0762915068 0.4529926849 -0.1232821507 0.0092620548 -0.0095473973 -0.0232198904
0.2353679726 0.6672210137 -0.2125018904 0.0002866438 0.0070830137 -0.0040430274
-0.0562116027 1.0221599452 -0.4657534521 0.0077675342 0.0052981370 -0.0015002740
0.3244854658 0.7559743973 -0.2491250548 0.0061807671 0.0092233973 -0.0036707808
-0.2867869041 0.7001563288 -0.2344029589 0.0068493151 -0.0096863973 -0.0233850548
-0.0588645342 0.5068493151 0.5531398493 0.0089228356 0.0129401096 -0.0153258767
-0.1671137945 0.4020500411 0.1392278219 0.0012024795 -0.0124278082 -0.0131790000
-0.3199655205 0.4563637808 0.5498974658 0.0114369178 0.0000000000 -0.0265883973
-0.1904053699 0.4273944521 0.1554224932 0.0124862192 0.0124528219 -0.0142837808
0.3574143973 0.8573174110 -0.3295358356 0.0068493151 -0.0086576027 -0.0243137260
-0.4824465342 0.6909097123 -0.1810713014 0.0068493151 -0.0089095479 -0.0239449726
-0.2486722192 1.1490252740 -0.5325868904 0.0068493151 0.0096863973 -0.0040122603
0.2441034658 0.5416236712 -0.0925685890 -0.0001561233 0.0100367671 -0.0076630822
-0.0206174521 0.3942910822 0.5890410685 0.0068493151 0.0000000000 -0.0273972877
-0.3948337397 0.0000000000 -0.2625716027 0.0068493151 -0.0136986301 -0.0136986575
-0.1112035068 1.0410958904 -0.4658014247 0.0068493151 0.0095163699 -0.0038577123
0.2357469589 0.5061571370 -0.0799710411 0.0141745616 -0.0074718630 -0.0224763973
-0.1650627397 0.4657534247 0.3499364932 0.0058271233 -0.0126631233 -0.0088723151
0.0384380000 0.3996283151 0.1828182055 0.0063437123 0.0130118630 -0.0178218082
0.2866962055 0.8530113562 -0.3461620685 0.0081614384 -0.0088865753 -0.0240337123
-0.3922081507 0.5205478904 0.3084546164 0.0068493151 0.0136986301 -0.0136986575
-0.3064595342 0.5704420411 -0.2239547808 0.0203816849 -0.0021161233 -0.0136986575
-0.2029445342 0.0036399726 -0.0136986575 0.0068493151 0.0000000000 -0.0273972877
-0.0899580137 1.0611435342 -0.4994997260 0.0068493151 -0.0096863973 -0.0233850548
0.3255315342 0.8348483836 -0.3054240548 0.0067506438 0.0083977808 -0.0028834658
-0.2523143699 0.8269330411 -0.3200837260 0.0115143288 0.0069960822 -0.0036920137
0.3726739452 0.5302081644 0.0379118082 0.0148344658 -0.0106508767 -0.0163459178
0.4973619041 0.6163817123 -0.0546811781 0.0068493151 0.0122503288 -0.0075686301
-0.1850991644 0.4179014247 0.0069050411 0.0002429863 -0.0112282603 -0.0176724384
0.2117865205 0.5361619178 -0.1323234658 0.0128868493 -0.0084047808 -0.0225777808
-0.2269998356 0.4699396164 0.2908849589 0.0122990548 0.0121063562 -0.0166129178
0.3483735479 0.4271143836 -0.2916766164 0.0137602877 -0.0040875753 -0.0053024384
-0.3536649726 0.5267998630 0.0098945616 0.0006325342 -0.0109737945 -0.0189530137
-0.1250852329 0.4289809726 0.2486468493 0.0091926438 0.0127048493 -0.0182071370
-0.2954806027 0.9494599589 -0.4130862329 0.0050008219 -0.0081194795 -0.0235130274
-0.0580006986 0.8660771644 -0.3919427123 0.0068493151 -0.0070416575 -0.0254488630
0.0593233973 0.4875085342 0.5809845342 0.0068493151 -0.0096863973 -0.0233850548
-0.0391958493 0.3972602740 0.1665374932 0.0077943014 0.0130061781 -0.0177004521
0.2682776027 0.4532091370 0.1248081644 -0.0010156986 0.0111248904 -0.0128620685
-0.2253287808 0.5068493151 0.4991913151 0.0068493151 0.0136986301 -0.0136986575
0.3589633836 0.3000803973 -0.3746267671 -0.0042226438 -0.0032744247 -0.0111758904
0.3376219041 0.4540602740 0.5613172055 0.0157945890 -0.0101531507 -0.0136986575
0.2018614384 0.5844701507 -0.1718956164 0.0017815890 0.0077611644 -0.0036430548
-0.3356164384 0.5555784658 -0.0153440000 0.0163205479 0.0076793288 -0.0078038630
-0.1990900959 0.4517605342 0.2578829726 0.0124234932 0.0123110959 -0.0158048493
0.0536012877 0.7657595616 -0.3411020548 0.0072935479 -0.0069513288 -0.0254816301
0.3904109589 0.6432652466 -0.1151390274 0.0205479452 0.0000000000 -0.0136986575
0.1356909041 0.4392270137 -0.0509822877 0.0014263425 0.0110013562 -0.0076430822
-0.3781973425 0.5592104795 -0.0122136575 -0.0030549452 -0.0062040137 -0.0207234247
-0.3605471096 0.5180813562 0.2354207260 0.0134586164 0.0119602603 -0.0143278356
-0.3726518767 0.1761682055 -0.4611800548 -0.0065488767 0.0003838767 -0.0110898767
0.2457496986 0.4276693699 0.1057947808 0.0135671781 -0.0117205205 -0.0154584247
-0.2710665890 0.6164383562 -0.1633331370 -0.0005247945 -0.0083304658 -0.0216002740
0.4252145068 0.5205479452 0.4357990411 0.0068493151 -0.0136986301 -0.0136986575
0.4178082466 0.0174727534 -0.5325604521 0.0205479452 0.0000000000 -0.0136986575
-0.3977681507 0.0000000000 0.0285591507 0.0068493151 -0.0136986301 -0.0136986575
-0.2824630000 0.6098296301 -0.1388901918 0.0128770274 0.0081249452 -0.0045910959
0.4144905068 0.0000000000 0.4424301781 0.0073841096 -0.0125920685 -0.0116801370
0.3522175616 0.5205479452 0.4831524384 0.0068493151 -0.0136986301 -0.0136986575
-0.2854603562 1.0501368219 -0.4497259452 0.0068493151 0.0077587397 -0.0024458219
0.1166050411 0.8509107671 -0.3709268767 0.0107175890 -0.0053882603 -0.0256668630
0.2509774795 0.6500420822 -0.1904819315 0.0012751096 0.0072477671 -0.0035524932
-0.2746797534 0.7191976301 -0.2473019863 0.0131948904 -0.0079702329 -0.0222104521
0.4165825753 0.0139593014 -0.5071100000 0.0110069726 0.0091819863 -0.0045166712
-0.3217749863 0.6815299452 -0.2123749178 0.0033849315 -0.0092944932 -0.0226550822
0.0036997123 0.4542504932 0.3446614247 0.0068493151 0.0122524247 -0.0198248767
0.3718333014 0.1872776712 -0.4680259726 -0.0067051644 -0.0019747945 -0.0137287945
0.1977241644 1.0694144247 -0.4803734658 0.0050616712 0.0057722877 -0.0015021781
-0.3526816712 0.2260480959 -0.4329578767 0.0202162603 -0.0001506986 -0.0165989178
-0.3151095890 1.0009520000 -0.4256095616 0.0068226164 -0.0081083973 -0.0247374247
0.0854257671 0.5137507260 -0.1575863973 0.0046230137 0.0080987945 -0.0029205616
0.3423535616 0.5115061781 0.0865767397 0.0001242603 0.0114385616 -0.0113947945
0.3787803151 0.8122189726 -0.2812053425 0.0068493151 0.0085286986 -0.0029795342
-0.4204137671 0.5342465753 0.1471352603 0.0068493151 0.0134775205 -0.0117611096
0.1201350411 0.5309126301 -0.1660505890 0.0028141096 0.0081282329 -0.0034918904
0.1933816575 0.4931506849 0.4294680548 0.0068493151 -0.0136986301 -0.0136986575
0.4312960959 0.5341346438 0.4524763151 0.0191017397 0.0000000000 -0.0075724384
-0.4451530137 0.6237253699 -0.0693685753 0.0068527397 -0.0118534247 -0.0205123699
-0.0864861918 0.9874362740 -0.4407685479 0.0103348219 0.0061270959 -0.0020245342
0.1082846027 0.9296673288 -0.4111512877 0.0033804932 0.0063487123 -0.0021675068
0.4044222877 0.0000000000 -0.0676857123 0.0068493151 -0.0136986301 -0.0136986575
-0.3886118356 0.5205479452 0.5241374384 0.0068493151 -0.0136986301 -0.0136986575
-0.0760124658 0.4657534247 0.3469890685 0.0079474795 0.0126628082 -0.0181582877
0.1995098493 0.5494901644 -0.1644962877 0.0114708082 -0.0090496438 -0.0228710685
-0.1720146164 0.5068493151 0.5146511233 0.0068493151 0.0136986301 -0.0136986575
-0.2772739589 0.4622054384 0.2169224247 0.0005313699 -0.0121023699 -0.0131651233
-0.1354532740 0.4746813836 -0.1274448767 0.0027820137 -0.0092693562 -0.0228598356
-0.3922187397 0.7045137534 -0.1761509315 0.0068493151 0.0118109452 -0.0068051233
-0.4087455479 0.9187927260 -0.3708475479 0.0068493151 -0.0090746712 -0.0239208904
0.1275135479 0.5004952877 0.5342465479 0.0060831507 0.0092507808 -0.0220217945
-0.3463290548 0.3705803836 -0.3427273699 -0.0065399726 0.0001053151 -0.0108402740
0.1695874932 0.4369365479 0.2437361096 0.0034976849 0.0128964110 -0.0168662192
0.3452886849 0.4838545753 0.1338270548 0.0153983562 -0.0103063014 -0.0153436712
0.0804678493 0.4275528082 0.2609391096 0.0040675753 0.0129309863 -0.0171322603
0.4705585342 0.5479452055 0.0830485890 0.0067970685 0.0132919315 -0.0104017945
0.1481977671 0.5800848630 -0.1806435890 0.0014913562 0.0069649041 -0.0032118767
-0.3274805205 0.9783634521 -0.4138393151 0.0068493151 -0.0076750685 -0.0250438493
0.0212885479 0.6407532877 -0.2669812329 0.0086652192 -0.0065211644 -0.0255536849
0.3363200959 0.9073265753 -0.3714715068 0.0068493151 -0.0079734247 -0.0248094384
0.4668313151 0.7547011644 -0.2478518767 0.0068493151 -0.0096436849 -0.0234240548
0.4065587808 0.8386847671 -0.3171140822 0.0069328219 -0.0085300822 -0.0244100411
0.0446096164 0.4989748356 0.5753424384 0.0058354521 0.0095481644 -0.0043370137
-0.2723063836 0.6364590959 -0.1792212740 0.0002445616 -0.0075452603 -0.0229240274
-0.2225100959 1.0201990822 -0.4585553288 0.0037705479 -0.0072471644 -0.0245441370
-0.1696316301 0.7492741644 -0.2863966575 0.0099964932 0.0065871507 -0.0021086164
-0.0924177945 0.3901875890 -0.0047142329 0.0034380959 -0.0125116301 -0.0179511370
-0.0881605479 1.0432784247 -0.4794520822 0.0068493151 0.0082249452 -0.0034673425
0.2888346575 0.4931506849 0.3934307123 0.0068493151 -0.0136986301 -0.0136986575
-0.4193173699 0.7604195616 -0.2535702740 0.0068493151 -0.0093117945 -0.0237099452
-0.4007416027 0.5342465753 0.2007032192 0.0068493151 0.0131904795 -0.0103701507
-0.3540224110 0.5683524795 -0.0587971644 -0.0001931507 -0.0097844384 -0.0198221370
-0.3279799315 0.5306062603 0.0057062603 0.0152934110 0.0096276986 -0.0091970548
-0.2155696438 0.6380289726 -0.2009557123 0.0112877945 0.0074023562 -0.0032283836
-0.1771876438 0.7794431370 -0.3273883699 0.0051588767 -0.0067163151 -0.0253798082
-0.0069283014 1.0693146164 -0.5068493425 0.0068493151 -0.0005807808 -0.0271567260
0.4261109589 0.5479452055 0.0818220274 0.0068493151 -0.0132231644 -0.0172628630
0.0616042466 0.4266723699 -0.0862611096 0.0087770000 -0.0112141507 -0.0212334110
0.3540140411 0.6180870411 -0.0944887397 -0.0001692329 0.0096762192 -0.0070277260
-0.3904109589 0.0107729178 -0.3626963288 0.0205479452 0.0000000000 -0.0136986575
-0.4644915479 0.5342465753 0.1417001370 0.0053046849 -0.0133654110 -0.0157378493
0.1956371507 0.7280860822 -0.2750020000 0.0037338767 0.0073381370 -0.0025643014
0.1195668904 0.4231994795 -0.0571634384 0.0108623425 -0.0115337808 -0.0198807534
-0.3886364247 0.5536861644 0.0671608219 0.0145637123 0.0106098630 -0.0104592329
-0.4817075890 0.5594927671 0.0590965753 0.0068493151 0.0124152877 -0.0080127123
-0.2880282740 0.4481573288 0.3835616164 -0.0008755890 0.0016597671 -0.0149963562
0.0757830822 0.5506898082 -0.2068517808 0.0070418630 -0.0081438904 -0.0246914795
-0.1624398219 0.9222203151 -0.4118152055 0.0031627260 -0.0067740000 -0.0250015616
0.0921133014 0.4726308493 0.6027396986 0.0068493151 0.0000000000 -0.0000000274
-0.0062106301 0.4931506849 0.5362187945 0.0068493151 0.0136986301 -0.0136986575
0.4120765890 0.8540921644 -0.3273856849 0.0073173014 -0.0082888356 -0.0245650137
