0.2935835000 0.7444794038 0.2596153846 -0.0062972115 0.0000000000 0.0658216154
-0.2459364423 0.8269231538 -0.1595139423 0.0000773077 0.0191534615 0.0479996154
0.0218218846 0.7412286923 0.1826923077 -0.0026462885 0.0000000000 0.0669819231
-0.1425631731 0.8846153846 0.1821730769 0.0019943654 0.0190313654 0.0481941346
0.3658688269 1.2537904808 -0.1826923077 -0.0074503654 -0.0110663846 0.0612560192
0.0645532692 1.3374912500 -0.4326923077 0.0000000000 0.0000000000 0.0288461538
-0.3076923077 0.6604860769 0.2699359615 0.0172859808 -0.0046951538 0.0480769231
-0.4179279615 0.8314115769 0.2122210769 -0.0155213269 -0.0086037885 0.0521876731
-0.4056072692 0.5033190385 -0.3365384615 0.0085755577 0.0002900192 0.0310209615
0.4289737885 0.7287320385 -0.2571591538 0.0118232885 -0.0004435192 0.0630048462
-0.3066135192 0.7397726538 0.2596153846 0.0004690192 0.0000000000 0.0672004038
-0.2920911923 0.8223593077 0.2055527308 -0.0144026346 0.0000000000 0.0357475000
0.0509093077 0.8653846154 0.3102993462 -0.0002483077 0.0192146538 0.0484493846
0.4252506731 0.1814390000 0.4009743077 -0.0191039038 -0.0021235385 0.0480769231
0.2494823269 0.8846153846 0.0739273269 0.0000000000 0.0192307692 0.0480769231
0.1452955962 0.8072294038 0.2072631731 -0.0060800000 0.0000000000 0.0663212500
0.4727022500 1.2384226923 -0.1057692308 0.0133886731 -0.0077819808 0.0378127500
-0.2207294038 0.6783443654 -0.1341909231 0.0127105769 0.0000000000 0.0349867115
0.2307692308 0.7829095385 -0.1573832500 -0.0133506731 0.0000000000 0.0354567500
-0.4257633846 0.6859245385 0.3993535385 -0.0125671538 0.0020557115 0.0621818462
-0.2057950769 0.6730769231 0.1971509038 0.0000000000 -0.0192307692 0.0480769231
-0.3836341923 0.7257064615 0.2980769038 -0.0088824423 0.0000000000 0.0310884808
0.0911933462 0.6730769231 0.1897863077 0.0000000000 -0.0192307692 0.0480769231
0.1783744231 1.2960295962 -0.4108127885 0.0064943846 0.0000000000 0.0300727500
-0.3971953077 0.5855252500 -0.3298875769 0.0132777115 0.0000783462 0.0342507500
-0.1162494808 0.6839676731 -0.1057692308 0.0046891923 0.0000000000 0.0294818654
0.0097656346 0.8653846154 -0.1373067692 0.0000000000 0.0192307692 0.0480769231
-0.0616609615 0.7954304808 -0.0673076923 0.0000000000 0.0000000000 0.0673076923
0.4594866346 1.2592192500 -0.1655133846 0.0135152308 -0.0006839423 0.0345616923
-0.0272875192 1.3122445577 -0.4326923077 0.0000000000 0.0000000000 0.0288461538
-0.1449372500 0.8846153846 0.2066910192 0.0019237500 0.0190277115 0.0485244615
0.0880208269 0.7921607692 0.2943230192 0.0039265192 -0.0188215769 0.0477810769
0.0685699615 0.7483578462 0.1977465192 -0.0046641538 0.0000000000 0.0667335000
0.3672794615 0.8269230769 0.1119631538 0.0000000000 -0.0192307692 0.0480769231
-0.4230769615 0.2226402500 -0.3396346346 0.0173736923 -0.0004645769 0.0413710577
-0.0526325962 0.8653846154 0.1210392885 0.0017185000 0.0190192115 0.0480769231
0.4807692308 0.2089695577 0.4117986154 0.0140759808 0.0002397115 0.0604928269
-0.2392953077 0.8846153846 -0.1933511346 -0.0020010962 0.0183812308 0.0434718462
0.2490452692 0.8076923077 0.2778009615 0.0000000000 -0.0192307692 0.0480769231
-0.3893658269 1.0847339615 -0.2403846346 -0.0067321731 -0.0000128654 0.0657284038
-0.1282419615 0.7948902500 -0.2671354808 -0.0049272115 -0.0177750577 0.0455157885
0.3737912500 0.7409892500 -0.2103297115 0.0135982115 0.0000000000 0.0616751346
0.2502312115 0.7749139423 -0.0675389038 0.0171107885 0.0000000000 0.0568489038
0.4023283846 1.3076923077 -0.1563010577 -0.0059977692 0.0128108462 0.0535687692
0.2414650769 0.8269230769 0.1770605769 0.0000000000 0.0192307692 0.0480769231
0.0302701154 0.7884615385 -0.1307718269 0.0005202500 -0.0191927692 0.0481636346
-0.3475273269 0.9742802885 -0.2566491731 0.0140469038 -0.0018404615 0.0609027308
0.2115384615 0.7745603462 0.0147365577 -0.0192307692 0.0000000000 0.0480769231
0.0938616538 1.3653846154 -0.4157360192 0.0068126346 0.0110193462 0.0339298462
-0.1808355385 0.8679708269 0.3500110192 0.0019116346 0.0187029038 0.0518335192
0.2296435385 0.8780819808 0.3434471154 -0.0011323462 0.0181723462 0.0538555192
-0.2476085385 0.7886312885 0.0120068654 -0.0181141538 0.0000000000 0.0544714808
-0.3076923077 0.7124448846 0.2383414808 -0.0140917885 0.0000000000 0.0352773269
-0.4604201346 1.2848710192 -0.0684259808 0.0135529808 -0.0003727692 0.0616299038
-0.3749871346 0.7212556731 -0.3076794423 0.0145797692 0.0000000000 0.0356633846
-0.3011025000 1.2241794231 -0.2962860769 -0.0067962692 -0.0176148077 0.0492469231
-0.2733595000 1.2367797308 -0.3440895000 -0.0091927308 -0.0084560769 0.0338555385
-0.4038461538 0.4637465769 0.4004326538 0.0169523077 -0.0012541731 0.0552717308
0.3572641154 0.7247475769 -0.1938025769 0.0135982115 0.0000000000 0.0616751346
0.1874036154 0.8076923077 -0.2476673846 0.0002951923 -0.0191402500 0.0474865385
0.0364476731 0.8653846154 -0.2679561923 0.0000000000 0.0183502115 0.0443468077
0.4309743077 1.2913230000 -0.1940257115 0.0132788462 0.0026324615 0.0347980769
0.3696072308 0.8899787692 0.2296578654 0.0012665577 0.0188842500 0.0510136923
-0.4256735192 0.8352277500 -0.2596153846 -0.0137922115 0.0000617885 0.0614365577
0.3094097692 0.7422753077 0.2403846154 0.0136367308 0.0000000000 0.0345185000
0.4062107885 0.6009776346 0.3394198654 -0.0114040962 -0.0025462308 0.0337619423
0.4807692308 0.2501463654 -0.3470368077 0.0169976923 0.0011271731 0.0418262115
-0.3158813654 0.8176968654 0.0443715962 -0.0042752692 -0.0185305577 0.0501973269
-0.0456423269 0.7134194038 0.1862826923 0.0046641538 0.0000000000 0.0667335000
0.0216405962 0.8019472308 0.1634615385 0.0000000000 0.0000000000 0.0288461538
0.2451255962 0.7433058654 0.2547409808 -0.0123313846 0.0000000000 0.0625882115
-0.2064617885 0.8076923077 -0.2352853654 0.0000000000 -0.0192307692 0.0480769231
-0.3721915000 0.8315057115 -0.1035449808 -0.0132734615 -0.0115715000 0.0414609808
0.2284006346 0.7903748269 0.1418621538 -0.0182439038 0.0000000000 0.0541582308
-0.3015754808 0.8076923846 0.1949832500 -0.0028694423 -0.0189118846 0.0478581346
-0.4117722115 0.8269230769 0.1864148462 -0.0068814423 -0.0147201731 0.0484629423
-0.0888959038 0.7924524423 0.3200240769 -0.0037978654 -0.0188516154 0.0480769231
0.3908995577 0.6190256731 0.3550410192 -0.0099415769 -0.0020072692 0.0320888269
0.2172727308 0.7373613269 -0.0595454808 -0.0182439038 0.0000000000 0.0419956154
0.4246507885 0.2392009808 -0.3415434231 -0.0163114808 0.0000000000 0.0386973654
-0.0997880769 0.7998940385 0.0476482692 -0.0045098462 -0.0186940192 0.0480769231
0.3912767308 0.9722223269 -0.2992979231 0.0017048077 0.0025952115 0.0293015192
0.4212416923 0.8513633269 -0.2396403846 0.0100610000 -0.0007664231 0.0642426731
-0.4807692308 0.1911147885 -0.3364166923 -0.0191588269 0.0016556923 0.0480845000
0.1524611538 1.3649683654 -0.3953395192 0.0080931346 0.0122551154 0.0356867500
0.2754687500 0.8846153846 -0.0960630192 0.0000000000 0.0192307692 0.0480769231
0.4495066923 0.2251863077 0.3749999615 0.0000000000 -0.0005953462 0.0288731538
0.3915127885 0.5094104231 -0.2986833077 -0.0190620769 -0.0025416154 0.0480769231
0.2388875962 0.7574696923 0.0207277692 0.0176410000 0.0000000000 0.0556137885
-0.3693939423 1.1285202308 -0.2769696538 0.0000000000 0.0027196346 0.0290394423
0.4707388077 0.2430757885 -0.3024360962 0.0064794423 -0.0020172885 0.0641983077
0.3400513654 0.7859344423 -0.2535128654 -0.0135982115 0.0000000000 0.0344787115
0.4789202115 0.2034020000 0.3852056731 0.0167885192 0.0010151923 0.0419994231
-0.2570052115 0.7243353077 -0.0743129038 -0.0171191346 0.0000000000 0.0568353462
-0.1161619423 0.8076923077 0.0035129038 -0.0045698846 -0.0186681923 0.0480769231
-0.4711111538 0.2392037885 -0.3557692308 -0.0052752885 0.0009429808 0.0305496538
-0.4423076923 0.6902727692 0.3796437308 -0.0182490577 0.0002829231 0.0533133654
0.4350452500 0.5189013077 0.4134615385 0.0000121154 0.0000048462 0.0673061154
0.4136494038 0.5655101923 0.3465133462 -0.0064662115 -0.0021978269 0.0316630577
-0.1743303269 1.2996592885 -0.4128348654 -0.0059073654 0.0000000000 0.0298037308
-0.4174361538 0.3616543846 -0.2865239615 0.0039560577 -0.0025380385 0.0655007308
-0.0592148077 0.8653846154 0.2582054808 0.0020504808 0.0190258077 0.0480858846
0.2895548846 0.8076923077 -0.1121786154 0.0031942692 -0.0181438654 0.0464797885
0.1988049231 0.7182757308 -0.0994024808 0.0060813077 0.0000000000 0.0663208269
0.1202726346 1.2215552692 -0.4134615385 0.0012948846 -0.0033811731 0.0296541346
-0.2547087500 0.7707197500 0.2258625769 -0.0135982115 0.0000000000 0.0344787115
-0.3572922115 0.8076923077 0.3183380962 0.0000000000 0.0192307692 0.0480769231
0.2500000000 0.8150749231 0.0940231923 0.0179907115 0.0000000000 0.0428239423
0.0108773077 0.8059733462 0.4134615385 0.0000000000 -0.0123827115 0.0621785962
0.2670027308 0.8183882692 0.3750000000 0.0076007692 -0.0136416923 0.0589744231
-0.3559597885 0.7970224615 0.3463444038 0.0111487500 0.0000000000 0.0634405962
-0.4559995962 0.4514727500 0.3670622308 -0.0116103654 -0.0005014615 0.0354568462
-0.4572150962 0.2652465962 -0.2987409808 0.0000000000 -0.0026918077 0.0671177885
0.4298469038 0.4660083269 0.4134615769 -0.0005602885 0.0007347115 0.0672539038
-0.2614096154 0.7903969808 -0.1748711731 0.0135982115 0.0000000000 0.0344787115
0.1772027692 0.8269230769 -0.1006035000 0.0000000000 0.0192307692 0.0480769231
-0.3527945769 1.2827606154 -0.3043719423 -0.0125041538 -0.0014612115 0.0338268462
-0.4169467115 0.3930790192 -0.3408238654 0.0107593269 0.0004086346 0.0325452500
0.1304034615 1.3442368077 -0.3772949038 -0.0076083462 0.0087293077 0.0632936154
0.2670756154 0.8076923077 0.3086540962 0.0000000000 -0.0192307692 0.0480769231
0.3653846154 0.7657550000 -0.2679201923 -0.0179131731 -0.0014481731 0.0530952885
0.1133370769 0.6730769231 0.1825751923 0.0000000000 -0.0192307692 0.0480769231
-0.1011468654 1.2230683846 -0.3750000385 0.0021791346 -0.0010895577 0.0666729423
0.4107056346 0.6913403654 0.3310267115 0.0157142115 -0.0003991923 0.0370277885
-0.3605032308 0.9926482692 -0.2413772885 0.0162443077 -0.0015209808 0.0581243077
-0.0725025000 0.7884615385 0.4133981538 -0.0019980962 -0.0178742500 0.0530721538
0.1241151538 0.8224091154 0.2019230769 -0.0027608269 0.0000000000 0.0668596731
-0.1961495769 0.8076923846 0.3702653077 0.0000000000 -0.0192307692 0.0480769231
-0.3703177115 0.7859436923 0.2980769231 -0.0127121346 0.0000000000 0.0339668077
0.3510062885 0.8966569808 0.1212169231 -0.0013329231 0.0190588654 0.0470351346
0.4269222115 0.5949419808 -0.2549591923 0.0032924423 -0.0018959231 0.0658200769
0.4423076923 0.6904015192 0.3533995385 0.0157005577 0.0007272115 0.0393238077
0.2725518654 0.6659717500 -0.1860134038 -0.0135982115 0.0000000000 0.0344787115
-0.4188659038 0.4860886346 -0.3478927692 0.0080287115 0.0010306346 0.0322394808
0.0754942885 0.7884615385 0.2756938077 0.0038448462 -0.0188206154 0.0476224423
0.3486389038 0.7482647500 -0.1851773462 0.0135982115 0.0000000000 0.0616751346
-0.3242666923 0.8076923846 -0.2178240385 0.0000000000 0.0192307692 0.0480769231
-0.1020950962 0.7968521923 0.2368503077 -0.0038068846 -0.0188476923 0.0478857115
-0.0286567692 0.7237626538 0.1634615385 0.0000000000 0.0000000000 0.0288461538
-0.4790556923 1.3269230769 -0.0984529423 0.0000000000 0.0192307692 0.0480769231
0.2900047885 1.2305034423 -0.3261514808 0.0106526538 -0.0078272500 0.0345988654
0.1044392308 0.8791426923 -0.0680016346 -0.0043209615 0.0186274808 0.0466432308
-0.3841367885 0.5615211346 -0.3050086731 0.0190617115 -0.0025402692 0.0480769231
0.2839130385 0.7761345577 0.2550668846 -0.0102222500 0.0000000000 0.0637650000
-0.3671151346 0.8846153846 0.0420245385 -0.0007047500 0.0189500962 0.0455969038
-0.2660094615 0.8076923077 -0.0545335962 -0.0000006346 -0.0192307308 0.0480772308
0.4132970577 0.3812970385 -0.3425070385 -0.0092018846 0.0006175577 0.0315020769
0.3715234231 0.9373406538 -0.2850502500 -0.0151796731 0.0000092308 0.0364456154
0.4201716923 0.4463186923 -0.3370160769 -0.0129110769 0.0000000000 0.0339695962
-0.2060385769 1.3197687500 -0.3969807308 -0.0100529615 0.0009110385 0.0319345962
-0.3293536538 1.3224742500 -0.2547542115 0.0137534423 0.0060487500 0.0589313654
-0.2832923462 0.6569507308 -0.1826923077 0.0000000000 -0.0140615769 0.0460123269
-0.5000000000 1.2718228654 -0.1036412500 -0.0192307692 0.0000000000 0.0480769231
-0.3937089615 0.4749340000 0.3709195962 0.0144738654 -0.0026316154 0.0360590192
-0.3067288462 0.8846153846 0.0353880962 0.0008563462 0.0191895962 0.0475060192
0.2339620000 0.6730769231 0.1783145577 0.0000000000 -0.0192307692 0.0480769231
-0.4423076923 0.6688895577 0.3824755962 -0.0181848462 0.0006448846 0.0526564231
0.0866008077 0.7933004038 0.0349767308 0.0045988462 -0.0186724423 0.0480769231
-0.4443759231 0.3528712308 0.3659642308 -0.0006725769 -0.0016778846 0.0289476154
0.0274739038 0.8653846154 -0.1036606923 0.0000000000 0.0192307692 0.0480769231
0.3828908462 0.7806643654 -0.2194293077 0.0135982115 0.0000000000 0.0616751346
-0.4161204615 0.4345932308 0.4134615000 0.0029398269 0.0000000000 0.0666549615
0.0304361154 0.8461538462 -0.3066535385 0.0007944808 0.0152657115 0.0367756731
-0.4427041923 0.0925226346 -0.3711000962 0.0131639808 0.0006017692 0.0341636346
-0.4649187885 1.3214614615 -0.0865384615 0.0013800192 0.0013800192 0.0666873846
0.1684297115 0.8846153846 -0.0542926923 -0.0004701923 0.0192119231 0.0477634615
-0.3889895577 0.8155346731 -0.3125383654 0.0147359423 -0.0010329423 0.0405716346
-0.4343788462 0.8169846154 -0.2909420385 -0.0149161923 0.0021308846 0.0362734038
0.3031890192 0.8846153846 0.1680719038 -0.0020990769 0.0190344038 0.0480755192
0.2469543654 0.8846153846 -0.1785329615 0.0000000000 0.0191559808 0.0465772500
-0.2892738077 0.6903949231 -0.2027353269 0.0135982115 0.0000000000 0.0344787115
0.2670972692 0.8076923077 0.0115572115 0.0000000000 -0.0192307692 0.0480769231
-0.3118561538 1.3227591923 -0.2722321346 0.0081217500 0.0119524423 0.0598969423
0.3947708077 0.6207126538 -0.3274630769 -0.0119667115 0.0003988462 0.0333182885
0.3866190577 0.8448023462 0.3365384808 0.0000000000 0.0000000000 0.0288461538
-0.4283326154 0.8736020577 -0.2556942115 -0.0117759808 -0.0001357885 0.0627042500
-0.4121919808 0.8076923077 0.3310405769 0.0000000000 0.0192307692 0.0480769231
-0.4132190192 0.7987085577 -0.2497574808 -0.0135982115 0.0000000000 0.0616751346
0.4423076923 0.0103475577 0.4203142692 -0.0192307692 0.0000000000 0.0480769231
-0.2359490769 0.7299313846 0.2455644808 0.0099464808 0.0000000000 0.0643071538
0.1467108077 0.8201354808 0.4134615385 0.0040594615 0.0022282115 0.0665321731
0.1101618846 1.3083857115 -0.3756933269 -0.0033520577 0.0051037308 0.0662426154
-0.2735302885 0.8076923077 0.1075608654 -0.0005210385 -0.0191651538 0.0480161731
-0.4038461538 0.8805170000 0.0169185769 -0.0140262308 0.0122885577 0.0442637885
-0.4570234808 0.3767310962 0.3611922692 -0.0088073846 -0.0008560577 0.0320893846
-0.2115384615 0.7721460769 0.1123611923 0.0185681923 0.0000000000 0.0521598462
0.3766861346 0.8836275962 0.2808218846 0.0091739231 0.0132170385 0.0573511346
-0.4423076923 0.0016810000 0.4282697500 0.0192307692 0.0000000000 0.0480769231
-0.1266016731 0.8842568846 -0.0876142500 0.0035696538 0.0186462308 0.0457223269
0.1766430000 0.8846153846 -0.0881936346 -0.0006294808 0.0192055385 0.0476572692
0.1127559038 0.8805858077 -0.0946842115 -0.0045108269 0.0184803846 0.0453679615
0.3721437115 0.7661311731 -0.2086821731 0.0135982115 0.0000000000 0.0616751346
0.2432650385 0.8171929615 0.1951881154 -0.0152252115 0.0000000000 0.0590425769
0.0883661346 0.8711061538 0.1367921731 -0.0043985577 0.0187163077 0.0480769231
-0.1778743077 0.8043837885 0.1826923077 -0.0055494808 0.0000000000 0.0296781538
0.4979404231 1.2563582115 -0.0865384615 0.0000000000 0.0000000000 0.0673076923
-0.2828705577 1.2159467115 -0.3008724423 0.0090458269 -0.0047820000 0.0640190769
0.4807692308 0.2311972115 0.4113322692 0.0141930577 0.0006800192 0.0601443846
0.4179970000 0.8846153846 0.1251729615 0.0099751346 0.0150550962 0.0474539423
-0.4615384615 0.5080803269 -0.2898444808 -0.0191693654 0.0014582500 0.0483537885
-0.1085730962 0.8812095962 0.0677142115 0.0039295577 0.0188217692 0.0480769231
-0.4341331538 0.1705083846 0.3875344038 0.0134642308 -0.0026928462 0.0346126923
0.2115384615 0.6996859808 0.0113596154 -0.0192307692 0.0000000000 0.0480769231
-0.3653846154 0.7572865192 -0.2816647308 0.0191901346 -0.0012275192 0.0480769231
-0.1643483462 0.7064663846 -0.0865384615 -0.0060813077 0.0000000000 0.0663208269
0.3635820192 0.9925315577 -0.2377596154 -0.0101190962 -0.0014159038 0.0641978654
-0.3846153846 0.5643309038 0.3723965000 0.0187342115 -0.0017612692 0.0466694231
-0.2179500962 0.8076923077 -0.1948279808 0.0000000000 -0.0192307692 0.0480769231
0.2179229038 0.7065635000 -0.0608457885 -0.0182439038 0.0000000000 0.0419956154
-0.4153511346 0.7432436538 0.4106188846 -0.0104963269 0.0030319808 0.0626155577
-0.2307692308 0.7169839423 0.1589684423 0.0182439038 0.0000000000 0.0541582308
-0.4139315962 0.4064294808 -0.2809270769 0.0064139423 -0.0025052308 0.0644870000
0.0842949615 0.7361053269 -0.0673076923 0.0008939808 0.0000000000 0.0671976346
-0.0665507885 0.6964690962 -0.0865384615 0.0044413077 0.0000000000 0.0295668846
-0.2982228654 0.8088431731 0.0704554808 -0.0043964038 -0.0187056731 0.0477007308
0.2500000000 0.8228702500 0.1165101923 0.0189551731 0.0000000000 0.0463786346
0.0097139808 0.8528473269 -0.2913834423 0.0000000000 0.0170733462 0.0392390385
-0.0601457500 1.2012227115 -0.3853156731 0.0015016731 -0.0123701154 0.0625234615
0.1057061154 1.2177650769 -0.3750000000 -0.0045005385 -0.0020309038 0.0664177885
-0.1061311538 1.3206543462 -0.4326923077 -0.0015775577 0.0040989615 0.0297673269
0.0174344038 0.8653846154 0.0431938077 0.0000000000 0.0192307692 0.0480769231
0.3668692692 0.8846154615 -0.0218442500 0.0000000000 0.0192307692 0.0480769231
0.4029982692 0.6629841923 0.3365384615 -0.0067989615 -0.0013597885 0.0317580577
-0.2165440385 0.8846153846 0.1152190192 0.0000000000 0.0192307692 0.0480769231
-0.0848462308 0.7500565577 0.1634615385 -0.0009608269 0.0000000000 0.0289644423
-0.2646669615 0.8819019615 0.3415338462 -0.0019294231 0.0172725192 0.0561597308
-0.4230769231 0.8286190000 0.3772267115 -0.0192307692 0.0000000000 0.0480769231
-0.3619250192 0.8076923077 -0.2179302115 0.0007722500 0.0191349808 0.0488491731
-0.3611571154 1.2708637500 -0.1869198077 0.0135982115 0.0000000000 0.0616751346
-0.0162573269 0.7884615385 -0.1970551154 0.0000000000 -0.0192307692 0.0480769231
0.4585900769 0.4229390000 0.3718178462 0.0142543077 -0.0002669423 0.0372904423
0.3244149808 0.8846153846 0.1158965000 -0.0036478269 0.0188537885 0.0486032308
0.4216946731 0.7931005769 -0.2582331731 0.0135982115 0.0000000000 0.0616751346
0.4582567308 0.0934787115 0.3942307692 -0.0110730577 -0.0032559038 0.0337421923
0.4418770000 0.7831271923 0.3877132115 0.0143860577 0.0023952692 0.0603779615
0.3466158654 0.9938116731 -0.2769829231 -0.0135562692 0.0002039615 0.0344889615
0.3773923269 1.0271503654 -0.2914510577 -0.0002665192 0.0026732692 0.0290975577
0.4920325192 1.2977256731 -0.1137367115 0.0142848654 0.0059809423 0.0372693462
-0.3668553269 0.7626228269 -0.2523176154 0.0150006731 -0.0018588654 0.0588434423
-0.2373284231 0.6730769231 0.1803382308 0.0000000000 -0.0192307692 0.0480769231
-0.4659491731 0.1450003269 -0.3173076923 -0.0019200769 -0.0016934808 0.0661089615
-0.4739913269 0.1270587115 -0.3692440577 -0.0134535577 0.0027640385 0.0346233654
-0.2831909231 0.7885241923 0.2543447692 0.0107070962 0.0000000000 0.0630756154
0.3360570000 0.8269230769 -0.0290114615 0.0039658077 -0.0183281154 0.0467920769
-0.3953272692 0.6807314808 -0.2318657308 -0.0135982115 0.0000000000 0.0616751346
-0.1645156731 0.8671500962 0.3372881731 0.0023663462 0.0186547115 0.0517474615
0.0539851923 0.8641989808 -0.2800317885 0.0000000000 0.0176615769 0.0406595000
-0.2873460192 0.8076923077 -0.0127086923 -0.0000390000 -0.0192285577 0.0480964231
-0.0321191538 0.8653846154 0.1399320000 0.0000000000 0.0192307692 0.0480769231
0.2605486923 0.8076923077 0.3562861154 0.0000000000 -0.0192307692 0.0480769231
-0.0599896538 0.7884615385 0.1676715577 -0.0024375769 -0.0189483077 0.0478331731
0.2264324423 0.7501276538 -0.0778649038 -0.0182439038 0.0000000000 0.0419956154
0.2556609808 1.2743788462 -0.3721695000 0.0067562885 0.0000000000 0.0301631346
0.2583337500 0.7477358269 0.1525645192 0.0177960769 0.0000000000 0.0409129231
0.4436086923 0.2622563654 -0.2992393462 0.0000000000 -0.0026709231 0.0671203269
0.1143170962 0.8071584615 0.0909452500 0.0037962500 -0.0188517500 0.0480769231
-0.0563571923 0.7884616154 0.3914625000 -0.0014248077 -0.0190530385 0.0474679808
-0.1045401923 1.2215673077 -0.4134615385 -0.0017867885 -0.0063287308 0.0307106538
-0.1740118846 0.8076923077 -0.2000948269 0.0000000000 -0.0192307692 0.0480769231
-0.3777722500 0.7037072500 0.3805444808 0.0165791538 0.0004468846 0.0577623654
-0.4420068462 0.5889665962 -0.3348179615 -0.0088134615 0.0022684038 0.0311751538
-0.3076923077 0.6546355000 0.3077649615 0.0192307692 0.0000000000 0.0480769231
0.3195225962 0.7426577308 -0.2329841346 -0.0135982115 0.0000000000 0.0344787115
0.3761203462 1.2869673462 -0.1719566154 -0.0135982115 0.0000000000 0.0616751346
-0.2862140385 0.8076923077 -0.0944764615 -0.0006723462 -0.0190781154 0.0478528077
-0.2307692308 0.7922968462 -0.0816152500 0.0191044423 0.0000000000 0.0472985000
-0.4102151154 0.3721254038 -0.3231605385 0.0191017500 -0.0021536346 0.0480769231
-0.0447013077 0.7884615385 -0.1818518269 0.0000000000 -0.0192307692 0.0480769231
0.4423076923 0.0151506154 -0.3439402308 -0.0188000192 0.0000000000 0.0499016154
0.3934494231 0.8278921538 -0.0111781346 0.0173552885 -0.0015650192 0.0400760577
0.1707545192 0.8114433269 0.1826923077 0.0052871538 0.0000000000 0.0296017500
0.4636142500 0.1966221538 -0.3668133654 0.0135005962 0.0022871538 0.0345763269
-0.2372968077 0.8076923077 -0.2231810192 0.0000000000 -0.0192307692 0.0480769231
-0.3043352115 0.6754591346 -0.1408736731 -0.0135982115 0.0000000000 0.0616751346
-0.3495706731 0.6538461538 0.3068327885 0.0000000000 -0.0192307692 0.0480769231
0.2673391154 0.8130504808 -0.2220996346 0.0116763462 -0.0082086731 0.0366673462
0.0509847692 0.8291685385 -0.3173076923 0.0012700385 0.0047332115 0.0300971346
0.1927918077 0.8808708269 -0.2246563654 0.0002436154 0.0180575000 0.0418846346
0.2972281154 0.7960260192 -0.2106896538 -0.0135982115 0.0000000000 0.0344787115
0.3791692885 0.8183105962 -0.2443622308 -0.0071462692 -0.0023327115 0.0651216346
-0.3269230769 0.6760901731 0.2516460962 -0.0133284808 0.0000000000 0.0348148269
-0.4176973269 0.4661136346 -0.3401626154 0.0123258269 0.0000000000 0.0335359615
0.0355186154 0.8249251346 0.4326923077 0.0000000000 0.0049518269 0.0665809231
0.4476464423 0.6177159808 -0.3114801538 0.0120996346 0.0023911154 0.0364444231
0.2910095000 0.8076923077 0.1622327885 0.0025030000 -0.0189391346 0.0480769231
-0.1426551731 1.3063245962 -0.3655925577 0.0081777885 0.0060940769 0.0642678654
0.3846153846 0.5296145577 0.3866586731 -0.0191795577 -0.0013701731 0.0480769231
0.3053802308 0.7250975000 0.2980769423 -0.0119633269 0.0000000000 0.0623523269
-0.0182074231 0.8205538462 0.1634615385 0.0000000000 0.0000000000 0.0288461538
-0.2126949808 1.2115384615 -0.3705352308 -0.0047633654 -0.0164629615 0.0406849615
-0.4454587500 0.4850858846 -0.3448670385 -0.0103636154 0.0021059615 0.0321313846
0.4793691346 0.2619605769 -0.2992885962 0.0146865769 -0.0003644423 0.0593838846
0.1757030577 0.8763131346 -0.2317924038 -0.0011996346 0.0185717308 0.0436247500
-0.0181633462 1.1831161731 -0.3942307692 0.0000000000 0.0000000000 0.0673076923
-0.3433873077 0.6597532885 -0.2568488654 0.0135982115 0.0000000000 0.0344787115
0.3900858077 1.3076923077 -0.1734227115 -0.0073646923 0.0152510192 0.0541751923
0.4064607308 0.9624673462 -0.2397054615 0.0176086346 0.0021503269 0.0508118077
0.4639599808 0.3134860192 0.3774215192 0.0158908462 0.0007719808 0.0373933462
-0.4253602308 0.9647860962 -0.2662713269 -0.0186636731 0.0026662308 0.0468192308
0.4398335769 0.1603965000 0.3838564038 -0.0134642308 -0.0026928462 0.0346126923
0.1176973462 0.8653846154 0.3123718654 -0.0020399231 0.0188729808 0.0506441923
0.4548186538 0.5031430962 0.4036318654 0.0148085000 0.0021369038 0.0599868077
0.2932496923 0.8846153846 -0.0193789808 0.0000000000 0.0192307692 0.0480769231
-0.3961532308 0.8384085385 0.2634633462 -0.0169900192 -0.0031598269 0.0555023462
0.4056990769 1.1024140577 -0.2549064423 0.0189450962 0.0027064423 0.0474962885
0.2104459231 0.8134227115 0.2008305385 0.0084571538 0.0000000000 0.0308171154
-0.0886140385 0.7884615385 -0.2704350769 -0.0013995577 -0.0189835385 0.0490099615
-0.1817838846 0.8846153077 -0.1261335192 0.0010187308 0.0191116923 0.0480260769
-0.2307692308 0.6802303654 0.0359724808 -0.0179528654 0.0000000000 0.0534901923
-0.3015484423 0.7607443846 -0.2150100000 0.0135982115 0.0000000000 0.0344787115
0.1329349038 0.8793326154 0.2707410769 -0.0033245577 0.0187557692 0.0505675577
-0.1409004615 1.2178234615 -0.3665004423 0.0051076538 -0.0080450192 0.0644691923
0.0337361923 0.8653846154 0.0201878077 0.0000000000 0.0192307692 0.0480769231
-0.4195351923 0.8709460000 -0.2379683077 -0.0111711923 -0.0004619808 0.0631171731
0.4386743462 1.3269230769 -0.1495492115 0.0013758846 0.0182336154 0.0473889808
0.2115384615 0.8253018269 0.0180576731 -0.0192307692 0.0000000000 0.0480769231
0.1014932885 0.8007466154 -0.0381660000 0.0046641538 -0.0186565769 0.0480769231
-0.3039294808 1.2480803269 -0.2538010192 0.0065623269 -0.0150647885 0.0580351538
0.1743478077 0.8801366346 0.3078817885 -0.0025538269 0.0187466538 0.0514347885
0.2733646923 1.3269230769 -0.3556415192 0.0085012115 0.0113910192 0.0354325769
-0.3426524615 0.8846153846 -0.0962533077 -0.0036024038 0.0180920577 0.0465330385
0.3046476346 0.6733587692 -0.1411860962 0.0135982115 0.0000000000 0.0616751346
-0.1014660000 0.8214987885 0.1634615385 -0.0029762692 0.0000000000 0.0292125577
-0.3947725385 0.9374441731 -0.3042661923 -0.0012433846 0.0022570577 0.0291907885
-0.4807692308 0.1829632115 -0.3151649423 -0.0184595962 0.0001930769 0.0527144808
-0.4397809038 0.3104192308 0.3713403846 -0.0000937500 -0.0017133462 0.0289266154
-0.2692307692 0.7168781538 -0.0989392115 -0.0172005192 0.0000000000 0.0566771923
0.3667541346 1.3245293462 -0.2582458462 0.0133425962 0.0007808269 0.0347343269
0.3256441538 0.8846153846 0.1646263077 -0.0035537692 0.0188866731 0.0478271731
-0.4094391154 0.8269230769 0.0633454231 -0.0004432885 -0.0189489423 0.0479882692
0.1500638077 1.3374927308 -0.3663388462 -0.0055758654 0.0099273654 0.0632603654
-0.3408634808 0.8216326731 0.2109419231 -0.0075746731 -0.0176168654 0.0472711923
-0.4547732500 0.0129848077 -0.3365384615 0.0000000000 0.0000000000 0.0673076923
-0.4387593269 0.8709927308 -0.2755607115 -0.0164700385 0.0023528654 0.0394387308
-0.4230768846 0.2543883077 0.3970370577 0.0191727692 -0.0014525769 0.0480769231
-0.4996524231 0.0509428654 -0.3365384615 0.0000000000 -0.0014803462 0.0672032115
0.4220242115 0.8379924423 -0.3002955385 0.0131795769 0.0025243846 0.0343801346
-0.1264373846 0.8653846154 -0.2576806538 0.0003434808 0.0191904038 0.0473899423
0.0800727885 0.7382491154 -0.0896881731 -0.0060813077 0.0000000000 0.0298330192
0.2451272308 0.8076923077 0.2185803269 0.0000000000 -0.0192307692 0.0480769231
-0.0786299231 1.2102011154 -0.3763373462 0.0018048077 -0.0093691154 0.0641556923
-0.4201036538 0.3063009615 0.3761740385 0.0181351154 -0.0023787500 0.0423957692
-0.1790695962 0.8322332115 -0.2854652115 -0.0054878462 0.0075918077 0.0326562692
0.1624124808 1.2882661154 -0.3472029231 -0.0074889808 0.0000000000 0.0657382692
-0.3789042308 0.7105932885 -0.2154426923 -0.0135982115 0.0000000000 0.0616751346
0.3836008269 0.8269230769 0.1715783654 0.0000000000 -0.0192307692 0.0480769231
-0.3653846154 0.8413469615 -0.2646224231 0.0191819615 -0.0013523269 0.0480769231
0.3491152308 0.8846153846 0.0330816154 0.0001758654 0.0190165192 0.0459490192
0.1256426731 0.8007935769 -0.1153502885 0.0034273654 -0.0188454231 0.0482265962
0.2197423846 0.6730769231 0.2110118077 0.0000000000 -0.0192307692 0.0480769231
-0.0126897692 0.7130241346 0.1634615385 0.0000000000 0.0000000000 0.0288461538
-0.3757951731 0.7992203846 -0.3047817308 0.0056127500 0.0016748462 0.0307402500
0.4423076923 0.7994293846 -0.2725086538 0.0166628269 0.0002957692 0.0555433269
-0.3045179615 0.8809399231 0.3225703077 -0.0038039808 0.0168872308 0.0564239423
0.0371672885 0.7884614615 0.3176024038 0.0000000000 -0.0192307692 0.0480769231
0.3701386154 1.3076923077 -0.1910676923 -0.0043398269 0.0159020192 0.0544505385
-0.0639669231 0.8269230769 0.1938028269 0.0000000000 0.0192307692 0.0480769231
-0.2461141346 0.8269230769 -0.0418743654 0.0000000000 0.0192307692 0.0480769231
-0.0245398654 0.7956160769 0.1634615385 0.0000000000 0.0000000000 0.0288461538
0.1106370000 0.8766225577 0.2403742308 -0.0038492500 0.0187659231 0.0494418077
0.4423076538 0.7607628654 0.3887920000 0.0151519038 0.0011024615 0.0577900769
0.2692307692 0.8067829423 0.2267054038 -0.0174749423 0.0000000000 0.0560284038
-0.4149691923 0.5952400385 -0.2549219038 0.0025487308 -0.0024638654 0.0663903269
-0.3015853462 0.7514412885 -0.1381238077 -0.0135982115 0.0000000000 0.0616751346
0.4131782885 0.5165182308 0.4134615385 -0.0002021731 0.0000000000 0.0672599615
0.4558349808 0.5607349615 -0.3193312115 0.0065690385 0.0024161538 0.0327953846
0.2115384615 0.7910524423 -0.0102283269 -0.0192307692 0.0000000000 0.0480769231
-0.4055522692 0.6985654808 0.3207199808 -0.0157335769 -0.0001839423 0.0370503462
0.4724605962 0.0050088654 0.3942307692 0.0000000000 0.0000000000 0.0288461538
0.3786371731 0.8269230769 0.1983582308 0.0000000000 -0.0192307692 0.0480769231
-0.3786956731 1.2844030000 -0.1693812500 0.0135982115 0.0000000000 0.0616751346
0.3468406731 0.8073900577 -0.2603022115 -0.0135982115 0.0000000000 0.0344787115
0.2347499615 0.7121772692 -0.1634615385 -0.0120814808 0.0000000000 0.0355204231
0.2500000000 0.7555052692 -0.0512193462 0.0188990192 0.0000000000 0.0494822692
-0.2020504808 1.3393019231 -0.3989747885 -0.0080461538 0.0051084615 0.0315214808
-0.4313779231 0.7544452308 0.3448394423 -0.0148198846 0.0013929231 0.0367019038
0.3412013462 1.3076923077 -0.2190681731 -0.0053733462 0.0166134038 0.0534502692
0.0317340962 0.7884615385 0.0865190192 0.0000000000 -0.0192307692 0.0480769231
-0.3854286923 1.1096913269 -0.2221199615 -0.0189545577 0.0026980385 0.0482135962
0.4423077308 0.5961571923 -0.3334313846 0.0176019231 0.0014610192 0.0454379423
0.3690124231 0.6944965962 -0.3017047692 -0.0154568462 0.0000000000 0.0367219423
0.0693767115 1.2778122308 -0.3750000000 -0.0051553654 0.0037723077 0.0656396154
-0.0822226538 0.8112040962 0.1634615385 -0.0006426731 0.0000000000 0.0289252692
-0.2578119038 0.8846153846 0.1296460192 0.0000000000 0.0192307692 0.0480769231
0.4334397692 0.5195406731 0.3557072500 0.0000343269 -0.0017388846 0.0289353654
0.1349343846 1.2445514423 -0.3557692308 -0.0088668269 0.0000000000 0.0651347885
0.1988152692 0.8846153846 -0.0584640000 -0.0002350962 0.0192213462 0.0479201923
0.4343657885 0.1358635385 0.4035638654 -0.0191146154 -0.0020975000 0.0480769231
0.2969533654 0.8020290192 -0.1334918269 0.0135982115 0.0000000000 0.0616751346
-0.4289487308 1.2500000000 -0.1949982115 -0.0071048269 -0.0140296731 0.0409720962
0.4443479615 0.3293591346 -0.3557692308 0.0000000000 0.0012191731 0.0288862115
0.1189126154 0.8076923077 -0.0068172308 0.0042363077 -0.0187092500 0.0480769231
-0.1351565962 0.8656552308 0.3492983462 0.0012733654 0.0191138269 0.0494292692
-0.4305647308 0.7228890192 0.3942307692 -0.0055951346 0.0008607885 0.0649434231
-0.0828762692 0.7914380962 -0.0636510769 -0.0039883654 -0.0187834231 0.0484812115
0.3962661731 0.4761367500 -0.3038123269 -0.0190620769 -0.0025416154 0.0480769231
0.4092593269 0.8792022500 0.0637818269 0.0147903654 0.0112964231 0.0456179808
-0.4807692308 0.2471545962 -0.3175606346 -0.0190071154 0.0000251731 0.0508368654
0.0699006154 1.2761412308 -0.4326923077 0.0000000000 0.0000000000 0.0288461538
0.4570753077 0.0625219615 0.4326923077 -0.0011727500 0.0000000000 0.0670038077
0.0708183269 0.7884615385 0.2064900769 0.0039238462 -0.0187477308 0.0480769231
0.5000000000 0.0369280192 -0.3519348269 0.0191714808 0.0008342500 0.0480769231
-0.1534624423 0.6783760577 -0.1151927692 0.0053351731 0.0000000000 0.0296657115
-0.2179835385 0.7341106923 0.2019230769 -0.0086002692 0.0000000000 0.0308764038
-0.2399335192 0.7759971538 0.2495489038 0.0109820000 0.0000000000 0.0635607885
-0.1516983846 0.8076923077 0.2722231731 -0.0020962115 -0.0190225577 0.0480120000
0.4230769231 0.8627205577 0.1272895385 0.0192307692 0.0000000000 0.0480769231
-0.2989617115 0.7356897500 0.2124232500 -0.0149685192 0.0000000000 0.0361675577
-0.4423076923 0.6688743077 0.3515853269 -0.0130197500 -0.0001910385 0.0358094038
-0.1955713654 0.8076923077 0.0652673269 0.0000000000 -0.0192307692 0.0480769231
0.2204976154 0.8846153846 -0.0605146538 0.0000000000 0.0192307692 0.0480769231
0.4172438077 0.8292883269 0.2135893077 0.0150319423 -0.0098621154 0.0522235192
-0.4568981731 1.2533793846 -0.1681018462 -0.0134105577 -0.0015467692 0.0346663654
-0.4038461538 0.5779194423 0.3433820192 0.0130824038 -0.0022099038 0.0341966538
-0.2949290192 0.8642877500 0.3667995385 -0.0067370192 0.0106142885 0.0610386923
-0.3822030962 0.7436733269 0.3942307692 0.0041913846 -0.0002785577 0.0659879423
-0.4038461538 0.4774214615 -0.2770349808 0.0137408269 -0.0022176731 0.0612931923
0.2546811923 1.2331098462 -0.3539815000 0.0100062885 -0.0059272885 0.0329595962
-0.1201947308 0.8042316346 -0.0934598654 -0.0041211731 -0.0183495385 0.0515697500
0.1858732500 0.6984420962 -0.1250000000 -0.0019850577 0.0000000000 0.0291600000
-0.3673265192 1.1004049615 -0.2211538462 0.0000000000 -0.0001334038 0.0673029423
0.1702568654 1.3374600000 -0.4057446923 0.0053152885 0.0088560192 0.0324264423
0.0922445385 1.1923076923 -0.3790801923 -0.0040833077 -0.0127464038 0.0617901154
0.4807692308 0.2692960962 -0.3501652500 0.0156275192 0.0014936346 0.0390579038
0.0433803269 0.7884615385 0.3772856346 0.0005530192 -0.0191677885 0.0480769231
0.0815164038 0.7085269038 -0.0673076923 0.0005570192 0.0000000000 0.0672391154
0.4230769231 0.9342265577 -0.2456246154 0.0104630577 0.0004631731 0.0606419038
-0.4278146346 0.1686190577 0.4121173654 0.0190668462 -0.0023712500 0.0480769231
-0.4698381731 0.3299787308 0.3832997115 -0.0153551154 0.0003193269 0.0368510962
0.1966533462 0.8076923077 0.2649379231 0.0000000000 -0.0192307692 0.0480769231
0.0987568077 0.6978385577 0.1634615385 0.0026477308 0.0000000000 0.0291720962
-0.2719408654 0.6746624423 0.1854024038 -0.0166928654 0.0000000000 0.0387723269
-0.4226710962 0.9836100000 -0.2615305769 -0.0190374808 0.0027196346 0.0480769231
-0.0872634808 0.8688314231 0.2511899615 0.0038229808 0.0188231154 0.0485115962
0.0418905769 0.6812522500 0.1634615385 0.0000000000 0.0000000000 0.0288461538
-0.0164334038 0.8653846154 0.0919369231 0.0000000000 0.0192307692 0.0480769231
0.1633869231 0.8203186538 -0.1201550000 -0.0057683462 0.0000000000 0.0297402885
0.3853629615 0.7336419231 -0.2557101923 -0.0129023462 -0.0019137500 0.0621151538
0.2793238462 0.8076923077 -0.1971926154 0.0090145385 -0.0150752500 0.0431509231
-0.2825345385 1.2713394231 -0.3616962115 -0.0110816538 -0.0034671346 0.0333590962
-0.2307692308 0.7010500192 -0.0747854615 0.0189292115 0.0000000000 0.0462186154
-0.4351276346 0.7914149231 0.3485891731 -0.0135982115 0.0000000000 0.0344787115
0.1513577885 0.8653846154 0.3771513846 -0.0004460577 0.0188350192 0.0502121346
0.3256849231 1.2500000000 -0.3171694038 0.0119985577 -0.0116937500 0.0398655385
0.0623888462 0.8653846923 -0.1791151154 0.0000000000 0.0192307692 0.0480769231
-0.1109298654 0.7958495769 0.4072963269 -0.0035177500 -0.0175887115 0.0537369231
-0.1417881538 0.8095160192 -0.2980769231 -0.0024229808 -0.0121858462 0.0341218654
-0.2500000000 0.7166803846 -0.0191370192 -0.0189816538 0.0000000000 0.0496120769
-0.1659107115 1.2440801731 -0.3437046731 0.0070199808 0.0000000000 0.0659320192
0.2160516923 0.7351433654 0.1295132308 -0.0182439038 0.0000000000 0.0541582308
-0.2934374038 0.7126545577 -0.1299758654 -0.0135982115 0.0000000000 0.0616751346
-0.3759512115 0.8846153846 0.2471139808 -0.0020862308 0.0189068269 0.0503977885
-0.0734998654 0.8653846154 0.2739610577 0.0026887692 0.0189710385 0.0483630962
0.0282782115 0.8101341538 0.1826923077 -0.0034292308 0.0000000000 0.0668855385
-0.4153356154 1.0349581731 -0.2413369231 -0.0190374808 0.0027196346 0.0480769231
0.3507053269 0.8654182885 -0.1158970192 0.0154900962 0.0048621923 0.0383356346
-0.4377723462 0.5767480769 -0.2572334231 -0.0016843077 -0.0022207115 0.0664630385
-0.4181283462 0.7814430000 0.3325925192 -0.0140198269 -0.0013326923 0.0350380769
0.2322830385 0.8846153846 0.3229077692 -0.0011259615 0.0188223846 0.0510794615
-0.1085495769 0.8811978654 0.0285134615 0.0039300962 0.0188216538 0.0480769231
0.1466848654 0.8076923077 -0.0059566346 0.0008684423 -0.0191238654 0.0480769231
-0.0944322885 0.8269230769 0.1809930962 0.0000000000 0.0192307692 0.0480769231
0.0395986923 1.2740918654 -0.3930936154 -0.0069803462 0.0010626154 0.0656278077
0.4440409615 0.0028914231 0.3942307692 -0.0104773462 -0.0084328077 0.0358662692
0.3961265192 0.7754091923 0.4057419038 -0.0135855000 0.0004076923 0.0616624231
0.1495452500 0.8846154615 0.0871039808 -0.0015383077 0.0190784423 0.0480769231
-0.0887011731 0.7923875962 0.2657179615 -0.0037713077 -0.0188565769 0.0479999423
-0.4935826923 1.2445840192 -0.0865384615 0.0000000000 0.0000000000 0.0673076923
-0.2157074808 0.8846153846 0.3217131346 0.0016958654 0.0187513654 0.0516155577
-0.2909787308 0.8846153846 0.1297158654 0.0013440769 0.0191050769 0.0480769231
-0.4735677500 0.1826218654 -0.3588598654 -0.0134962115 0.0023411731 0.0345807115
-0.0747064423 0.6803036538 0.2008147692 0.0046641538 0.0000000000 0.0667335192
-0.0188184423 1.3313874423 -0.3942307692 0.0000000000 0.0026786538 0.0664148077
0.0371309423 0.7884614615 -0.3005606538 0.0004323654 -0.0184764808 0.0463474615
0.4807691923 0.0861583269 0.4109919615 0.0180329038 0.0007374038 0.0426343462
-0.4359961346 0.6081850385 -0.2538830962 -0.0152059231 0.0004476154 0.0597018654
0.0860116731 0.7930058654 0.1397491923 0.0044532115 -0.0187040192 0.0480769231
-0.4535908654 0.4866572885 -0.2845928077 -0.0146041923 0.0006767885 0.0570154808
-0.0872715192 0.8269230769 0.4325386923 -0.0022687115 0.0122301731 0.0623161346
-0.1048235192 0.7927963462 -0.2320600962 -0.0045351731 -0.0186415577 0.0492729038
-0.3125184808 1.2597923269 -0.3317122885 -0.0131257308 -0.0029401346 0.0354412115
0.4807692308 0.2624426346 -0.3293465385 0.0191525192 0.0015454231 0.0485246731
0.3769307500 0.8172723269 -0.2671587692 -0.0038235962 0.0184254808 0.0519005192
-0.4615384615 0.5123554038 -0.3084727115 -0.0192090000 0.0006886731 0.0480769231
-0.3723540000 0.6612622115 0.3697080577 0.0164356923 0.0000000000 0.0579951154
0.4393070577 1.3186076154 -0.1664621538 0.0162852115 0.0051109423 0.0399343269
0.3932075577 0.6601497885 -0.2297459808 0.0135982115 0.0000000000 0.0616751346
-0.3666794038 0.7011800192 -0.2934997308 0.0191604038 -0.0016223462 0.0480769231
-0.4605918269 0.0337529038 -0.3326443846 0.0132590385 -0.0042599038 0.0613359615
-0.1948390769 0.8846153846 0.2976098846 0.0015644038 0.0189870577 0.0499020577
-0.2199489038 1.3425281154 -0.3473587692 0.0034018846 0.0147479808 0.0576824615
-0.4564186538 0.0854160577 -0.3203041731 0.0133357115 -0.0037574038 0.0614126346
-0.1588879231 0.6957858077 0.2069648462 0.0073320769 0.0000000000 0.0657729808
-0.0034847885 0.8653846154 -0.0914328462 0.0000000000 0.0192307692 0.0480769231
0.3918999808 0.8269230000 0.0123530385 0.0000000000 -0.0192307692 0.0480769231
0.2632893077 0.8236987692 0.2152123846 -0.0160875577 0.0000000000 0.0582213269
-0.0137929423 1.3653846154 -0.4290513654 0.0000000000 0.0192307692 0.0480769231
0.0016686538 1.3213078462 -0.4326922692 0.0000000000 0.0000000000 0.0288461538
0.4018185385 0.5323629038 0.4114339615 -0.0089629808 -0.0001042885 0.0647635577
-0.3115096731 1.3267948462 -0.3290319423 -0.0094988846 0.0153164808 0.0428655000
0.3086012308 0.7859042308 -0.2220627692 -0.0135982115 0.0000000000 0.0344787115
0.4493210192 0.4308340385 0.3557692308 0.0081331538 -0.0004103462 0.0322559808
0.4930687308 0.0689923846 -0.3557692308 0.0069884808 0.0016354038 0.0314851731
0.3653846154 0.8712044423 -0.2507981731 -0.0179798077 -0.0006625192 0.0525401346
0.4311522308 0.6970552308 0.3394351346 0.0089464231 -0.0010569231 0.0314493462
0.4820169231 0.0527963269 -0.3638115000 0.0148025385 0.0036694423 0.0383450962
-0.4199833462 0.8619118462 0.0418898077 -0.0188250385 0.0000000000 0.0441618654
0.3012265385 0.8269230769 -0.1756965769 0.0092493077 -0.0152432308 0.0428433654
0.2949489038 1.2500000000 -0.3410629808 0.0086084615 -0.0119148462 0.0359500000
0.1121094808 1.3247808269 -0.4326923077 0.0020162115 0.0075748462 0.0313528269
-0.3835802885 0.6760961154 0.2980769231 -0.0088832115 0.0000000000 0.0310847885
-0.2500000000 0.6878706154 0.1162969038 -0.0189606538 0.0000000000 0.0464123462
-0.4270590962 0.6713168846 0.3405206538 -0.0090710192 -0.0010260577 0.0314723654
-0.2546420192 1.2365181346 -0.2934349038 0.0119971346 -0.0026440000 0.0627180577
-0.0757722885 1.3421026346 -0.3942307308 0.0018286923 0.0005475962 0.0670393269
-0.1203622500 0.7596840577 0.2019230769 0.0007870385 0.0000000000 0.0671799808
0.3461538462 1.1858480192 -0.2458924423 -0.0192307692 0.0000000000 0.0480769231
0.1957810962 0.8094290192 0.4009863077 0.0040089615 -0.0155348654 0.0570141538
-0.2458835577 0.8076923077 0.1674703846 0.0000000000 -0.0192307692 0.0480769231
0.4345726538 0.7656837692 -0.2908193846 0.0172797308 0.0024345192 0.0404769808
-0.4155749615 0.8227045385 0.3942307692 0.0000000000 0.0000000000 0.0673076923
-0.1468662885 0.8075304038 -0.1383121154 -0.0049423654 -0.0185436731 0.0468609231
-0.2662342308 0.7105107692 0.2758496154 0.0093790385 0.0000000000 0.0647161346
-0.3673408269 1.1092258654 -0.2797259615 0.0000000000 0.0027196346 0.0290394423
0.0209674808 0.7884615385 0.2596622885 0.0000000000 -0.0192307692 0.0480769231
0.3454726731 0.7981082500 0.3365384615 -0.0085010192 0.0002053846 0.0652843269
0.1960454423 0.8588732115 -0.2577465192 0.0068455000 0.0087220962 0.0343859231
0.3073702500 1.3230923846 -0.3368605192 0.0134859615 0.0001924615 0.0344754808
0.3158468077 0.8191961923 0.0612094423 0.0042282115 -0.0185924808 0.0491801154
-0.4721014615 1.2822130577 -0.1528985000 -0.0155768846 0.0000000000 0.0372239808
0.1968386154 1.3115316538 -0.3438883654 -0.0078202885 0.0039768462 0.0649833654
-0.1780066154 0.8846153846 0.1160147885 0.0000000000 0.0192307692 0.0480769231
-0.2586322885 0.8269230769 -0.0867398654 0.0000000000 0.0192307692 0.0480769231
-0.1895177885 0.8481503269 -0.2610103077 -0.0081341538 0.0018477692 0.0314906731
-0.4249946538 0.4153429615 -0.3557691923 0.0000000000 0.0012672692 0.0288881538
-0.0005662885 0.7884615385 0.0237159808 0.0000000000 -0.0192307692 0.0480769231
0.3752435192 0.8269230769 -0.0385317885 0.0000000000 -0.0192307692 0.0480769231
0.2667881923 0.7633765385 0.1610189615 0.0174020000 0.0000000000 0.0399387115
-0.2418645385 0.6730769231 0.1057665577 0.0000000000 -0.0192307692 0.0480769231
-0.2854755769 0.8076923077 -0.1207487885 -0.0008301923 -0.0190422692 0.0478001923
-0.3484995962 0.8846153846 0.0033399615 0.0000000000 0.0192307692 0.0480769231
-0.2115384615 0.6763610769 0.0126262308 0.0192307692 0.0000000000 0.0480769231
0.3584368846 0.7793331154 0.3488215000 -0.0124141538 0.0004422692 0.0622713654
0.4230769231 0.8355663654 0.0825881346 0.0183070000 -0.0034016346 0.0467162692
0.2153073462 0.8219231731 0.1287688846 -0.0182439038 0.0000000000 0.0541582308
0.3418242308 0.7314971731 -0.2552857692 -0.0135982115 0.0000000000 0.0344787115
0.3653846154 0.6623246154 0.2978552885 0.0115172500 0.0000000000 0.0330887885
0.4556301923 0.6182809231 -0.2824339038 0.0185590962 0.0011200000 0.0507191731
-0.3273555769 0.8088073654 0.2189236154 -0.0081773462 -0.0172235000 0.0460680192
-0.2185804038 0.7520317692 -0.1057692308 -0.0061807500 0.0000000000 0.0662868462
-0.4077851154 0.9153681538 -0.3034810000 -0.0096606923 0.0023968269 0.0322193077
-0.0993624615 1.1840697115 -0.4020149615 -0.0068458846 -0.0121620192 0.0349809808
-0.2500000000 0.7724157500 0.1135801923 -0.0190303462 0.0000000000 0.0468419038
-0.1760957115 0.7070131346 -0.1250000000 0.0050014808 0.0000000000 0.0296369231
-0.1653528077 0.8076923077 -0.2403045000 -0.0017484808 -0.0190148846 0.0489511538
0.0549521731 0.7884615385 -0.2473573846 0.0000000000 -0.0192307692 0.0480769231
-0.3666687692 1.1672501154 -0.2211538462 0.0000000000 0.0000000000 0.0673076923
0.4423076923 0.6540915385 0.3610443654 0.0172788269 0.0008213077 0.0420377692
0.4009872885 0.8269230769 0.1953303269 0.0000000000 -0.0192307692 0.0480769231
0.4310807500 0.9247422500 -0.2621962115 0.0170201346 0.0011330000 0.0554474423
-0.0222536346 0.8653846154 -0.1457315385 0.0000000000 0.0192307692 0.0480769231
0.4295900000 0.2996740385 0.3731312308 -0.0035887308 -0.0019292308 0.0295592885
0.3965904615 0.4677720385 0.3694705192 -0.0147557692 -0.0026828654 0.0364788462
0.4564899231 0.5078978077 0.3576580577 0.0103509423 -0.0004570769 0.0334519038
-0.1530312308 0.8842078654 -0.1562913077 0.0044977115 0.0186582885 0.0473923269
0.3856563654 1.1706537115 -0.2517198077 0.0024600769 0.0030210192 0.0293899038
0.3777150769 0.8944561346 -0.2975266538 -0.0155107115 -0.0004524231 0.0390527500
0.3955551731 0.5447070769 0.3942307692 -0.0150349231 -0.0012885962 0.0594173269
-0.2481579808 0.8846153846 0.1121240192 0.0000000000 0.0192307692 0.0480769231
0.2759001346 0.8755034615 0.3423157115 0.0029949615 0.0168837885 0.0567221346
0.0112987885 0.7884615385 -0.0173767308 0.0000000000 -0.0192307692 0.0480769231
-0.2816598654 0.8269230769 0.2748841154 0.0000000000 0.0192307692 0.0480769231
0.4036644423 0.6252929231 -0.2513470385 -0.0135945577 -0.0020859231 0.0609438462
-0.0174580577 0.7884615385 -0.1026036731 0.0000000000 -0.0192307692 0.0480769231
0.4457383462 0.3516671538 -0.3557692308 0.0000000000 0.0011368269 0.0288813846
0.2958903462 0.6910588846 0.2093518654 0.0149897692 0.0000000000 0.0364094038
-0.3759349038 1.1761481923 -0.2698636731 -0.0181456923 0.0025922500 0.0442261923
-0.4423076923 0.0288569038 0.4138959808 0.0191355769 0.0000000000 0.0483482885
-0.2433719038 0.8602764423 -0.2340832692 -0.0082872885 0.0056521923 0.0318750192
-0.1255121346 0.8815810192 0.2520277308 0.0036627885 0.0187748846 0.0499159038
-0.4309165000 0.7321771538 0.3365384615 -0.0120045385 0.0002826346 0.0334877115
-0.2053029808 1.2908546731 -0.3365384615 0.0063610192 0.0017133846 0.0658397692
0.2722367500 0.8076923846 0.3386511923 0.0003241346 -0.0191864231 0.0479148462
-0.4559765962 0.5470402115 0.3705802692 -0.0175898846 0.0017115192 0.0416323462
-0.4679213654 0.3074939615 0.4134615385 -0.0097751154 0.0018693846 0.0642100769
0.4127601538 0.3503620769 0.3931200385 -0.0189338846 -0.0033607115 0.0480769231
0.4140965000 0.8562602308 0.0301160769 0.0182385962 0.0020468269 0.0429964231
0.4579681538 1.3003831923 -0.1670318462 0.0134538269 0.0011900962 0.0346230962
-0.3457364231 0.8193184808 0.0498790577 -0.0032977500 -0.0187233077 0.0493734808
-0.1164729038 0.8076923077 -0.0411672500 -0.0045321731 -0.0186728269 0.0480769231
0.2115384615 0.7474302115 0.0034587692 -0.0192307692 0.0000000000 0.0480769231
0.4230769231 0.8359288462 0.1487947308 0.0187700000 -0.0029381538 0.0483752692
-0.4562287692 0.6140910000 -0.2864231346 -0.0191744423 0.0014566731 0.0480769231
0.4161645385 1.0242190000 -0.2726390577 0.0042496731 0.0026475192 0.0297128077
0.0773975000 0.8223799231 0.2019230769 -0.0046066154 0.0000000000 0.0667405962
0.1145449615 0.8072725385 -0.2967981154 0.0032849615 -0.0176025962 0.0415070000
0.2115384615 0.7927481538 -0.0407373077 -0.0186205577 0.0000000000 0.0443166154
-0.3570719808 0.7676943269 0.3474565962 0.0121955385 0.0005289808 0.0623814615
-0.2419185192 0.6916635962 0.2515338846 0.0114978846 0.0000000000 0.0631889615
0.2115384615 0.7006422115 -0.0205297885 -0.0192307692 0.0000000000 0.0480769231
-0.0106855769 0.8653846154 -0.0718890192 0.0000000000 0.0192307692 0.0480769231
