-0.3283445905 0.4741778969 0.1255401719 0.0083970517 0.0058200310 -0.0241418323
0.3001931333 0.4128863682 0.1344797861 -0.0098258746 0.0031546770 -0.0249561969
0.4999999583 0.5339656028 0.0353944152 0.0104166454 0.0000000000 -0.0260416656
-0.3490036834 0.4791666467 -0.0169675097 0.0008063020 0.0095826871 -0.0299020300
0.3353035902 0.5444169565 -0.3115148412 0.0051123852 0.0000000000 -0.0350951860
0.3182957263 0.6658953160 -0.1633831182 -0.0082307913 0.0032352603 -0.0205717700
0.0317728112 0.1874999922 -0.2731868532 -0.0000000208 -0.0094718434 -0.0303261967
0.0782884342 0.3894152129 -0.1822916591 0.0005855416 -0.0021154895 -0.0159517598
0.3279128093 0.4320794924 0.2158276368 -0.0089092496 0.0044359790 -0.0235277282
-0.3104698308 0.0000000000 0.1780174509 -0.0000000208 -0.0104166662 -0.0260416656
0.3105148308 0.2177574388 0.3170219139 0.0025923124 -0.0099300308 -0.0243234886
0.3257472364 0.6493307125 -0.1343347548 -0.0079361559 0.0032377707 -0.0202563012
0.4109834829 0.2348498027 -0.0688302471 -0.0075699789 -0.0069513226 -0.0257939052
-0.4496140854 0.3453716731 -0.1510038062 -0.0092003538 -0.0019926041 -0.0304341654
-0.0373745505 0.1770833260 -0.1272491405 -0.0000000208 -0.0104166662 -0.0260416656
0.0248203844 0.1770833260 0.0559844143 -0.0000000208 -0.0104166662 -0.0260416656
-0.2478583334 0.1169890160 -0.3655175264 -0.0006896146 0.0032203957 -0.0358246443
0.0199473429 0.7559318227 -0.2715568429 -0.0000000208 0.0095524059 -0.0219480303
0.3088026850 0.6802046800 -0.2974508834 0.0051097810 0.0036133540 -0.0343654882
0.2234410949 0.1892209921 0.1930229190 0.0018256666 -0.0098083746 -0.0232181553
-0.3787989321 0.3341545173 -0.0807474654 0.0097655308 -0.0030651561 -0.0246139573
0.3734597032 0.5000000208 0.2223430532 -0.0028169478 0.0095493642 -0.0248572802
0.2847113319 0.2793859884 -0.2709503429 0.0053645831 -0.0076738122 -0.0225918220
-0.0517842062 0.3333333194 0.0911967670 -0.0000000208 0.0104166662 -0.0260416656
-0.3122486953 0.6933258878 -0.1927083253 0.0000757604 0.0026812082 -0.0162640514
-0.0071772080 0.5324455716 -0.1614583266 -0.0000000208 0.0000000000 -0.0156249993
-0.3951060773 0.2732610199 0.3489583188 -0.0021895207 0.0025147291 -0.0163950202
0.3597758600 0.4800316258 -0.0612341224 -0.0088767496 -0.0034278124 -0.0221783741
0.1117516933 0.2705700304 0.3906250254 0.0012617291 0.0034594999 -0.0163358847
-0.1910405650 0.3959615877 -0.1821633882 -0.0000000208 0.0073897184 -0.0333740194
-0.0761266531 0.3333333194 0.0634025182 -0.0000000208 0.0104166662 -0.0260416656
-0.2430981461 0.3240510282 -0.0885416630 -0.0000000208 -0.0041511665 -0.0166049576
-0.0418431441 0.1770833260 -0.2394040525 -0.0000000208 -0.0101592183 -0.0276300405
-0.2170376889 0.1875000130 0.1107429537 -0.0000000208 -0.0104166662 -0.0260416656
0.3905583275 0.2620375620 0.2414166045 0.0092289892 -0.0042924686 -0.0278150093
-0.2929976024 0.1956811689 -0.0040212082 -0.0032209061 -0.0098522913 -0.0263597177
-0.2265331676 0.1845944298 -0.1446863586 -0.0024918436 -0.0100799683 -0.0268722697
-0.2537470728 0.3229166740 0.0025970624 -0.0011297916 0.0098506871 -0.0284548113
-0.3050827060 0.6011732979 -0.1413372858 0.0088396246 0.0017913228 -0.0209179575
-0.0014006249 0.3477382147 -0.0925298816 0.0001103646 0.0041712394 -0.0165170618
0.1716536387 0.1847851590 0.0013339270 0.0020548332 -0.0100722808 -0.0252640094
-0.3079919455 0.4802935321 -0.1302083279 0.0073823851 -0.0012458333 -0.0190156138
0.3272244968 0.5741061115 -0.1050671415 -0.0081318538 0.0011790937 -0.0196784679
0.3502728604 0.6418425774 -0.2751006760 0.0070998851 0.0005536771 -0.0336126340
-0.0932984232 0.3218183408 -0.1916100024 -0.0000000208 -0.0049439269 -0.0351528735
-0.0486300501 0.4497098354 -0.1700818054 -0.0000000208 -0.0044235936 -0.0166274264
-0.1398048171 0.1770833260 -0.0622844141 -0.0000000208 -0.0104166662 -0.0260416656
-0.4034640874 0.3508232250 -0.2503635729 -0.0087226976 0.0010418854 -0.0315094883
0.2095299913 0.1874999922 0.0380070817 -0.0000000208 -0.0104166662 -0.0260416656
0.1843723777 0.5412020087 -0.1614583266 -0.0000000208 0.0000000000 -0.0156249993
-0.4112502745 0.6609086287 -0.0260416656 0.0047302602 0.0054406248 -0.0188049471
-0.0680336951 0.4584843871 -0.1614583266 -0.0000000208 -0.0032701457 -0.0161556764
-0.4057418581 0.5539684040 -0.2348831152 -0.0087956871 0.0014893437 -0.0314089987
-0.0969582668 0.6792990134 -0.3593749850 -0.0011405416 0.0024356457 -0.0360800610
0.3934091399 0.4747214073 0.0003599896 0.0095497809 -0.0014660312 -0.0293960300
0.4630707515 0.6373725464 -0.1083608184 0.0095578538 0.0016991041 -0.0297055404
0.4687500013 0.4597587413 0.0987406105 0.0049099685 -0.0022397707 -0.0172091347
-0.4583333351 0.6712360866 -0.0527972374 -0.0045937498 0.0090274580 -0.0245637594
-0.0512330604 0.3354583089 0.2899668108 0.0003321667 0.0101274579 -0.0239502698
-0.4479166688 0.2982998938 -0.1402879942 -0.0096573642 -0.0013173645 -0.0295741134
-0.1294320363 0.3561397247 -0.0895282046 -0.0000000208 0.0032940415 -0.0161595514
0.3528022770 0.3081946226 0.3489583188 -0.0056378331 0.0008394479 -0.0174096868
0.1875603359 0.3124999870 -0.0794498613 -0.0000000208 0.0104166662 -0.0260416656
-0.1312097029 0.3898504838 -0.1882744922 0.0001646458 0.0059689685 -0.0343569048
-0.4062500039 0.3137581432 -0.2418777087 -0.0073331039 -0.0055332185 -0.0304143425
-0.3114148829 0.4642217723 -0.0225986136 0.0079114893 0.0062003539 -0.0262268635
-0.2698273742 0.2239558761 0.1604171496 0.0062347497 0.0015431874 -0.0178776034
-0.2546847811 0.3333333194 0.2435332815 -0.0003675625 0.0103221662 -0.0257353843
0.2840828527 0.2963342897 -0.2429569274 0.0047766977 -0.0060740727 -0.0194817492
-0.3020833624 0.6289762759 -0.1646858994 0.0101092287 0.0009709166 -0.0250707490
0.3168459972 0.2813695924 -0.1613387224 -0.0000000208 0.0046713331 -0.0353511548
0.3265603822 0.6202591408 -0.1155993702 -0.0071615310 0.0034469999 -0.0194472388
0.2553318644 0.3210779137 -0.1822916591 0.0011095729 -0.0046036769 -0.0352490089
0.3776207447 0.4613968349 -0.2838375611 0.0072094268 0.0001903958 -0.0333821757
-0.1231696928 0.7604166350 -0.3370387776 -0.0029941874 0.0072913539 -0.0326771132
-0.1469295460 0.1770833260 0.0301101237 -0.0018043749 -0.0101581871 -0.0248387594
-0.3884072338 0.5000000208 0.0985476521 -0.0039556457 0.0091531246 -0.0274698009
0.4589320434 0.5866913193 0.1164336618 -0.0014701562 0.0040521040 -0.0166528847
0.4603271892 0.6526832749 0.0227583532 0.0015322916 0.0098729996 -0.0234036344
0.0498080500 0.4150350765 -0.1718749928 0.0001273854 -0.0002548125 -0.0156763535
-0.1518810770 0.3353366735 -0.3739794740 -0.0022091978 -0.0039461457 -0.0353819985
0.2804168946 0.1957989606 -0.0606939662 0.0038456978 -0.0095485934 -0.0251442281
0.4895832921 0.5039207707 0.0796779550 0.0095612600 -0.0011048750 -0.0240408740
0.0837526632 0.2780755822 0.3833827444 0.0001750104 0.0044154061 -0.0166220097
-0.2139237411 0.5329244361 -0.3593749850 -0.0025513541 0.0022714687 -0.0358053631
0.1328629007 0.7512768541 -0.2713271033 0.0009112604 0.0102093433 -0.0247353427
0.0822626320 0.6128709849 -0.3758561406 0.0021090207 0.0025343541 -0.0358839464
0.4429810440 0.3401374233 0.0812543404 0.0019502812 -0.0026978124 -0.0167431556
0.0211940512 0.5113576870 -0.3906249837 -0.0000000208 0.0000000000 -0.0364583318
0.2604166350 0.2120092828 0.1545603581 -0.0102294475 0.0001872396 -0.0252926969
0.3064108726 0.4626609286 0.0421337482 -0.0085476871 0.0057254060 -0.0252243219
-0.4978339272 0.4811329279 0.0738997990 -0.0079453330 -0.0026481353 -0.0200391450
0.1049452456 0.4062499831 -0.1463880043 -0.0000000208 0.0104166662 -0.0260416656
-0.3646946827 0.4999999792 0.1786010342 0.0014451562 0.0100553746 -0.0256803739
0.0726993407 0.1979166584 0.3185059867 -0.0000000208 -0.0104166662 -0.0260416656
0.4791666259 0.2632320203 -0.0017879583 0.0104166454 0.0000000000 -0.0260416656
0.1177642347 0.2693512179 -0.3474762147 0.0004146666 -0.0065169581 -0.0340992798
0.2733762907 0.5311228216 -0.3476868293 0.0035029790 0.0039230832 -0.0349277069
0.3312362466 0.2928819149 0.3581597663 0.0003159583 0.0051693644 -0.0171874055
0.2648882702 0.1897358046 0.0226058220 0.0022256249 -0.0101462287 -0.0257766448
-0.2708333429 0.3488192459 0.0530361436 0.0103476767 0.0008333854 -0.0260416656
-0.4182065347 0.6416824003 0.0004824271 0.0065374372 0.0069978851 -0.0223976137
-0.2901568317 0.3155676952 0.3250572990 -0.0000905729 0.0093623954 -0.0214902387
0.2478054897 0.3739553178 -0.0984360063 -0.0000000208 0.0035038332 -0.0162326452
0.2446955106 0.2239262928 0.3650982973 -0.0025081457 0.0100773225 -0.0260416656
0.0590261330 0.1770833260 0.1200586512 -0.0000000208 -0.0104166662 -0.0260416656
0.3665139743 0.4727618449 -0.0220297699 0.0043750207 0.0080330413 -0.0308890091
-0.3970646918 0.6694428679 -0.0684807576 0.0055383123 0.0066324997 -0.0205033325
-0.1709773679 0.7272088968 -0.2324172507 -0.0000000208 0.0073656976 -0.0186759680
0.2708333012 0.3427077774 -0.0417219983 -0.0104166871 0.0000000000 -0.0260416656
0.1301384321 0.4248328781 -0.1718749928 -0.0000000208 0.0000000000 -0.0156249993
0.3059714664 0.3229166532 0.2761848010 0.0022599374 0.0096924267 -0.0260416656
-0.4019916916 0.6364234006 -0.0234658740 0.0064850101 0.0046781873 -0.0200026658
0.2604166350 0.2591295309 0.1229986303 -0.0104166871 0.0000000000 -0.0260416656
0.2814239779 0.2394093129 -0.1760125760 0.0073656768 0.0073656976 -0.0260416656
-0.4224460136 0.4941152502 0.2715097387 -0.0031380415 0.0086173955 -0.0218986866
0.1503815042 0.3303524758 0.0200799679 -0.0000000208 0.0098698329 -0.0293717696
-0.4345312944 0.6053474539 0.0814234654 0.0079143747 0.0047618436 -0.0212650616
-0.0000000208 0.3267232051 0.0524194353 0.0062426456 0.0000000000 -0.0260416656
0.0309028529 0.1770833260 -0.0033404790 -0.0000000208 -0.0104166662 -0.0260416656
0.3288993925 0.2187499909 0.3127726953 0.0029110832 -0.0099386975 -0.0254693635
-0.2158630848 0.6398403796 -0.1822916591 -0.0000000208 0.0022257187 -0.0160536347
-0.4707601054 0.3129981849 0.0523324249 -0.0048535415 -0.0026001561 -0.0182918847
0.2322899799 0.1874999922 0.0332613424 -0.0000000208 -0.0104166662 -0.0260416656
-0.2393648963 0.2165320639 0.3697916513 -0.0000000208 -0.0024037395 -0.0166206660
0.3935326711 0.3171265389 -0.2598095621 0.0071694580 -0.0045283019 -0.0313384570
0.0793412363 0.4842147611 -0.1614583266 -0.0000000208 0.0000000000 -0.0156249993
-0.4327877424 0.2351416048 0.0171582493 0.0025554061 -0.0083186559 -0.0203543846
-0.1405925671 0.4116446391 -0.3828286924 -0.0029742499 0.0000000000 -0.0360207589
-0.4166666701 0.2437062190 0.0101615725 0.0097136871 -0.0032000832 -0.0242357177
0.2916666337 0.2910318629 -0.1542245665 -0.0085441246 0.0010987395 -0.0286827071
-0.1012301520 0.5087946871 -0.3816765778 -0.0025321249 0.0012144687 -0.0360432485
-0.4479166688 0.6594684204 -0.1330211924 -0.0100355933 0.0008113437 -0.0286063113
0.0552249144 0.3124999870 0.3538894123 0.0005620937 0.0098189579 -0.0226431866
-0.1554237331 0.3122393203 -0.1716143366 -0.0011917708 0.0076171038 -0.0191573325
-0.4104771600 0.6064280372 0.0322345299 0.0084632913 0.0040757394 -0.0216642803
-0.3686010471 0.3582245372 -0.0909229441 0.0096402183 -0.0024360728 -0.0230867595
-0.3872168901 0.7126237203 -0.1908723879 -0.0030904790 0.0096455621 -0.0244961969
0.0196689158 0.6718716387 -0.3697916513 -0.0000000208 0.0024699999 -0.0360575089
0.3958332960 0.4137784828 -0.0045836040 -0.0100674787 -0.0003432708 -0.0234741657
-0.0261701552 0.2083333247 0.3767461614 -0.0000000208 -0.0104166662 -0.0260416656
-0.1717928991 0.6537872332 -0.1822916591 -0.0000648333 0.0035313332 -0.0162534056
0.1467952231 0.1770833260 -0.0871239755 -0.0000000208 -0.0104166662 -0.0260416656
-0.5000000000 0.5657335702 0.0599673933 -0.0104166871 0.0000000000 -0.0260416656
-0.2891840609 0.2187499909 -0.2074316684 -0.0000000208 0.0104166662 -0.0260416656
0.3048820915 0.4464082939 -0.0687047055 -0.0064045726 0.0073307393 -0.0295354467
0.1533454311 0.6338441923 -0.1762971072 0.0006433125 0.0033852707 -0.0162178743
0.4374999609 0.4146819306 0.2444377606 0.0104166454 0.0000000000 -0.0260416656
0.1093260996 0.3513162041 -0.3802083175 0.0005390416 -0.0010781250 -0.0361656652
0.1142802140 0.2258764385 -0.3177083201 0.0010620625 -0.0052093227 -0.0349516131
-0.2102395017 0.3510616104 -0.2000199500 -0.0000000208 -0.0046584790 -0.0353586131
0.3562533914 0.3586076726 -0.1215937554 -0.0082863122 -0.0035377915 -0.0213024262
-0.2708333429 0.3467922876 -0.0688412888 0.0104166454 0.0000000000 -0.0260416656
-0.0179759993 0.3124999870 -0.1253073906 -0.0000000208 0.0104166662 -0.0260416656
0.1626941286 0.6990718563 -0.2042802311 0.0002965937 0.0059466039 -0.0175301972
0.0271965510 0.3351318715 -0.1822916591 -0.0000000208 0.0000000000 -0.0156249993
0.4895832921 0.3378879130 -0.0038670207 0.0101970412 -0.0012046666 -0.0267288322
-0.3008601125 0.3537349957 -0.1362441089 0.0002386458 0.0031407395 -0.0354638944
0.0725124657 0.4733578553 -0.3906249837 0.0000882708 0.0001765729 -0.0364498631
-0.2600817808 0.3333333194 0.2178690326 -0.0006438125 0.0103323017 -0.0260416656
0.4251928781 0.6762244406 -0.0385214776 -0.0061728852 0.0070133851 -0.0216462491
0.4065233060 0.4742717511 0.0897151733 0.0090441350 0.0046172290 -0.0283027072
-0.2759794677 0.1897532108 -0.0660947681 -0.0018979166 -0.0101164162 -0.0254498635
-0.0204688429 0.3124999661 -0.0954833606 -0.0000000208 0.0104166662 -0.0260416656
-0.4687500013 0.6599420454 -0.0771441426 -0.0099158642 0.0018250937 -0.0285904259
-0.0935326940 0.4905765212 -0.1614583266 -0.0000000208 0.0000000000 -0.0156249993
-0.3604385162 0.4559912102 -0.0619759141 -0.0005949166 0.0096156038 -0.0298333842
0.3204028096 0.2380835942 0.3593749850 -0.0000000208 0.0000000000 -0.0156249993
-0.3020833624 0.1114668287 0.1816403987 -0.0104166871 0.0000000000 -0.0260416656
0.3058961331 0.3042559873 -0.1532572332 0.0025140207 0.0029094061 -0.0355654569
-0.4191533784 0.6979166376 -0.1327760778 -0.0017564791 0.0099808538 -0.0236859365
0.4205725241 0.6693631492 -0.1926166274 0.0085949996 0.0013123854 -0.0315939674
-0.3863209110 0.4184751388 0.3271653926 0.0064487289 0.0044222186 -0.0192134784
0.1688897534 0.4062499831 -0.1439967232 -0.0000000208 0.0104166662 -0.0260416656
0.3528848082 0.2929484774 -0.1996925021 -0.0059688435 -0.0082031351 -0.0238515719
0.1830565236 0.3229166532 -0.0290571030 -0.0000000208 0.0104166662 -0.0260416656
-0.3091452371 0.2080305122 0.2094050746 -0.0029820415 -0.0097664788 -0.0240055927
-0.4592026059 0.5128015099 -0.1361744422 -0.0089929580 -0.0014638854 -0.0309497175
-0.1167713389 0.7363166464 -0.2415249691 -0.0000000208 0.0073656976 -0.0186759680
0.0770771114 0.1770833260 -0.0490729667 -0.0000000208 -0.0104166662 -0.0260416656
-0.0648620181 0.2424450211 -0.3309866841 -0.0004722812 -0.0059834789 -0.0344966652
-0.2672429993 0.5246012802 -0.3489583188 -0.0028940311 0.0011428437 -0.0359687798
-0.2812500091 0.3524997041 0.1158888910 0.0104166454 0.0000000000 -0.0260416656
0.2059908977 0.3363044964 -0.0885416630 -0.0000000208 0.0000000000 -0.0156249993
-0.4687500013 0.6085835059 -0.1003288917 -0.0098161454 0.0017893853 -0.0290159050
-0.1276372655 0.3902482858 -0.1142066515 -0.0000000208 0.0084118851 -0.0201274783
0.4117126078 0.4457860648 0.0890502671 0.0099515204 0.0000000000 -0.0291164155
-0.0562986018 0.2776100718 0.3869488901 -0.0011606562 0.0043467602 -0.0166729681
-0.3664285368 0.4780139697 0.2612041349 0.0080007392 0.0054756560 -0.0229800199
-0.0432468419 0.2990476959 -0.3697916513 0.0004513021 -0.0056485518 -0.0346784048
0.4895832921 0.3889470359 -0.0031608540 0.0104166454 0.0000000000 -0.0260416656
0.0905511525 0.2776424988 -0.3557674956 0.0000846250 -0.0070812393 -0.0336308007
-0.1644824723 0.1979166584 0.2875314984 -0.0000362187 -0.0104106454 -0.0259330614
0.4895832921 0.3665622347 -0.0082428226 0.0104166454 0.0000000000 -0.0260416656
0.3813899008 0.3229166532 -0.2766199989 0.0070139060 -0.0004387916 -0.0324464257
-0.0379717693 0.3691016305 -0.1822916591 -0.0000000208 0.0000000000 -0.0156249993
-0.2328943132 0.3333333194 0.0295765717 -0.0000000208 0.0100170829 -0.0283523738
-0.2708333429 0.3224642157 -0.0893563609 -0.0047347081 -0.0039199894 -0.0182016972
-0.4716065324 0.6302864321 -0.0775421218 -0.0099227183 0.0014175312 -0.0288767280
-0.0870835589 0.3124999870 -0.0760445385 -0.0000000208 0.0103632808 -0.0263706135
0.3413531004 0.2227598970 0.2907676962 0.0040933019 -0.0094487913 -0.0248094885
0.4581206267 0.2289539696 -0.0219959053 0.0060192706 -0.0077850101 -0.0272485718
-0.4330995861 0.4917001566 0.1881411797 -0.0079533018 0.0060371456 -0.0284654363
0.0243934573 0.3333333194 0.1308715050 -0.0001788021 0.0103996037 -0.0262387281
0.2510203020 0.6468208376 -0.3276148093 0.0032768957 0.0023149478 -0.0356357589
-0.0315452279 0.3333333194 0.0945279440 -0.0000000208 0.0104166662 -0.0260416656
-0.2057623143 0.4606503454 -0.1718749928 -0.0001921875 -0.0005765000 -0.0156978431
-0.4117647849 0.3335798090 0.3385416526 0.0002204375 0.0000000000 -0.0157612493
-0.1834108569 0.3229166532 -0.0374405714 0.0000703229 0.0103488433 -0.0263933635
-0.3651174015 0.5470518835 -0.0334085819 0.0086533851 0.0017368541 -0.0205384262
0.2308617925 0.1438587961 -0.3010053937 0.0011232083 -0.0027087916 -0.0160804577
0.1959151168 0.3919397024 -0.1158980368 -0.0000000208 0.0080950517 -0.0196878950
0.2806472800 0.2401860212 -0.2573039580 0.0084635517 0.0048578227 -0.0224359157
-0.1153180994 0.2819962383 0.3802083175 -0.0000121146 0.0045852290 -0.0167018639
-0.0509212062 0.7375007922 -0.2322924799 -0.0002720312 0.0077834163 -0.0193627179
0.3327965799 0.3809832133 -0.1455951502 -0.0067317497 -0.0044878123 -0.0197079783
-0.1264567031 0.2916666545 -0.1463806918 -0.0000000208 -0.0104166662 -0.0260416656
-0.3292400488 0.2104432516 0.2281653551 -0.0036822603 -0.0096807288 -0.0267171447
0.2634128015 0.7380645005 -0.2506933750 -0.0001923542 0.0100390204 -0.0237638740
-0.3432255274 0.2182255117 0.2483335626 -0.0054082498 -0.0088768121 -0.0260692697
-0.3364952464 0.3766513489 -0.3225564866 -0.0058017706 0.0017915624 -0.0344437069
0.1005014750 0.6677975347 -0.3640178702 0.0012614479 0.0027035207 -0.0359910506
-0.2953925189 0.1979166584 0.0201849054 -0.0020630624 -0.0100387600 -0.0248743948
-0.1639886598 0.2286393134 0.3741565782 -0.0010806354 -0.0070998122 -0.0185898846
-0.2570610101 0.5634674036 -0.3454277981 -0.0031942499 0.0001259479 -0.0358963527
-0.1185304742 0.3928627024 -0.3906249837 -0.0020311145 -0.0013134999 -0.0361042693
-0.3556214643 0.4366506901 0.2798004779 0.0090387288 0.0035175832 -0.0224289886
0.4062499622 0.3391490588 0.1580058684 0.0096714267 -0.0031656770 -0.0277967280
-0.0037775623 0.3333333194 0.1506004521 -0.0000000208 0.0104166662 -0.0260416656
0.2302396362 0.3135249661 0.3479333605 0.0007870000 0.0076224059 -0.0191116450
-0.2384586463 0.3985644834 -0.1795604613 -0.0000000208 0.0078773018 -0.0326975403
-0.3972290772 0.4372969297 0.0288331655 -0.0099927079 0.0000000000 -0.0289781863
0.3950969419 0.6789258050 -0.2228522199 0.0073708851 0.0025406041 -0.0327204049
-0.2317485945 0.4167019306 -0.3672096930 -0.0032002603 -0.0005729166 -0.0358959881
0.4166666285 0.3169892889 0.2412250941 0.0098640621 -0.0027252916 -0.0266455301
-0.3117307474 0.2075640434 -0.0902246212 -0.0072353330 -0.0073981039 -0.0262229052
0.4030770040 0.5881211942 0.0461578835 -0.0085909892 0.0045814269 -0.0227001657
0.4173958680 0.3444792252 0.2382466672 0.0095765413 -0.0038263332 -0.0260978010
-0.2811959050 0.3020833416 -0.2368805526 -0.0000312708 -0.0061612185 -0.0177013118
-0.0579688101 0.1770833260 0.0684927784 -0.0000000208 -0.0104166662 -0.0260416656
-0.2472475626 0.2937570503 -0.1412870670 -0.0034554269 0.0093975829 -0.0287065717
-0.0356196964 0.1979166584 -0.2885194671 -0.0000000208 -0.0093169475 -0.0307001446
0.1159036827 0.3333333194 0.0855697569 -0.0000000208 0.0104166662 -0.0260416656
0.3561912456 0.2983404667 -0.0665901222 0.0093243954 -0.0038490936 -0.0285948217
0.4270832947 0.4479971584 0.1663242952 0.0098370413 0.0007149062 -0.0291156759
0.1798478050 0.6271747864 -0.1740497740 0.0001144375 0.0041019477 -0.0164818222
-0.2147875952 0.3229166532 -0.0363427797 -0.0003573021 0.0097151246 -0.0292336967
-0.1562193164 0.6372035880 -0.1779767843 -0.0006638541 0.0033968019 -0.0162195618
0.2072008976 0.2943189461 -0.3516106103 0.0021156457 -0.0042313436 -0.0353077589
0.4895832504 0.4212970554 -0.0260033010 0.0104166454 0.0000000000 -0.0260416656
0.1166785889 0.5449870190 -0.1614583266 -0.0000000208 0.0000000000 -0.0156249993
-0.3651749327 0.2706007491 0.0170408118 -0.0084133330 -0.0055050727 -0.0287257280
-0.1214287033 0.3229166532 -0.0422613107 -0.0000000208 0.0098040308 -0.0286368426
0.4038574311 0.3153067056 0.1671080764 0.0099088329 -0.0027453332 -0.0276504468
-0.2354033131 0.3333333194 0.1013927458 -0.0000000208 0.0104166662 -0.0260416656
-0.0810062050 0.2924449357 0.3794300363 -0.0002116146 0.0050979060 -0.0169884993
-0.4227001699 0.3562476935 0.2214465429 -0.0096916558 -0.0033553749 -0.0278496655
-0.3902951921 0.3014236541 0.0978193813 -0.0097228954 -0.0032903853 -0.0277529780
0.2276448551 0.1905538566 -0.2404826775 0.0008630520 -0.0098287704 -0.0290998530
0.0958066523 0.2916666545 -0.1298681196 -0.0000303229 -0.0103795412 -0.0258901343
-0.0255636239 0.2916666545 -0.1580140559 -0.0000000208 -0.0096805725 -0.0291598113
-0.4096535871 0.6244145365 0.0224321553 0.0085865413 0.0041881457 -0.0219391137
0.1345189319 0.1859523360 -0.2416963233 0.0010888437 -0.0098421871 -0.0292186967
-0.4364846172 0.4885678859 -0.2016813874 -0.0090157600 -0.0034632290 -0.0293860404
0.3695824534 0.2548721873 0.0935408503 0.0094859684 -0.0039413019 -0.0276841968
-0.4895833338 0.4146583681 -0.0381882797 -0.0103394162 0.0000000000 -0.0265933947
-0.3925521816 0.5798052258 -0.2480728126 -0.0085572913 0.0019835624 -0.0316036237
-0.1613784620 0.1874999922 0.2288158655 -0.0000000208 -0.0104166662 -0.0260416656
-0.5000000000 0.4208573366 0.0131827390 -0.0091760100 -0.0045383748 -0.0255789469
-0.3958333377 0.5004177291 0.0391441234 0.0101006037 -0.0013698124 -0.0239514573
0.0597759663 0.3333333194 0.2935787169 0.0003332708 0.0100822079 -0.0239796969
0.2486898230 0.3300690696 -0.2031249915 0.0063072497 -0.0010880833 -0.0184242388
-0.0807306841 0.1770833260 -0.2212758345 -0.0000000208 -0.0104166662 -0.0260416656
-0.0368741235 0.3437499857 0.2258415948 -0.0000000208 0.0104166662 -0.0260416656
-0.2708333637 0.2673923639 0.1575229309 0.0104166454 0.0000000000 -0.0260416656
-0.3067702164 0.2015678770 0.1302083279 -0.0059726248 -0.0000553437 -0.0343226861
0.4666002201 0.6583997122 -0.0190181242 0.0054956456 0.0086674684 -0.0249250406
0.0339380507 0.5445402273 -0.1614583266 -0.0000000208 0.0000000000 -0.0156249993
-0.4270833364 0.3870259735 0.2032001374 -0.0103764787 -0.0005242291 -0.0265658947
-0.1327848591 0.1866227318 0.0899989963 -0.0018214895 -0.0100559996 -0.0244337802
-0.4791666675 0.3026521228 -0.0390132796 -0.0102748746 -0.0008178125 -0.0270935405
0.4162266285 0.3356418818 -0.2305409383 0.0083190309 -0.0015573229 -0.0319857799
-0.0774901739 0.1874999922 0.2770733114 -0.0000647500 -0.0103863225 -0.0258798323
-0.0498295708 0.3642275994 -0.2031249707 -0.0000000208 0.0043403227 -0.0353586131
-0.3347373923 0.6691322013 -0.2850542902 -0.0058749789 0.0029005520 -0.0341262590
-0.2978978626 0.2881781547 -0.2649280098 -0.0071570518 -0.0063109477 -0.0220401032
-0.3722914949 0.3583464851 -0.2891668317 -0.0069760518 -0.0011077812 -0.0335715924
-0.2987720501 0.3988525667 0.1220761303 0.0097714579 0.0026460728 -0.0237112386
-0.3333333403 0.3933491190 -0.1362292756 0.0075997080 -0.0037998644 -0.0201827179
0.3954162231 0.3463290377 -0.2660420618 0.0078968851 -0.0025573124 -0.0319133112
-0.3220789866 0.3209190283 -0.3165483931 -0.0060110727 -0.0051490519 -0.0326273841
-0.3004152271 0.2066652101 -0.1461147231 -0.0074580518 -0.0071954268 -0.0264787489
0.3541666311 0.2739682490 -0.0457131127 0.0100590829 -0.0013287499 -0.0269004676
0.4667117201 0.6431533274 0.0418182483 0.0018979374 0.0091220725 -0.0224754678
-0.4791666675 0.2777185093 0.0087621246 -0.0104162183 -0.0000011562 -0.0260393427
-0.0145276348 0.7551057810 -0.2707308012 -0.0000000208 0.0095578850 -0.0219433220
0.0697462054 0.2083333247 0.3742361302 -0.0000000208 -0.0104166662 -0.0260416656
0.3121741120 0.7017324499 -0.1968499918 -0.0063248227 0.0050528748 -0.0196378221
-0.3175400597 0.5520833103 -0.3177373826 0.0017002083 -0.0101407600 -0.0260416656
0.4084144101 0.6608869308 -0.2102748246 0.0078899684 0.0005652500 -0.0328011653
-0.2295718342 0.1935945857 0.2001702729 -0.0018615937 -0.0100699579 -0.0243998532
0.1043272665 0.7093355329 -0.3489583188 0.0014874687 0.0029612186 -0.0358609985
0.3749999635 0.3614797870 -0.0787967780 -0.0099787600 -0.0012918437 -0.0233537699
0.4521057624 0.2637301348 0.0485317376 0.0027677186 -0.0053091977 -0.0181766555
-0.1072685997 0.6730094511 -0.1958797106 -0.0002628125 0.0049559894 -0.0170418014
-0.3121108724 0.6045319748 -0.3175375284 -0.0055350727 0.0027664999 -0.0344161131
-0.2535913124 0.2581809476 -0.3222979970 -0.0035772082 -0.0046980727 -0.0345860715
0.2275580843 0.6903530442 -0.2031249915 -0.0003422500 0.0047144477 -0.0167943535
-0.1755228573 0.3437499857 0.2030329603 -0.0000000208 0.0104166662 -0.0260416656
-0.3601468808 0.6917728253 -0.2553719164 -0.0072853747 0.0028377603 -0.0328440507
0.4212765345 0.4820917195 -0.2205886366 0.0087927913 -0.0029704582 -0.0304662383
0.1662790868 0.5765981426 -0.3697916513 0.0019531353 0.0000000000 -0.0362625610
0.4791666259 0.5865357464 -0.0884037255 0.0096528538 -0.0008190416 -0.0294980300
0.4641636994 0.4212759199 0.0902242046 0.0057747393 -0.0020788437 -0.0177262805
0.2600849579 0.1874999922 -0.0842448819 0.0002610104 -0.0103988017 -0.0258398739
-0.2916666545 0.4192976804 -0.0958588502 0.0084719163 0.0045813019 -0.0299323008
-0.3958333377 0.2608129683 0.3254858510 -0.0097929579 -0.0035163749 -0.0260178114
-0.1111405162 0.1770833260 -0.0415750816 -0.0000000208 -0.0104166662 -0.0260416656
0.3639332869 0.4993499688 0.2063085539 -0.0065084268 0.0079275518 -0.0244388531
-0.4107408579 0.3295114863 -0.2302186362 -0.0088726871 -0.0015696666 -0.0309652383
0.0202551867 0.1979166584 0.3169880180 0.0000800104 -0.0103279996 -0.0256514156
-0.2500000104 0.2637950828 -0.3035540499 -0.0102019892 0.0001676979 -0.0264441551
-0.2905305712 0.3738638803 0.1312816612 0.0078524372 0.0064712185 -0.0255812489
0.4065086497 0.4125055661 -0.2476607293 0.0082423955 -0.0007725104 -0.0323244882
0.4895833338 0.5529327165 -0.0281999988 0.0095666559 0.0006300000 -0.0295883425
-0.4270833364 0.3435826107 -0.2059413664 -0.0092751246 -0.0014707187 -0.0303890925
0.4623936057 0.3074707268 0.0572916643 0.0058475623 -0.0024548853 -0.0178984368
0.2863597589 0.3597246621 -0.3489582980 0.0032709999 -0.0011621562 -0.0358547173
0.3541666311 0.4148666702 -0.1169994951 0.0068399997 0.0030231978 -0.0313418112
0.3729902136 0.2384615005 0.2049008769 0.0082132601 -0.0062675935 -0.0251221031
0.0940884440 0.1770833260 -0.2141401473 -0.0000000208 -0.0104166662 -0.0260416656
0.0964138293 0.4091125975 -0.3906249837 -0.0000000208 0.0000000000 -0.0364583318
0.3094838725 0.2916666545 -0.3003194979 -0.0000000208 -0.0104166662 -0.0260416656
0.3366358297 0.2151929285 0.2102324704 0.0038881144 -0.0093603121 -0.0244829261
0.4787669176 0.5612989037 0.1097746829 0.0073267914 -0.0000528750 -0.0186447492
-0.2896223942 0.2083333247 -0.2232646053 -0.0000000208 -0.0104166662 -0.0260416656
-0.4181628680 0.5451817273 0.1004545271 0.0084077288 0.0011313229 -0.0204201971
-0.0652495494 0.3244367156 -0.0885416630 -0.0000000208 -0.0039786769 -0.0165642389
0.4078971184 0.5607917891 -0.2310806779 0.0087690413 0.0017066249 -0.0313942487
0.4782887717 0.4565528872 -0.0816611424 0.0100558225 -0.0006582187 -0.0283989051
-0.1299410675 0.7478071563 -0.2530154895 0.0001516146 0.0090351767 -0.0211278741
-0.0195103221 0.6071211205 -0.1718749928 -0.0000000208 0.0031976353 -0.0163527806
0.1516391291 0.1900519817 0.2599139892 0.0014198958 -0.0099371246 -0.0232781032
-0.2872770714 0.4226937532 -0.0619518412 0.0082150101 0.0061323122 -0.0270420197
0.3020832999 0.6090694434 -0.1594642746 -0.0096071454 0.0008103020 -0.0236774573
-0.3553659227 0.6616999412 -0.1115003495 0.0055807289 0.0049558748 -0.0187813534
0.0984150167 0.3777676613 -0.0989583292 -0.0000000208 0.0043758644 -0.0168281451
-0.2135992932 0.1874999922 0.1443211815 -0.0004591354 -0.0103784996 -0.0253853427
-0.3803138800 0.5314611341 -0.0015854583 0.0099134371 0.0009715104 -0.0230755407
0.3154239660 0.4329313257 0.1699167846 -0.0092466559 0.0043784165 -0.0244513844
-0.3777982447 0.7110641475 -0.2315767299 -0.0065290726 -0.0020836770 -0.0333783944
0.3238308511 0.2779579051 0.3697916513 0.0019331458 0.0042941873 -0.0171084264
-0.4580636059 0.4445969086 -0.1532410249 -0.0099010413 0.0007472291 -0.0291308842
-0.4043833477 0.3210499970 0.1356126610 -0.0094532496 -0.0037232290 -0.0279908530
-0.0336116548 0.5674939347 -0.3842358382 -0.0025849999 0.0028985624 -0.0352500610
0.3645832973 0.2903797483 -0.0190662700 0.0098058121 -0.0028785415 -0.0276826447
0.4386696380 0.4308817216 0.1008575270 -0.0016737291 -0.0027998957 -0.0161753431
0.4515853354 0.6616119620 0.0049009685 0.0018624687 0.0093112704 -0.0224977178
-0.3075598518 0.3015876854 -0.2507230729 -0.0013934166 -0.0088544267 -0.0209542908
0.0841068715 0.3333543819 0.2864372381 0.0001993229 0.0098759683 -0.0227496761
-0.4574033455 0.6200778179 -0.1265737343 -0.0091190100 0.0022397603 -0.0305173321
0.1796826279 0.3112250287 -0.1002332979 0.0006992187 0.0095706142 -0.0300832071
0.3373588401 0.4411265650 -0.3170778201 0.0061990310 0.0018363749 -0.0341994465
0.3191729867 0.4573826164 0.1445050981 -0.0088024684 0.0050636248 -0.0239165719
0.2771273530 0.1767118676 0.1719678574 -0.0018414374 0.0009119270 -0.0161054785
-0.2577894580 0.3005125604 -0.3411688816 -0.0037794061 -0.0037793853 -0.0349211548
0.2688363430 0.5621756849 -0.3395401525 0.0046584581 0.0000000000 -0.0353586131
-0.0132101244 0.3930861399 -0.3906249837 -0.0000000208 0.0000000000 -0.0364583318
-0.0637006015 0.5325085091 -0.3900247233 -0.0021183020 0.0008535520 -0.0362040818
-0.3854166714 0.3384389338 0.0148070931 -0.0099691246 -0.0005178541 -0.0287388634
-0.2394806671 0.7424877191 -0.2888136234 -0.0028446249 0.0094606767 -0.0290113321
0.2082370642 0.5210280200 -0.1614583266 -0.0000000208 0.0000000000 -0.0156249993
0.3438720794 0.4529228457 -0.0910637254 -0.0094314475 -0.0017549999 -0.0220612282
0.3996946396 0.3109983620 0.0218461345 -0.0098003433 -0.0020453332 -0.0231868428
-0.0174054784 0.3333333194 0.0599780704 0.0007705833 0.0103253121 -0.0266614364
-0.1520376707 0.1770833260 -0.1156203077 -0.0000000208 -0.0104166662 -0.0260416656
-0.2806317279 0.1972983980 -0.1903433775 -0.0063162393 -0.0082758955 -0.0260416656
-0.3799583175 0.3956384523 -0.0473750189 0.0099559475 -0.0002975625 -0.0230167074
0.3854166298 0.3221354137 0.0651627265 0.0099139475 -0.0027251249 -0.0274365614
0.3896098588 0.4999999792 0.2483825938 -0.0012502291 0.0099512392 -0.0247914573
-0.1733180032 0.1850127319 0.0205306241 -0.0018751874 -0.0101925412 -0.0259990406
0.0794464029 0.7604166350 -0.3330322361 -0.0000000208 0.0104166662 -0.0260416656
-0.1291632863 0.3379183505 -0.1868766797 -0.0008285416 0.0044536456 -0.0167201139
-0.3467309960 0.5437731128 -0.3043107061 -0.0062324685 0.0000000000 -0.0343364048
-0.1155468702 0.7547265415 -0.3182295805 -0.0025648436 0.0100944683 -0.0260416656
0.4062499622 0.5761093406 0.0675678618 -0.0094058850 0.0020663124 -0.0222184678
0.3907957546 0.3440414127 0.0418374670 0.0095350204 -0.0036252186 -0.0278277384
0.4581878559 0.3281803405 0.0677083305 0.0050342498 -0.0023046145 -0.0172731034
0.3421568503 0.6750612010 -0.1297793279 -0.0063090206 0.0055579998 -0.0200041137
0.4999999167 0.5191833013 0.0901059858 0.0093281975 -0.0003960312 -0.0242427386
0.4092995767 0.4227659095 0.0869738714 0.0101399683 -0.0018616353 -0.0272659364
0.2695677388 0.3333333194 0.0980934647 -0.0000000208 0.0104166662 -0.0260416656
-0.0701247158 0.1874999922 0.1876568672 -0.0000000208 -0.0104166662 -0.0260416656
-0.1466044835 0.2916666545 -0.1533678686 -0.0000000208 -0.0101710829 -0.0270819780
0.3854166298 0.5251414990 0.0258782593 -0.0097743329 0.0001441146 -0.0227634261
0.2039544915 0.1874999922 0.1245263802 -0.0000000208 -0.0104166662 -0.0260416656
-0.1320004528 0.1979166584 0.3178208097 -0.0000000208 -0.0104166662 -0.0260416656
0.3941140982 0.3377981005 0.3489583188 0.0025291457 0.0006657187 -0.0161056868
-0.0855754235 0.6166166201 -0.1718749928 -0.0000000208 0.0003215000 -0.0156771764
-0.2071610851 0.4117518058 -0.1767898676 0.0008561979 -0.0039322394 -0.0164595826
0.4370659610 0.3172065076 -0.1827256695 0.0090102184 -0.0028784061 -0.0301131029
0.3448497460 0.4194617846 -0.3166085389 0.0059409789 -0.0007317812 -0.0343939777
0.3494847250 0.6394605359 -0.0981129022 -0.0082531247 0.0035671249 -0.0208527387
-0.2543657498 0.3208177991 -0.1832182736 -0.0019137291 -0.0050107706 -0.0348798527
-0.3960067439 0.5022608228 -0.2652781348 -0.0070099060 -0.0002488437 -0.0334192486
0.2226695532 0.3020833207 -0.1165715160 0.0000561146 0.0101791037 -0.0278492072
0.1217660678 0.3075019768 -0.1496350354 0.0029473020 0.0090835621 -0.0219452803
0.2916666337 0.4222022532 0.0503459771 -0.0098259475 0.0029080936 -0.0249336552
0.4791666259 0.3134444869 -0.0515445395 0.0099434163 -0.0011283125 -0.0285635613
-0.2407595421 0.3856481923 -0.1096065683 -0.0000653646 0.0092703121 -0.0213246345
0.2491202813 0.0000000000 -0.3826309320 0.0013800104 -0.0095637600 -0.0260416656
-0.3488677355 0.5218798533 -0.0625906120 0.0083818017 -0.0006167291 -0.0203784471
0.4071854726 0.4999999792 0.2408048650 -0.0000000208 0.0104166662 -0.0260416656
0.4314343987 0.3368386318 -0.1948457106 0.0093653121 -0.0002947396 -0.0305439987
-0.2509823750 0.1514055145 -0.3449611106 -0.0020949478 0.0031415415 -0.0353364152
0.1058698393 0.3651734848 -0.2025348249 -0.0000000208 0.0046584790 -0.0353586131
0.3645832973 0.3813858279 -0.0891581734 0.0104166454 0.0000000000 -0.0260416656
0.2543303436 0.6328780778 -0.1822916591 0.0006370312 0.0015758229 -0.0158665931
-0.0717749762 0.7603810308 -0.2760059677 -0.0010055000 0.0092166454 -0.0214307804
-0.3021792999 0.1980126167 0.0411838525 -0.0032882394 -0.0098395204 -0.0268290405
0.1696237013 0.1874999922 0.2436417607 0.0014023437 -0.0100358121 -0.0236768428
-0.1648321181 0.2904682587 0.3802083175 -0.0008665520 0.0042420519 -0.0166422389
-0.0647452056 0.3649461931 -0.0939314336 -0.0000000208 0.0032940415 -0.0161595514
-0.3545176206 0.5608254454 -0.2862828422 -0.0064217914 0.0010572395 -0.0340978215
0.0724789032 0.5596857996 -0.3802083175 0.0017563541 0.0025974478 -0.0357001027
-0.4163444827 0.4976524272 -0.2346971881 -0.0076885413 -0.0001967083 -0.0329795090
0.2442820523 0.3053748310 -0.0909681004 0.0025646041 0.0091352184 -0.0300226967
0.1740898365 0.7127825120 -0.2179908659 -0.0000000208 0.0073656976 -0.0186759680
-0.0786920384 0.1770833260 -0.1502419000 -0.0000000208 -0.0104166662 -0.0260416656
0.3484725167 0.3664634118 -0.3120457162 0.0074045101 0.0023442291 -0.0329422695
0.2624425203 0.2843530507 -0.3365157256 0.0038169165 -0.0038169373 -0.0348293840
-0.2798958113 0.2245036886 0.3697916513 -0.0012734166 0.0000000000 -0.0157510931
0.1395804525 0.6687026492 -0.1927083253 -0.0005914791 0.0041295727 -0.0165192076
-0.2908268108 0.7395833025 -0.2576133538 -0.0014816770 0.0100732392 -0.0250538948
0.1720028470 0.3572654226 -0.3728904220 0.0015289270 -0.0023089062 -0.0360387172
0.4791666259 0.2702689471 0.0244027698 0.0104166454 0.0000000000 -0.0260416656
-0.4039559415 0.6227059116 0.0012152083 0.0078998122 0.0062867810 -0.0247706031
-0.2814683633 0.3960516710 0.0401587483 0.0100375829 0.0020800416 -0.0248769052
-0.1098554538 0.2611993433 0.3906249837 -0.0015355104 0.0002560104 -0.0158174160
0.3519603083 0.7271411885 -0.2563114893 0.0055338956 0.0007354479 -0.0345264048
0.0595406017 0.3124999870 -0.1613431704 -0.0000000208 0.0093291038 -0.0214346866
0.2428635836 0.3541274332 -0.0885416630 -0.0000000208 0.0032816353 -0.0161575410
0.4317116383 0.2379593130 -0.0852936423 0.0021196666 -0.0093760517 -0.0290353009
0.1504211916 0.2184814701 0.3697916513 0.0009656770 0.0027390936 -0.0161801556
-0.3780973801 0.2959262793 -0.2397968650 -0.0034373644 -0.0086824371 -0.0306341133
-0.3023219145 0.4559841373 0.0310442383 0.0097332288 0.0034750936 -0.0266003843
0.1902213983 0.4064703581 -0.3736392865 0.0025263957 0.0000000000 -0.0361473110
0.1184803909 0.3265895072 -0.3802083175 0.0010862291 -0.0036711248 -0.0355574673
-0.1854548569 0.3158059139 -0.0956524023 -0.0000000208 -0.0065065101 -0.0180566972
-0.4392109713 0.4567605435 0.2984477584 -0.0009080625 0.0071616143 -0.0188800513
-0.0441137482 0.4011363791 -0.1718749928 -0.0001911042 -0.0024508020 -0.0160377181
-0.0681720492 0.3869990776 -0.1109574016 -0.0000000208 0.0090205309 -0.0209719366
-0.3854166714 0.3080023830 0.0617591328 -0.0096800100 -0.0030509478 -0.0280756342
-0.1628577640 0.3230918928 0.0055588227 -0.0000000208 0.0098628954 -0.0293919675
0.2418966983 0.1926582003 -0.2926904982 0.0082618538 -0.0015541249 -0.0204434366
0.3225812366 0.4248254927 -0.3284603613 0.0059731768 0.0000624792 -0.0345444256
0.3144264244 0.3124999870 0.3095728413 0.0038672915 0.0093562079 -0.0242663636
0.3893632129 0.2631406870 0.3085142267 0.0074896247 -0.0065558018 -0.0285403738
-0.2892640921 0.0912668712 0.1822916591 0.0004623541 0.0008344791 -0.0157525410
0.1019716208 0.6391379213 -0.3697916513 0.0007839166 0.0007839375 -0.0363730818
-0.3280266947 0.4826543132 -0.3230149657 -0.0058663435 -0.0003259167 -0.0346361652
0.1557118373 0.3944515252 -0.1184099117 -0.0000000208 0.0076245309 -0.0190350825
0.1204584429 0.6688402221 -0.3593749850 0.0010281979 0.0013941874 -0.0362062277
0.0109679266 0.2083333247 0.3710969116 -0.0000000208 -0.0104166662 -0.0260416656
0.3124999661 0.2364569381 -0.1623922432 0.0088099684 -0.0025001874 -0.0255024677
0.1956612210 0.7144343556 -0.2175824597 -0.0008382500 0.0064093956 -0.0181027388
-0.0394842067 0.1770833260 0.0665392368 -0.0000000208 -0.0104166662 -0.0260416656
0.4791666259 0.3811410154 -0.0535872686 0.0098826767 -0.0010881562 -0.0289321030
-0.2123566162 0.0203673012 -0.3738148803 0.0074166559 -0.0001902604 -0.0332680819
-0.3739678490 0.6745639406 -0.2458238127 -0.0073166039 0.0030171249 -0.0327170820
0.2166140951 0.1500050562 -0.3520807874 -0.0060417081 0.0032635415 -0.0335705924
-0.0706058408 0.7231717615 -0.3489583188 -0.0005105000 0.0028365207 -0.0359462173
-0.2216964908 0.5113624162 -0.3631100890 -0.0025308749 0.0006708958 -0.0360903631
-0.1758541593 0.6275508176 -0.1744258052 -0.0001605000 0.0042582186 -0.0165623222
0.2013859812 0.1769953051 -0.3090746642 -0.0064498435 -0.0034521978 -0.0186827076
-0.0839459028 0.2013223874 -0.2996681854 -0.0022647187 -0.0086063955 -0.0312011758
0.1291838800 0.6295259529 -0.3676996826 0.0013448958 0.0016477083 -0.0361158527
0.0201634054 0.3312333716 0.0350282902 -0.0027718749 0.0094572809 -0.0293037696
-0.0113327183 0.6576425351 -0.3697916513 -0.0000000208 0.0002201771 -0.0364226026
-0.1055477039 0.3316379237 0.3298203404 -0.0003895937 0.0095436767 -0.0221804053
-0.0850344756 0.2719982595 0.3894600671 -0.0001347500 0.0044370311 -0.0166286972
0.3229166324 0.3539499332 0.2802022800 -0.0091307705 0.0033547394 -0.0224558324
0.4166666285 0.4801520321 0.1246410261 0.0103852600 0.0000000000 -0.0263586760
-0.3229166740 0.2181413034 -0.0495585188 -0.0087169059 -0.0048885206 -0.0286379155
-0.3187683513 0.2010508250 0.1084927246 -0.0035457811 -0.0096596142 -0.0266530093
-0.1431354003 0.3468069855 -0.1957653252 -0.0000000208 -0.0046584790 -0.0353586131
0.2943456648 0.3561284435 0.1980663876 -0.0097122600 0.0022579582 -0.0231978740
0.3273843197 0.4425944295 -0.0834472153 -0.0039398853 0.0082961455 -0.0304113321
-0.1507278479 0.2835518007 -0.3593749850 -0.0002557812 -0.0063890206 -0.0341738840
-0.0000000208 0.7167203139 -0.2169340118 -0.0104166871 0.0000000000 -0.0260416656
0.2781475822 0.0000000000 0.1742352219 -0.0000000208 -0.0104166662 -0.0260416656
0.2082595330 0.5581213413 -0.1614583266 0.0013436666 0.0019536562 -0.0161380202
-0.3176807680 0.4739307407 0.0012915520 0.0076043330 0.0071079789 -0.0260416656
-0.1243957032 0.6735458053 -0.3593749850 -0.0003871042 0.0004357812 -0.0363723318
-0.4501931271 0.4680795847 -0.1718450658 -0.0095914267 -0.0006640937 -0.0299557904
-0.3014047479 0.4135706286 -0.1548163269 0.0067930101 -0.0036540415 -0.0191253742
-0.0748923510 0.7244467406 -0.2215983970 -0.0008108020 0.0057929685 -0.0174654889
0.3105257787 0.3228714761 -0.3290894655 0.0055665102 -0.0040553540 -0.0337690819
0.3541666311 0.2616743745 -0.0266689156 0.0102619683 -0.0005682500 -0.0265158947
-0.4062500039 0.5124446349 0.0753933719 0.0098176246 -0.0004781562 -0.0226216241
0.0576161538 0.1770833260 0.0313539154 -0.0000000208 -0.0104166662 -0.0260416656
-0.3159856848 0.3264023301 0.2783687176 0.0089920100 0.0043634165 -0.0231327178
-0.2812500091 0.3247442261 -0.2138271057 0.0060380102 -0.0065703956 -0.0209987491
-0.2185211055 0.1515298374 -0.3449300377 0.0016838124 0.0025015207 -0.0359406027
0.4374999609 0.4307738779 0.2141004077 0.0097291871 -0.0003654271 -0.0291651967
-0.1688107950 0.3333333194 0.0322006132 -0.0000000208 0.0101981767 -0.0273880718
-0.4062500039 0.2852922381 0.2909251337 -0.0096926767 -0.0037167498 -0.0255959573
-0.4077821184 0.6947065648 -0.1103074642 0.0003994479 0.0097227808 -0.0231572074
-0.2981592480 0.4539581790 0.0012842395 0.0086488121 0.0056026768 -0.0258575302
0.1487086501 0.3437499857 0.1451264210 -0.0000000208 0.0104166662 -0.0260416656
-0.2779735822 0.2635584578 0.3698365158 -0.0017563541 -0.0001132812 -0.0157981556
-0.4705435429 0.2722478845 0.0274562176 -0.0000000208 -0.0059937081 -0.0175512180
0.0088718121 0.3137707161 -0.0976876001 -0.0000000208 -0.0070354372 -0.0184379367
-0.0708006116 0.3028563103 -0.1726480032 -0.0000000208 -0.0073656976 -0.0334073632
0.3541666311 0.5065197706 -0.0500997375 -0.0091371663 0.0003546979 -0.0213550929
0.3232889865 0.3020833207 -0.2358395943 -0.0003610208 -0.0103230621 -0.0258239885
0.2395833025 0.1082353497 -0.3189725596 0.0104166454 0.0000000000 -0.0260416656
0.0896621733 0.5243497490 -0.3871085880 0.0020007603 0.0015630520 -0.0360743631
-0.4895833338 0.3812994008 0.0383541963 -0.0104166871 0.0000000000 -0.0260416656
0.4461186689 0.5044295936 -0.1650542327 0.0087525309 -0.0009433750 -0.0313528737
-0.2959636543 0.3229166532 0.2704526658 -0.0000000208 0.0104166662 -0.0260416656
-0.4264182322 0.6555848998 -0.0129352911 0.0047449998 0.0082420413 -0.0223084262
0.0924427878 0.2477851980 0.3884101921 0.0000600312 -0.0046156561 -0.0167102701
0.3541666311 0.2404403546 0.0524945811 0.0082239997 -0.0061894685 -0.0272234051
0.4403415129 0.6225498282 -0.1586167851 0.0088157809 0.0019625728 -0.0312199779
-0.0006675312 0.2599574371 -0.3484991001 -0.0000000208 -0.0047778227 -0.0352725923
0.2012700541 0.3264482676 0.3187289138 0.0020488124 0.0096515308 -0.0228462282
0.3543843498 0.2225247511 0.2102391058 0.0065277289 -0.0077745830 -0.0238257594
0.3048192165 0.3908885150 0.1896060858 -0.0097826871 0.0033275936 -0.0250140406
0.3158428306 0.5003012187 -0.1164488076 -0.0074118018 -0.0002145417 -0.0187500826
-0.2526444895 0.4023612124 -0.1263195572 -0.0000000208 0.0085885101 -0.0203725304
0.1357730568 0.5125175516 -0.3802083175 0.0006420833 0.0003441042 -0.0363930714
-0.4583333351 0.4869358339 -0.1475109626 -0.0098683017 0.0002775312 -0.0293310925
-0.2812500091 0.3335670903 -0.1626943682 -0.0102595517 -0.0002697292 -0.0265811135
-0.3462397356 0.4999999792 0.0505413312 0.0032690103 0.0096478642 -0.0269030822
-0.0802004446 0.5393899046 -0.1614583266 -0.0000000208 0.0000000000 -0.0156249993
-0.2910970504 0.1994018042 0.2066649081 -0.0020078124 -0.0101263954 -0.0251067906
0.1880790130 0.3333333194 0.1047898915 -0.0000000208 0.0101174058 -0.0278857697
0.1180214013 0.1874999922 0.1388147650 0.0008594479 -0.0103373329 -0.0258995093
0.4226513678 0.2465204689 -0.1112798599 0.0054806039 -0.0074746039 -0.0304107696
-0.2772984780 0.1959409085 0.0274560301 -0.0025118228 -0.0101000412 -0.0264354468
-0.2933121961 0.3882482338 -0.3473127980 -0.0040816873 -0.0006736250 -0.0355281339
0.4687499596 0.4653404389 -0.1258534739 0.0098439788 -0.0009100520 -0.0289710300
-0.2627097286 0.1946480961 0.1062020268 -0.0021898020 -0.0101740725 -0.0264614885
-0.3020833416 0.3487965896 0.2236754803 0.0102152496 0.0009712291 -0.0249927385
-0.4895833338 0.5821126007 -0.0550912060 -0.0099847079 0.0011926250 -0.0285615196
0.3013679249 0.7145762931 -0.2920243420 0.0053828019 0.0010060000 -0.0347580819
-0.3924347961 0.2817872695 -0.2140789390 -0.0013307916 -0.0091796455 -0.0299904050
0.3940347440 0.3441578398 -0.0088054788 -0.0099892600 -0.0006339583 -0.0231725720
0.1721041282 0.6593708371 -0.1854125235 -0.0001098333 0.0035019374 -0.0162726868
0.4895832921 0.4087146705 0.0235699157 0.0104166454 0.0000000000 -0.0260416656
0.1197101304 0.6788550759 -0.1988025438 -0.0009291041 0.0039466248 -0.0165111139
0.0711246012 0.5304190925 -0.3871435985 0.0022596041 0.0017111145 -0.0360011027
-0.4098989204 0.6770152010 -0.0571554664 0.0038757707 0.0088170100 -0.0221706137
-0.0078764268 0.3507524229 -0.1997107938 0.0014151249 -0.0044658644 -0.0349733944
0.3285532051 0.5087487496 -0.3137396432 0.0059141039 0.0024412499 -0.0342467173
-0.3645833390 0.4977380209 -0.0477335709 0.0096660725 -0.0010162708 -0.0223156553
0.4999999167 0.5962857147 0.0834090486 0.0104166454 0.0000000000 -0.0260416656
0.4507410541 0.6114816829 -0.1469436501 0.0091731871 0.0021031978 -0.0302954467
0.0660578618 0.6333948069 -0.3742319636 0.0017072187 0.0023837082 -0.0360063943
0.1496670771 0.1979166584 0.2777511968 0.0009498229 -0.0098981767 -0.0235973636
0.3950211190 0.2692089784 0.2851874881 0.0085835517 -0.0058656143 -0.0259039052
-0.4143170973 0.3340692361 0.1761206697 -0.0091898225 -0.0046769581 -0.0274031864
-0.2037592207 0.4494820229 -0.3712960366 -0.0017810624 0.0011941979 -0.0361898422
0.1444808690 0.1770833260 -0.1173111722 -0.0000000208 -0.0104166662 -0.0260416656
-0.3389940692 0.3041433936 -0.2129058765 0.0056341873 -0.0083500309 -0.0237433428
0.2719677595 0.1886344505 -0.1275470989 0.0034304165 -0.0097895204 -0.0262083635
-0.2658147910 0.1954073981 0.1364730985 -0.0017212812 -0.0102484267 -0.0255279573
-0.3856874735 0.5325776861 -0.2653541452 -0.0073657184 0.0000000000 -0.0334073632
-0.2812500091 0.3915205983 -0.0666719556 0.0099291663 0.0023403228 -0.0270246239
0.3124999661 0.0023230207 0.1654722639 0.0104166454 0.0000000000 -0.0260416656
-0.3700795262 0.6047423394 -0.0447210919 0.0086784996 0.0024455207 -0.0208824366
0.2603122704 0.2083333247 -0.2579049997 0.0010564166 -0.0091111975 -0.0306074466
0.4338815653 0.4999999792 0.2402366254 -0.0000000208 0.0099989892 -0.0234678324
0.2931935295 0.3358736735 -0.3385416526 0.0038036040 -0.0019018124 -0.0355507381
0.0978759438 0.1770833260 0.0070781664 -0.0000000208 -0.0104166662 -0.0260416656
0.0233128115 0.3229166532 -0.0281454051 -0.0000951042 0.0102267183 -0.0269034780
-0.0494738417 0.1770833260 0.1235282969 -0.0000000208 -0.0104166662 -0.0260416656
0.4180112326 0.3915771087 -0.2316857508 0.0087766351 0.0011794270 -0.0315109883
0.2229001782 0.5691526846 -0.1681110138 0.0016120728 0.0022474166 -0.0161378639
-0.0665580389 0.3333333194 0.0289948009 0.0009486979 0.0099104163 -0.0285715821
0.4157350452 0.3677369951 -0.2321288341 0.0092531767 -0.0015787916 -0.0304618216
-0.4872813234 0.3871014318 -0.0511704145 -0.0096176142 -0.0015348437 -0.0296323217
-0.3012871854 0.3706478908 -0.3393378088 -0.0061770518 -0.0011982708 -0.0342004465
-0.2812500091 0.3697911721 0.0880571005 0.0100839579 0.0012636458 -0.0247780198
0.0034343332 0.3954917856 -0.1194501200 -0.0000218437 0.0073860309 -0.0186992701
0.4270832947 0.3724340470 0.2107034079 0.0101429475 -0.0012499687 -0.0267685406
-0.3676982763 0.4390385755 -0.2937600503 -0.0067059372 0.0005420000 -0.0339622903
0.4062499622 0.4409817629 0.0520127062 -0.0103430204 -0.0000216979 -0.0254642802
0.4542133769 0.4734880324 -0.1488648584 0.0092047809 0.0011390729 -0.0304454466
0.2187499909 0.1733322115 -0.3493598188 -0.0099343538 0.0004500521 -0.0270333947
