0.3273910199 0.9230768166 0.0522408401 -0.0029864612 0.0187641709 0.0845943556
0.1285697736 0.7860259862 -0.2265703585 -0.0000000192 -0.0046641533 0.1051950263
0.4703146188 1.3401392300 -0.1057692186 -0.0000000192 -0.0026897689 0.1051342571
0.4999999231 1.1189602555 0.3760021489 0.0165511519 -0.0027465189 0.0903784896
-0.1516948863 0.8567596319 0.2731309877 0.0040318265 0.0186984786 0.0852122402
0.3935235123 0.7680086614 -0.2794571024 -0.0000000192 0.0086002682 0.0693379343
-0.3665038808 0.8653845155 0.3803367061 -0.0000000192 0.0192307670 0.0865384516
-0.0359372651 1.1453445217 -0.3611338237 0.0003634807 0.0055477494 0.1049016033
0.4717082917 0.3576226895 -0.4352795459 -0.0000326731 0.0060600185 0.0682879729
0.4999999231 1.0436350334 -0.1419295413 0.0192307478 0.0000000000 0.0865384516
0.2641785849 1.3000762538 -0.3730959762 -0.0000000192 0.0047033264 0.1051847956
-0.0729082608 0.8382151533 -0.0699402612 0.0022762113 0.0189779978 0.0855126055
-0.2262993200 0.8693329382 0.2326629732 0.0060698070 0.0182094594 0.0853599902
0.2871901976 0.8937084930 -0.1645058464 -0.0069668838 0.0173504980 0.0826341635
0.2775393526 0.8562796320 0.3749999567 -0.0000000192 0.0000000000 0.0673076845
-0.1371581380 0.8205918284 -0.1197511208 -0.0000000192 -0.0191949401 0.0876918553
0.4423076220 1.1965025542 -0.1451350025 -0.0192307862 0.0000000000 0.0865384516
-0.2669502192 0.9230768166 0.3777629564 0.0011644229 0.0191480170 0.0865384516
-0.0095450374 0.8414642298 0.3459369793 -0.0000000192 -0.0191721132 0.0880296629
0.4368140265 1.2980273310 -0.1689550959 -0.0156245751 -0.0003241346 0.0971214119
0.1248604471 0.8653845155 -0.2104298603 -0.0004437884 0.0191939209 0.0860946824
0.0799082985 0.8282943660 0.1022926036 0.0005266730 -0.0191220939 0.0877996245
0.0192307478 0.7900527550 0.2517808748 0.0192307478 0.0000000000 0.0865384516
0.0550398590 0.8536380361 0.2644528349 -0.0045678456 0.0186423632 0.0853826440
0.3988546655 0.9096876643 0.3319194040 0.0108883449 -0.0152857098 0.0879668168
-0.4999999615 1.2961067735 -0.1289031967 0.0192307478 0.0000000000 0.0865384516
-0.4978243079 1.1478438868 0.3247182510 -0.0132545562 -0.0061700185 0.0789298178
-0.4698680419 1.4327267770 -0.2788461217 -0.0039390380 0.0130456139 0.0995840654
-0.0634848196 0.8115427141 -0.2076111684 -0.0000000192 -0.0192000362 0.0876125284
0.4807691561 1.1775478257 -0.2427729528 -0.0190928632 -0.0014758268 0.0868582592
-0.3958311466 1.1041686995 -0.2620637967 0.0116884217 -0.0106888449 0.0972272965
-0.1930047854 0.9038460496 0.1164114289 0.0007153653 0.0191711709 0.0860221632
0.2833200442 0.9230768166 0.4067979915 -0.0006806922 0.0186948632 0.0895864704
-0.3137010600 0.8455735563 0.3749999567 -0.0000000192 0.0000000000 0.0673076845
-0.0338684384 0.8439655757 0.1685260767 0.0011715576 0.0190269401 0.0850273940
0.2883893706 0.8623186697 0.1577005203 0.0060628455 -0.0182059979 0.0877612399
-0.4999999615 1.3843052057 -0.1269973123 0.0192307478 0.0000000000 0.0865384516
0.4741900222 1.3013562345 0.1989209578 -0.0000000192 0.0184615363 0.0919230663
-0.3164494443 0.9230768166 0.0937913738 0.0019442113 0.0189871901 0.0861352593
-0.4999999615 1.1159164866 0.1779209602 -0.0192307862 0.0000000000 0.0865384516
-0.1313407156 0.8555473628 0.2507053557 -0.0000000192 0.0191952286 0.0853721825
-0.4796360023 1.2744288722 0.0052469417 0.0005944807 -0.0067839608 0.0875719514
0.4615383891 0.7315366271 -0.2928617162 -0.0192307862 0.0000000000 0.0865384516
0.3828399751 1.1684271921 -0.2980768887 -0.0121690947 0.0039534995 0.1002664884
0.4730268300 1.1025172959 0.4091191836 -0.0070276338 0.0009878460 0.0953725851
-0.4999999615 1.1150815829 -0.1461048293 -0.0176053057 0.0006507884 0.0852012402
0.2323272617 0.8309643657 -0.2040805918 0.0005475961 -0.0191556132 0.0874054130
0.2735839107 0.8419495952 0.4181484710 -0.0001450961 0.0037772303 0.1053937571
0.1122448332 0.8653845155 -0.1720667878 -0.0039792495 0.0181395748 0.0834867404
0.2794319485 1.2625874697 -0.3535225169 -0.0106501911 0.0031959612 0.1019523152
-0.4999999615 1.3017468113 0.0713982418 -0.0190768824 -0.0015676921 0.0870654707
0.2963603504 1.3018888306 -0.3543183630 -0.0047903071 0.0045747687 0.1041168341
0.2977840041 0.8655486886 -0.0367843034 -0.0049910379 0.0185164209 0.0852985479
0.4423076220 1.1782313256 -0.1221100244 -0.0192307862 0.0000000000 0.0865384516
-0.0562136858 0.7686357382 -0.2743111414 -0.0046596148 0.0096398835 0.0705817419
-0.3506395365 0.8770254950 0.1928338047 -0.0054238648 -0.0182644017 0.0880226822
-0.4615384275 0.8451127679 -0.2370725111 0.0192307478 0.0000000000 0.0865384516
0.0443932641 1.2818850059 -0.4005579153 -0.0000000192 0.0070441146 0.1044189880
-0.2447432987 0.8377066149 -0.0793489139 -0.0024224613 -0.0189585170 0.0876131630
0.4423076220 1.0404304569 -0.0677490691 -0.0192307862 0.0000000000 0.0865384516
0.2859847170 0.9289557774 0.3340191538 -0.0079297299 0.0173809018 0.0855696247
0.4887746936 0.6924034201 -0.3236859819 -0.0000000192 0.0060487108 0.0682837229
0.4505650442 0.9948930967 -0.2211538206 0.0082538452 0.0032267689 0.0758001066
0.2407812991 0.8647264771 -0.2410426260 -0.0000000192 0.0135982100 0.0729402416
0.4999999231 1.0803927215 0.1663954423 -0.0192307862 0.0000000000 0.0865384516
-0.1121272755 0.8255463086 -0.0184710363 -0.0058318070 -0.0182829594 0.0876043745
0.4999999231 0.3595808431 0.4163382789 0.0192307478 0.0000000000 0.0865384516
0.4999999231 0.8293150197 0.4109247987 0.0192307478 0.0000000000 0.0865384516
-0.1620430775 1.4807690599 -0.4843144633 -0.0000000192 0.0192307670 0.0865384516
0.0773675295 1.2963386004 -0.4744857145 -0.0030646920 0.0036902303 0.1048773341
0.4999999231 1.3448946910 -0.1386441571 -0.0192307862 0.0000000000 0.0865384516
-0.4069617800 0.8701694573 -0.2395842800 -0.0126393447 -0.0142791330 0.0870399707
-0.4615384275 0.5793391832 -0.2934474661 0.0192307478 0.0000000000 0.0865384516
0.0692296651 0.8546839206 0.2347312806 -0.0030118073 0.0188552478 0.0854661632
-0.3128630408 0.9090167990 0.4256488547 0.0048608648 0.0159068059 0.0950959890
0.4615383891 0.0814316829 0.4655760809 -0.0192307862 0.0000000000 0.0865384516
0.4270773353 0.7628004312 -0.2820612559 -0.0000000192 0.0086002682 0.0693379343
0.3831225712 0.8999816846 0.3631340158 0.0061911147 -0.0181390941 0.0879788745
0.1931675354 0.7365288189 -0.2951970813 -0.0000000192 0.0086002682 0.0693379343
-0.3460669024 1.4572262165 -0.3942307237 0.0124160370 0.0000000000 0.1009698537
-0.0721070878 1.3309826349 -0.4810845791 0.0048702110 0.0039834803 0.1045934495
0.4792631178 1.1960542466 -0.3054324263 0.0134499792 -0.0028315766 0.0730884531
-0.4999999615 0.3489233828 -0.3938766853 -0.0192307862 0.0000000000 0.0865384516
0.2413446645 0.9168713365 0.1516646363 -0.0042061918 0.0186419209 0.0850546440
-0.2149786483 1.4060274147 -0.4134614908 0.0039903842 0.0045532687 0.1046999495
0.4455194101 0.8593228239 0.3749999567 -0.0000000192 0.0000000000 0.0673076845
-0.2250074548 1.4615382929 -0.4343354307 -0.0000000192 0.0041185764 0.0865384516
-0.0580239933 0.8936622815 0.1317734271 -0.0000000192 0.0191353247 0.0846249133
-0.0046494995 1.4329233731 -0.4472309484 -0.0000000192 0.0079856722 0.1039935457
-0.0458805524 1.3022870228 -0.4107589334 -0.0000000192 0.0066231531 0.1045803725
-0.4615383891 1.1707725572 -0.0112256141 -0.0192271516 0.0000665769 0.0864817400
-0.3128467524 0.9230768166 0.1244555818 0.0037380573 0.0185556325 0.0854716248
-0.1420204067 0.8846152825 -0.0651102233 0.0008181345 0.0191708824 0.0859716439
0.1983471502 0.8324631732 -0.0478251291 0.0060652878 -0.0181959210 0.0878984514
0.3447159410 0.8483959021 -0.2373660688 0.0024014805 -0.0189068824 0.0876023553
0.2899318127 1.3771026103 -0.4706385418 0.0044490572 -0.0035729034 0.0682749344
0.0221720359 1.4067332800 -0.4341358922 -0.0000000192 0.0062704031 0.1047040264
0.3752614567 0.9230768166 0.1727399993 0.0038301726 0.0184536709 0.0858517786
-0.0192307862 0.7807409484 -0.1344749076 -0.0192307862 0.0000000000 0.0865384516
0.1466548485 0.7307691464 -0.2610751045 -0.0000000192 -0.0192307670 0.0865384516
0.3306094042 0.9423075836 0.3406608645 -0.0000000192 0.0192307670 0.0865384516
-0.3562161897 0.9230768166 0.1455608678 -0.0051993456 0.0181981133 0.0853169517
0.3437976334 1.3501291904 -0.4456576793 0.0091215182 -0.0036522111 0.0701085881
0.2424398759 0.8517707479 0.1808384599 0.0035716534 -0.0188290363 0.0878713360
-0.4423076605 1.0202355361 0.1505975403 0.0192307478 0.0000000000 0.0865384516
0.0592161086 0.8461537485 0.4282335467 -0.0000000192 0.0192307670 0.0865384516
-0.4423076220 1.1282724467 -0.0545884745 0.0192307478 0.0000000000 0.0865384516
0.4999999231 0.6336676577 0.4223562974 0.0192307478 0.0000000000 0.0865384516
-0.2051521686 0.8261482316 -0.2096368027 -0.0060689224 -0.0182067287 0.0877502976
0.4664141962 0.2874070630 0.4221256628 -0.0000000192 -0.0021162305 0.0674244922
0.1285303506 1.0769227988 -0.4054319917 -0.0000000192 -0.0192307670 0.0865384516
0.3953341082 1.3867805131 -0.4070219146 -0.0093652297 0.0035677304 0.1028044497
-0.4615384275 0.3450058448 -0.3827973020 0.0192307478 0.0000000000 0.0865384516
-0.4699595612 0.8374111918 0.4420164682 -0.0010391345 0.0024373843 0.1054799109
0.4423076220 1.0781360294 0.3738347069 -0.0192307862 0.0000000000 0.0865384516
0.3156125597 0.8514052671 0.4162573750 -0.0001181346 0.0037748649 0.1053943532
-0.2261109547 0.7939499084 -0.2664865077 -0.0000000192 0.0086002682 0.0693379343
-0.4999999615 0.4224424320 -0.3411932299 -0.0192307862 0.0000000000 0.0865384516
-0.4423076605 1.2960030428 0.1831415366 0.0192307478 0.0000000000 0.0865384516
0.0110764603 0.8298695389 0.1314351002 -0.0000000192 -0.0191826324 0.0878740668
-0.2850072363 1.4034868188 -0.4756641182 -0.0040902303 -0.0035968457 0.0681225498
0.0589463778 0.8384913456 -0.0648325887 -0.0038820380 0.0187875940 0.0854891632
-0.3997478962 0.8819678790 -0.0114367294 -0.0087731336 -0.0168674404 0.0876926822
-0.3846153595 1.3010250999 -0.3170392711 0.0136575369 0.0043443841 0.0992659885
-0.4999999615 0.4497635827 -0.3933763008 -0.0192307862 0.0000000000 0.0865384516
-0.3211320206 0.9230768166 0.0418132259 0.0007180576 0.0191295747 0.0854070286
0.2607053930 0.8861313401 -0.1396825031 -0.0050469417 0.0179990748 0.0836384519
0.3227529051 0.8650540348 0.0708084918 0.0010317691 -0.0190846709 0.0878123168
0.4738742338 0.4836102904 -0.3932836854 -0.0000672115 0.0060487301 0.0682847614
-0.4999999615 0.4455549101 0.4883339052 -0.0095854412 0.0017517690 0.1001800461
-0.4999999231 0.9958098082 -0.1280246198 -0.0192307862 0.0000000000 0.0865384516
0.2942850430 0.8566121896 -0.1475207907 -0.0047400379 0.0185868440 0.0853344517
0.3945908968 1.2588517201 -0.3821793597 -0.0105115180 0.0032500765 0.1023056997
-0.2201154746 1.2064213416 -0.4573586011 -0.0007435191 -0.0037981919 0.0678081845
0.2843967556 1.4160148751 -0.3942307237 -0.0032719035 0.0037252303 0.1047502571
0.4615383506 1.0529613016 -0.1281299275 0.0192259016 0.0001086731 0.0862569900
-0.4660297155 0.7528588747 0.3704087842 -0.0000000192 -0.0020989421 0.0674225884
0.3290174043 1.3015977344 -0.3521512478 -0.0128896908 0.0029610958 0.1003107769
-0.4615384275 0.0219806128 -0.4836427134 0.0192307478 0.0000000000 0.0865384516
0.4999999615 0.3690921690 -0.3382883071 0.0192307478 0.0000000000 0.0865384516
-0.4382904879 0.9569736973 0.0865726631 0.0146248829 0.0121264601 0.0858455093
-0.1805208253 0.8461595370 0.1955842467 -0.0023489420 -0.0187812286 0.0881281052
-0.0899280473 1.1153844867 -0.3716408994 0.0043349610 -0.0130722870 0.0996107385
-0.1932794392 0.8339549999 0.3749999375 -0.0000000192 0.0000000000 0.0673076845
-0.3040053880 1.0807496830 -0.3942307237 -0.0109911910 0.0000000000 0.0718603763
0.1617697121 1.2265625123 -0.4603971584 -0.0069107684 0.0038661726 0.1040148918
-0.3423340951 0.7429141835 -0.2373482995 -0.0000000192 -0.0046641533 0.1051950263
0.4694982343 1.2108831487 -0.0684664344 -0.0100225758 -0.0059099416 0.0905734319
-0.4615384275 1.3339195192 -0.0942854699 0.0187131517 -0.0021281151 0.0871672207
-0.4615384275 0.7107142641 0.4256589124 0.0192307478 0.0000000000 0.0865384516
-0.4615384275 0.8432644027 0.4068588761 0.0192307478 0.0000000000 0.0865384516
0.4999999231 1.2141908599 -0.1081314875 0.0192307478 0.0000000000 0.0865384516
0.4615383891 0.1833647096 0.5039987303 -0.0192307862 0.0000000000 0.0865384516
0.1825947866 1.1229835050 -0.3557691897 -0.0000000192 0.0000000000 0.1057692186
-0.4436106411 0.7307691464 -0.2632437965 -0.0000000192 -0.0192307670 0.0865384516
-0.4423076605 1.3004462923 -0.0472170138 0.0192307478 0.0000000000 0.0865384516
0.0546051668 0.9038460496 0.2019082652 -0.0000000192 0.0191544016 0.0850073363
0.4615383891 0.0846532979 0.5102646719 -0.0192307862 0.0000000000 0.0865384516
-0.0197290746 0.8397254031 0.1162295443 -0.0000000192 0.0191678632 0.0849842979
-0.4559201589 1.0789154717 -0.3041146380 -0.0132259985 -0.0028526151 0.0728806070
-0.0296569581 1.4743848683 -0.4711537918 -0.0000000192 0.0000000000 0.0865384516
-0.4763553297 0.8398820185 -0.1783725948 -0.0000000192 -0.0060223262 0.1048018918
0.4875379630 0.8691789574 0.4378984110 0.0050032302 0.0023087305 0.1045595264
-0.3516133248 0.8653845155 0.4059462032 -0.0000000192 0.0192307670 0.0865384516
0.4230768550 1.1348789075 -0.2325775885 -0.0158848443 0.0000000000 0.0946162583
-0.1909048434 0.7810591791 -0.2278120891 -0.0000000192 -0.0046641533 0.1051950263
-0.4999999615 1.2280161275 -0.2477302599 -0.0192307862 0.0000000000 0.0865384516
-0.3491849982 0.8908764549 0.3726313416 -0.0062132877 -0.0179498825 0.0882240860
0.4423076220 1.2214314360 0.0801620677 -0.0192307862 0.0000000000 0.0865384516
0.4807691561 1.0864048170 -0.2786644871 0.0192307478 0.0000000000 0.0865384516
0.0186993825 0.7690397190 0.3719442071 -0.0000000192 -0.0191933247 0.0877380283
-0.0001637692 0.8472687484 0.2092642451 -0.0000000192 0.0191678632 0.0849842979
0.4423076220 1.1797222870 0.3540346322 -0.0192307862 0.0000000000 0.0865384516
-0.0651736271 0.7307691464 -0.2491037789 -0.0000000192 -0.0192307670 0.0865384516
0.4999999231 1.2904280050 0.1005552576 -0.0192307862 0.0000000000 0.0865384516
-0.0815555483 1.2857027747 -0.3978343964 0.0060516147 0.0066204608 0.1033322381
-0.4423076605 1.1188285632 0.1818943444 0.0192307478 0.0000000000 0.0865384516
-0.4999999615 1.1235376588 0.1417746567 0.0192307478 0.0000000000 0.0865384516
-0.4615384275 0.4917829048 0.4674451768 0.0192307478 0.0000000000 0.0865384516
-0.4999999615 0.0618533775 -0.5144099214 -0.0192307862 0.0000000000 0.0865384516
-0.1158140251 0.8653845155 -0.2189694170 0.0000604808 0.0192274209 0.0864779516
0.2659373347 1.4481746791 -0.4938860776 0.0063818262 -0.0034031727 0.0688836459
0.4999999231 1.1184592748 0.0198861323 -0.0192307862 0.0000000000 0.0865384516
0.3653670925 0.9230472589 0.4324746039 -0.0060663647 0.0181990364 0.0851906248
0.1718371725 1.1927179201 -0.4422714105 -0.0073543068 0.0036143073 0.1039132765
0.4999999231 0.0683422998 0.5091569797 0.0192307478 0.0000000000 0.0865384516
0.4830014827 1.1497490404 0.4043581841 0.0013141729 0.0010673845 0.0960661428
-0.3701320534 0.8802682830 0.0880951629 -0.0088188644 -0.0167451135 0.0874924899
0.2635388734 0.9230768166 0.3779658795 -0.0014987306 0.0190914786 0.0865384516
0.4704852534 1.1640271542 -0.2779530833 -0.0104534603 0.0026953266 0.1016182383
0.4999999231 1.1201932746 0.0780184141 0.0192307478 0.0000000000 0.0865384516
0.1503638865 1.4366657381 -0.5012147114 -0.0000000192 0.0041172688 0.1053223532
0.1715778648 0.8076922145 -0.2536318554 -0.0000000192 0.0192307670 0.0865384516
-0.4615384275 1.2632434504 -0.0312334002 -0.0192287286 0.0000346731 0.0865359323
-0.1226659282 0.8422261528 0.0042628649 -0.0000000192 0.0191989209 0.0854352017
0.4615383506 1.1885690744 0.3370152880 0.0192253439 0.0000515577 0.0869062977
0.4372139303 0.9042979534 -0.1930691123 0.0161433635 -0.0103899988 0.0871242207
-0.3793818793 1.1409604068 -0.3738101684 -0.0079696145 -0.0033970765 0.0695531074
0.0230337281 0.8859192439 0.0930585662 -0.0000000192 0.0191353247 0.0846249133
-0.4615384275 0.8113513102 -0.2435150873 0.0192307478 0.0000000000 0.0865384516
0.4615383891 0.5470505523 -0.3253072894 -0.0192307862 0.0000000000 0.0865384516
-0.3856839170 0.7916081394 0.3749999375 -0.0000000192 0.0000000000 0.0673076845
-0.0426599182 0.7676745076 -0.2311582233 -0.0000000192 -0.0046641533 0.1051950263
-0.4999999615 1.2419304529 -0.0169694019 -0.0192307862 0.0000000000 0.0865384516
0.4723095609 0.5118115179 -0.3838832826 -0.0001032500 0.0060419608 0.0682830498
0.3593164778 0.8069141569 -0.2213483398 -0.0000000192 -0.0046641533 0.1051950263
0.1839669788 0.7782982179 -0.2285023198 -0.0000000192 -0.0046641533 0.1051950456
0.0055272109 0.8305271349 0.0027838074 -0.0000000192 0.0191678632 0.0849842979
0.0955459697 0.8415962875 0.3483799790 0.0040253072 -0.0186802671 0.0879792591
0.2536085477 0.9167484519 0.4134614908 -0.0000000192 0.0035698650 0.1040971803
0.4767033104 1.1374421572 -0.1826923058 -0.0008123268 -0.0044903456 0.1051193340
0.4615383891 0.3049210994 -0.4013483575 -0.0192307862 0.0000000000 0.0865384516
-0.2564428743 0.8742562453 0.3837900903 -0.0042916149 -0.0186752478 0.0880928937
0.4434452181 1.0769229527 -0.2274183584 -0.0000000192 -0.0192307670 0.0865384516
0.3035087919 0.9055834917 -0.0628548966 -0.0036538073 0.0186841709 0.0845144326
0.4423076220 1.0610001853 0.1877834206 -0.0192307862 0.0000000000 0.0865384516
-0.3782748987 0.8658803616 -0.2536649323 0.0089823451 0.0154656521 0.0852496440
-0.0192307862 0.7481659329 -0.0713260302 -0.0192307862 0.0000000000 0.0865384516
0.4762144835 1.0757014336 0.3350139806 -0.0065398839 -0.0014440960 0.0788217409
-0.2885432552 0.8718696494 0.1953867659 0.0039610765 0.0187859978 0.0854767594
-0.4767487527 1.1718359802 0.4015973383 0.0038263073 0.0010243076 0.0958348928
-0.1418929836 0.8406806145 -0.0243312280 0.0017420767 0.0189821517 0.0853732401
0.4245062587 1.4052753379 -0.2950578121 -0.0153138059 0.0086954028 0.0936333353
-0.0065429031 0.8653845155 -0.1984670733 -0.0000000192 0.0192307670 0.0865384516
-0.1055277378 0.8526553055 0.1972024580 -0.0000000192 0.0192027286 0.0855004709
-0.2723888340 0.7831895442 -0.2272794930 -0.0000000192 -0.0046641533 0.1051950263
0.4999999231 0.2505966057 -0.4561802358 0.0192307478 0.0000000000 0.0865384516
0.4999999231 1.0708616264 0.3810327830 0.0192307478 0.0000000000 0.0865384516
-0.4598549662 0.8653845155 0.3836638211 -0.0000000192 0.0192307670 0.0865384516
-0.3428990758 0.8663046693 0.0939457969 -0.0039284803 -0.0187423825 0.0878765668
-0.0330711308 0.8359770958 0.0700007419 0.0017192883 0.0189610555 0.0850475286
-0.4807691945 1.1517185979 -0.2613188737 0.0186472863 0.0000586731 0.0888483167
-0.4615384275 0.5421186298 0.4048952225 0.0192307478 0.0000000000 0.0865384516
-0.1434907334 0.8400754031 0.1205462169 -0.0000000192 -0.0191831516 0.0878661629
0.3344033460 0.9038459726 -0.1238961972 -0.0000000192 0.0191626516 0.0855798747
-0.3446152872 0.8846152825 -0.2368021458 -0.0000000192 0.0150521713 0.0761881643
-0.0036721150 0.7529552016 0.1145919675 -0.0000000192 -0.0191933247 0.0877380283
-0.4863758477 0.9696372535 -0.1351208690 -0.0000000192 -0.0060032493 0.1048081802
-0.4615384275 0.0822164136 -0.4896622897 0.0192307478 0.0000000000 0.0865384516
-0.4990622886 1.2802710830 -0.2841324095 -0.0134500177 -0.0028315766 0.0730884531
0.2457484524 0.8689811113 0.1434600604 -0.0013426922 0.0189854593 0.0855122017
-0.3886081282 0.9149552598 0.2146344368 0.0142691330 0.0119468063 0.0857658170
0.3296596927 1.1630822889 -0.3919325509 -0.0052703071 0.0032202496 0.1046936225
-0.4615384275 1.2000709000 0.1458455793 -0.0192267286 0.0000547692 0.0866775862
-0.1997402654 0.8629450927 0.3875628976 -0.0040995765 -0.0184912094 0.0882177206
0.4615383891 0.2711499495 -0.4411638529 -0.0192307862 0.0000000000 0.0865384516
0.0350852075 1.4882074244 -0.5288460928 -0.0005327115 -0.0021307882 0.0807024907
0.4423076220 1.1553228282 -0.3487590559 0.0173020365 -0.0014451152 0.0793128947
-0.4474432753 1.2962617158 -0.3391178839 0.0134149023 0.0031047304 0.0999533731
0.3462198831 1.1732750762 -0.3015149267 -0.0138367869 0.0047554802 0.0986618540
0.2890241205 0.9236394896 0.3008487537 -0.0085124990 0.0171755942 0.0852575094
0.2564031050 0.9166904327 0.1187443901 -0.0051663263 0.0184247094 0.0847419902
0.3595487277 1.3722495917 -0.4206703553 -0.0100564027 0.0034755765 0.1024585459
0.4999999231 1.0904417973 -0.0284302083 0.0192307478 0.0000000000 0.0865384516
-0.4999999615 0.4145809137 0.4338897384 -0.0192307862 0.0000000000 0.0865384516
-0.0178059210 0.8625942082 0.3982782233 -0.0000000192 0.0191678632 0.0849842979
-0.0435394373 1.3208456745 -0.4983845002 0.0002575192 -0.0035157304 0.0676367230
-0.4999999615 1.2203546092 0.1360267151 0.0192307478 0.0000000000 0.0865384516
-0.4615384275 1.2090778413 -0.1296769850 -0.0192284401 0.0000545000 0.0863837208
0.4615383891 1.0153578636 0.1928862662 0.0192246132 0.0000990769 0.0865662785
-0.0575787818 0.8492512097 0.1363262535 0.0042906149 0.0187089786 0.0854515094
0.4423076220 1.1091976412 0.0562713204 -0.0192307862 0.0000000000 0.0865384516
0.2775158718 1.3561750551 -0.3788355332 -0.0108794411 0.0037402496 0.1015001998
0.0192307478 0.7532930285 -0.2023387651 0.0192307478 0.0000000000 0.0865384516
0.4423076220 1.0447814948 -0.0270161315 -0.0192307862 0.0000000000 0.0865384516
0.4999999231 0.5916563933 -0.3091595028 0.0192307478 0.0000000000 0.0865384516
0.4652985040 0.3170903673 0.4188275286 -0.0000000192 -0.0021145959 0.0674242999
-0.3889610320 0.9213905091 0.4326922578 -0.0035950380 -0.0046582302 0.1002104884
-0.4128398177 1.3847933402 -0.2892612743 0.0146970368 0.0049148840 0.0975049887
0.1147503714 0.9038460496 0.1948756698 -0.0000000192 0.0191474209 0.0848673748
-0.4898626935 0.9856266170 -0.2259449355 0.0001031538 0.0060190378 0.0682754344
-0.4999999615 0.1047594687 -0.5165739596 -0.0192307862 0.0000000000 0.0865384516
0.1408436953 0.8826353020 -0.1643074233 -0.0017579421 0.0186798055 0.0824451251
0.4999999615 1.0780837218 0.2771242373 0.0192307478 0.0000000000 0.0865384516
0.4961625581 1.1508484057 0.3242175203 0.0118290371 -0.0061336147 0.0792020678
-0.4230768935 0.9115057410 -0.2471924330 0.0192307478 0.0000000000 0.0865384516
-0.4615384275 1.1855709401 -0.0975455464 -0.0192278824 0.0000623269 0.0863995093
0.4759979258 1.2006725922 -0.1572416934 0.0060060762 0.0047888264 0.0717332033
-0.0295696504 1.2581336625 -0.3886822052 0.0025800382 0.0058972301 0.1043919303
0.4999999231 1.2419247221 0.1609303468 0.0192307478 0.0000000000 0.0865384516
-0.3962404927 0.9271815853 0.2973263118 0.0112829602 0.0147527098 0.0855378363
0.3505128826 1.3812596099 -0.4467250254 0.0099805373 -0.0035675957 0.0705021457
0.0148679598 1.3897814935 -0.5071823646 -0.0000000192 0.0040581918 0.1053341994
-0.2657537963 0.8828577251 0.4324569886 -0.0045667879 -0.0186081709 0.0881612591
0.4047618379 1.1115185064 -0.2403845876 -0.0024088266 -0.0012044037 0.1040234495
-0.4615384275 0.9929764431 0.3968985119 -0.0186824594 -0.0018563075 0.0873138938
-0.4408312184 0.9188983940 -0.0612703968 -0.0161585751 -0.0103630373 0.0872577592
-0.4625001774 0.3941467622 -0.3269509815 -0.0000000192 -0.0059412493 0.1048282956
0.4230768550 1.3444424987 -0.2323846463 -0.0191433439 0.0005274999 0.0875934514
-0.1473491176 1.2240511088 -0.4677227730 -0.0054687109 -0.0041873649 0.0685970305
-0.2330636654 1.4494346981 -0.5036468650 -0.0014718075 -0.0036039034 0.0679631845
-0.4389092763 1.2083278221 -0.3628194004 -0.0121996140 -0.0026155959 0.0734605108
-0.3093211951 0.8468254215 -0.2664204500 -0.0054528455 -0.0183199979 0.0875347591
0.4423076220 1.0923308740 -0.1065054108 -0.0192307862 0.0000000000 0.0865384516
0.4363271612 1.1480267714 -0.1944919968 -0.0124683447 -0.0035406150 0.1007009307
-0.4036056265 1.2542728937 -0.2788461217 0.0091371913 0.0018333652 0.1008934691
0.4423076220 1.1504810211 0.0528999747 -0.0192307862 0.0000000000 0.0865384516
0.1141257753 0.8363397112 0.0899980473 0.0059767878 -0.0182348056 0.0877006053
-0.4999999615 1.1353783305 0.0978287964 0.0192307478 0.0000000000 0.0865384516
-0.2548077975 0.9164251635 0.1253951778 0.0051971532 0.0184171325 0.0847522402
-0.4474733138 1.0597348008 -0.2022901497 -0.0020211921 0.0050017879 0.0700236458
0.0192307478 0.7608704122 0.2216318206 0.0192307478 0.0000000000 0.0865384516
-0.4799948869 0.2313658387 0.5205778438 0.0004776538 0.0023514997 0.1047142956
-0.2690835074 1.0769230296 -0.3728402070 -0.0000000192 -0.0192307670 0.0865384516
-0.4615384275 1.2552271629 -0.0934810469 -0.0192289593 0.0000381154 0.0864612593
0.4999998846 1.4134321831 -0.2361982420 0.0192307478 0.0000000000 0.0865384516
0.4868053284 1.1083465260 -0.2601946815 0.0134499792 -0.0028315766 0.0730884531
0.4999999231 1.1438396949 0.0380798995 0.0192307478 0.0000000000 0.0865384516
-0.2295528774 0.8626591312 0.0490056097 0.0060715955 0.0182148248 0.0854575286
-0.4706119072 1.0961537197 -0.1868156515 -0.0000000192 -0.0135982100 0.1001366615
-0.0085373836 0.8423077297 0.1480787329 -0.0000000192 0.0191678632 0.0849842979
-0.0371773996 1.4367721034 -0.5183706325 0.0016668075 0.0042453072 0.1051325456
-0.0192307862 0.7927185047 -0.0525835901 -0.0192307862 0.0000000000 0.0865384516
-0.5000000000 0.9499167365 0.4215630667 -0.0192307862 0.0000000000 0.0865384516
-0.1678682114 0.8555958628 0.3119651948 -0.0000000192 -0.0191580939 0.0881835475
-0.0851456440 1.2104674949 -0.4773600795 -0.0013246345 -0.0036818265 0.0677735499
-0.4423076605 0.9088135105 -0.2113800910 -0.0161720943 -0.0099970373 0.0870759130
0.4615383506 1.0240564588 -0.2069800338 0.0192258824 0.0001195384 0.0861469708
-0.2780296795 0.7692306805 0.3949801660 -0.0000000192 -0.0192307670 0.0865384516
0.4999999231 1.0069921530 0.3931488585 0.0192307478 0.0000000000 0.0865384516
0.3859496670 1.3390270955 -0.3286147890 -0.0117541525 0.0040848457 0.0999491039
-0.4615384275 0.9357334690 0.3910810895 0.0192307478 0.0000000000 0.0865384516
-0.4607446007 1.1062443339 -0.2858128132 0.0135421138 0.0016388267 0.1000805846
-0.4900420973 1.2954942159 0.2190190901 0.0010748653 0.0183896517 0.0919021048
0.4714686956 0.2690269497 0.5156958443 -0.0030875381 0.0023190767 0.1044705649
-0.1611982891 0.7747796029 -0.2293819735 -0.0000000192 -0.0046641533 0.1051950456
-0.2486499136 1.3437998834 -0.4783536563 -0.0079014991 -0.0034626342 0.0693778381
0.0354788421 0.8096815797 -0.2420425490 -0.0000000192 -0.0192009209 0.0876031437
0.2022881882 0.9230767396 0.3345584229 -0.0016244806 0.0190822286 0.0861016054
-0.4040973765 0.7795208331 -0.2281966660 -0.0000000192 -0.0046641533 0.1051950263
-0.0300274004 1.4447873718 -0.4519230248 -0.0000000192 0.0006014615 0.1056951801
0.2307691849 1.4352101421 -0.4154210290 -0.0086426913 0.0063975954 0.1008689114
0.0225207859 0.9038460496 0.2789884486 -0.0000000192 0.0192307670 0.0865384516
0.4423076220 1.1731595377 -0.3185160017 -0.0191829978 -0.0005728845 0.0867713169
-0.3297598081 0.7657058924 -0.2806085445 -0.0000000192 0.0086002682 0.0693379343
0.0104980565 0.9038460496 0.2054836494 -0.0000000192 0.0191579401 0.0850784902
-0.4615384275 0.9688145228 -0.0661505116 -0.0189360363 -0.0011332499 0.0863638362
-0.1973333426 0.8846152825 -0.1722551532 0.0035974419 0.0183115748 0.0831769904
-0.1483084637 1.1407643299 -0.4478925829 -0.0055426917 -0.0041136726 0.0686017805
-0.4423076605 1.0010694614 0.3042625610 0.0192307478 0.0000000000 0.0865384516
0.0298614966 1.4164280289 -0.5135267869 -0.0000000192 0.0041736918 0.1053090263
-0.4615384275 0.5714580879 -0.3275936545 0.0192307478 0.0000000000 0.0865384516
0.0019132882 0.9033265881 0.1800948446 -0.0000000192 0.0191353247 0.0846249133
-0.1572960588 0.8312090195 0.3749999760 -0.0000000192 0.0000000000 0.0673076845
-0.4822100213 1.4230767589 -0.2393847608 -0.0000000192 0.0191252093 0.0869855861
0.4131632600 1.3747017068 -0.3040588495 -0.0161816712 0.0030762689 0.0944804699
0.1494303289 0.8532886900 -0.2403845876 -0.0017020767 0.0135275369 0.0730109147
0.4999999231 1.2255036278 0.0274287468 0.0192307478 0.0000000000 0.0865384516
-0.0400727069 0.8599369777 0.3655067463 0.0008293268 0.0190694786 0.0850357786
0.1028271035 0.8846152825 -0.0227584781 -0.0002443077 0.0192079593 0.0862941631
-0.1478901560 0.8744472068 -0.1720762878 0.0018284998 0.0183852286 0.0814909906
-0.0758903759 1.4808902522 -0.5288460928 -0.0000000192 -0.0035149996 0.0678758960
-0.4873722899 0.1514234056 -0.4078587991 -0.0000000192 -0.0060016339 0.1048086225
-0.0840797980 0.8481648252 0.1141270445 0.0011822883 0.0190859978 0.0855067786
0.1205662361 0.8846152825 0.0043196341 -0.0011400191 0.0190926132 0.0858021247
-0.4615384275 0.9471420446 -0.2140592830 0.0192307478 0.0000000000 0.0865384516
0.0273998815 0.8449490371 0.1806547676 -0.0003099038 0.0191305939 0.0849957017
-0.4999999231 1.1923264778 0.2099585335 0.0192307478 0.0000000000 0.0865384516
-0.4230768935 0.9032455304 0.0547245706 -0.0156921520 -0.0106739795 0.0873242207
0.4615383891 1.2238398396 0.0256180547 0.0192277478 0.0000477692 0.0865656823
-0.2210451860 0.8705340534 0.2590232970 0.0044817495 0.0184591133 0.0852440094
0.4999999231 1.1975412464 -0.2296718966 0.0192307478 0.0000000000 0.0865384516
-0.2204867053 0.8501904404 0.1516022133 -0.0002641923 -0.0191604978 0.0877842783
-0.3681424383 1.4615382929 -0.3768781104 -0.0000000192 0.0111629795 0.0995924116
0.0192307478 0.7923812740 0.0234570358 0.0192307478 0.0000000000 0.0865384516
-0.1284554659 0.8037796573 0.4326922578 -0.0007622691 0.0005716922 0.1055786609
0.4999999231 0.5597948008 0.4311277195 0.0192307478 0.0000000000 0.0865384516
-0.4999999615 0.6709801533 0.3810994368 -0.0192307862 0.0000000000 0.0865384516
0.0271457084 1.3079920414 -0.4135364331 -0.0000000192 0.0066100185 0.1045836610
0.1609629622 1.2869093900 -0.4755721567 0.0054393071 -0.0039105188 0.0685267229
-0.1059762185 1.1733677300 -0.4699748688 -0.0032627304 -0.0038922303 0.0679933768
-0.3119168486 1.1623190582 -0.3173076172 -0.0000000192 0.0027165766 0.1055002186
0.4999999231 1.2622239121 -0.1113983141 -0.0192307862 0.0000000000 0.0865384516
0.0273763238 0.9038460496 0.2499603558 -0.0000000192 0.0192020939 0.0859636055
-0.0667430308 0.8588454009 0.3117182525 0.0034090765 0.0187954786 0.0854476440
0.2093198797 1.1891294782 -0.3579877279 -0.0090707490 0.0023391536 0.1031164881
0.2620983736 0.8623182274 0.2016785729 0.0041965957 -0.0187064017 0.0879514899
0.2653189309 0.8506742288 -0.1952170929 -0.0016571921 0.0190186901 0.0854727594
-0.4999999615 0.0941927584 -0.4764805027 -0.0192307862 0.0000000000 0.0865384516
0.4999999615 0.7309778580 0.4282153352 0.0192307478 0.0000000000 0.0865384516
-0.4423076605 1.0240277857 0.2308712811 0.0192307478 0.0000000000 0.0865384516
0.2829535827 1.3297758850 -0.3667979961 -0.0096081143 0.0040002303 0.1024370074
0.4615384275 1.0224851705 0.3676630345 -0.0192307862 0.0000000000 0.0865384516
0.2754614490 0.7307899157 -0.2980665425 -0.0000000192 0.0086002682 0.0693379343
-0.3573691895 0.8977960118 0.1293227158 0.0059379801 0.0182240556 0.0852550094
-0.4807691945 1.1847957479 -0.2562941435 0.0191958632 -0.0001325769 0.0868812784
-0.3745173029 0.7617282006 -0.2326448193 -0.0000000192 -0.0046641533 0.1051950263
-0.2278294929 1.1988878424 -0.3451421140 0.0029615958 0.0039458457 0.1049996033
0.0514865325 1.1886909205 -0.3749999567 -0.0000000192 0.0037714611 0.1053957763
0.4867887131 0.4569286780 0.4032899342 -0.0000000192 -0.0021155767 0.0674244153
-0.3210470976 0.9038460496 -0.1739819799 -0.0000000192 0.0192307670 0.0865384516
0.1208266976 1.2348979152 -0.3760321682 -0.0000000192 0.0051455571 0.1050665648
0.2165815135 0.8590773624 0.1177243326 -0.0042776149 0.0184892094 0.0851979517
-0.0155920367 1.3795132062 -0.5088661721 0.0006164038 -0.0035169034 0.0676445883
-0.0765592219 0.8538969976 0.2201726092 0.0021062690 0.0189697286 0.0854865286
-0.2963634466 0.9169001634 0.0556552436 0.0024692305 0.0189228440 0.0851678556
-0.0352968229 0.8012650422 0.3749999567 -0.0000000192 0.0000000000 0.0673076845
-0.4019687805 0.8206031938 0.3749999567 -0.0000000192 0.0000000000 0.0673076845
0.4423076220 1.2573758741 0.0933306046 -0.0192307862 0.0000000000 0.0865384516
0.3964173773 1.1153844867 -0.2754198721 -0.0134119792 -0.0088504605 0.0965309889
0.0192307478 0.7669669500 0.1673676153 0.0192307478 0.0000000000 0.0865384516
0.1898506319 0.8544664783 0.0608570891 -0.0020367882 0.0189760363 0.0851164517
-0.2589125278 0.8271088084 0.3749999567 -0.0000000192 0.0000000000 0.0673076845
0.4999999231 0.7046898995 0.4506953518 0.0192307478 0.0000000000 0.0865384516
0.4695893112 1.1140254292 -0.2978370041 0.0134499792 -0.0028315766 0.0730884531
-0.3125294832 0.8513932287 -0.1819163252 -0.0037183457 -0.0185980940 0.0875908360
0.0028484804 0.7307691464 -0.2737130453 -0.0000000192 -0.0192307670 0.0865384516
0.1501145981 0.8364341150 0.4196229516 0.0058476724 0.0051811532 0.1040815265
-0.1773796334 1.3049737533 -0.4656079270 0.0072720376 0.0038657496 0.1038433149
0.4999998846 1.3590260932 -0.2133849561 0.0192307478 0.0000000000 0.0865384516
0.1993562655 0.8076922145 -0.2494363558 -0.0000000192 0.0192307670 0.0865384516
0.3714703802 0.9014281268 0.3891701282 0.0074391145 -0.0176567480 0.0878013745
-0.4999999231 0.8644056695 0.3982828771 -0.0192307862 0.0000000000 0.0865384516
-0.0987567386 0.8461537485 0.4298519312 -0.0000000192 0.0192307670 0.0865384516
0.4615383891 1.0162780750 -0.0318802271 0.0192245939 0.0001066538 0.0864088554
-0.0675408768 0.8846152825 0.0384790533 -0.0000000192 0.0191830362 0.0855813363
-0.1558241359 0.9038460496 0.2299557235 0.0032347496 0.0188490363 0.0855496824
-0.0192307862 0.7871205823 -0.1994827654 -0.0192307862 0.0000000000 0.0865384516
0.3196231170 0.7384638956 -0.2384608763 -0.0000000192 -0.0046641533 0.1051950263
0.0954372198 0.8408885184 -0.0204847669 -0.0000701923 0.0191958055 0.0855008363
-0.0532294554 0.8274590968 -0.1863657285 0.0040874034 0.0187523632 0.0854209132
-0.0020604036 0.8555644590 0.3115782910 -0.0000000192 0.0191678632 0.0849842979
0.4615383891 0.4107439141 -0.3306289426 -0.0192307862 0.0000000000 0.0865384516
0.3538861707 0.8551402859 -0.1125948716 0.0041852303 -0.0186944017 0.0877010091
0.1671247307 0.7954886967 0.3749999567 -0.0000000192 0.0000000000 0.0673076845
0.4999999231 0.6211174476 -0.3180781556 0.0192307478 0.0000000000 0.0865384516
0.4615384275 1.2460977216 0.2474287407 0.0192268439 0.0000377308 0.0868265477
0.4999999231 0.1761225951 0.4733460608 0.0192307478 0.0000000000 0.0865384516
0.4615383891 1.2007806499 0.1770770373 0.0192265170 0.0000541923 0.0867123361
0.1518356940 1.1319075617 -0.4457837755 0.0059459993 -0.0040319995 0.0687003959
-0.3749667837 0.9208091245 0.1231107935 -0.0093251335 0.0163313443 0.0852181056
-0.0636100311 0.8471964792 0.0962134120 0.0035188457 0.0188109594 0.0854746824
-0.3861095131 0.8823594751 0.0459330716 -0.0061165185 -0.0181715748 0.0877709514
-0.3729564377 0.7745546799 0.4316274887 0.0000416154 0.0037794419 0.1053940263
0.2149143598 0.9038461265 0.0005213846 -0.0004453653 0.0191022863 0.0846653941
0.4615383891 1.0994629693 0.0326725155 0.0192257286 0.0000908654 0.0864710669
-0.1176687749 1.2826199097 -0.3879626668 -0.0000000192 0.0048896917 0.1051336802
-0.1673919230 0.8484814406 -0.0053136340 0.0037919996 0.0188101709 0.0852768363
0.1116137371 0.8996432039 0.1616779621 -0.0010145960 0.0190116517 0.0846372787
-0.4999999615 0.8071516184 0.3810960137 -0.0192307862 0.0000000000 0.0865384516
-0.2901855819 1.1321454655 -0.3173076557 -0.0000000192 -0.0011045191 0.1055084686
-0.3860802824 1.4395726800 -0.4268342007 0.0065627492 0.0038006342 0.1041267957
0.4999999231 1.3215547706 0.0337077269 0.0191136901 -0.0011922691 0.0869393554
-0.3668042461 1.2378217226 -0.4057600493 -0.0105367680 -0.0032231535 0.0707777226
-0.1339798692 1.1838596134 -0.3593634393 -0.0000000192 0.0040276918 0.1053345071
0.1758440374 0.8630700158 0.1863936900 -0.0038358649 0.0187982478 0.0852465286
0.4038460880 1.3227180974 -0.2902348896 -0.0184891709 0.0024076728 0.0908559703
-0.4999999231 0.1365622150 0.4972346542 -0.0192307862 0.0000000000 0.0865384516
0.1910791895 0.8846152825 -0.1035810073 -0.0006757692 0.0190664016 0.0844858556
-0.4999999615 1.1579299433 0.0078403260 0.0192307478 0.0000000000 0.0865384516
0.3424784413 0.7716974687 0.3749999567 -0.0000000192 0.0000000000 0.0673076845
-0.0192307862 0.7590282009 -0.0419261875 -0.0192307862 0.0000000000 0.0865384516
-0.3086086182 0.8486628636 -0.2324274924 -0.0053877301 -0.0183294979 0.0875517784
-0.1983155540 0.9230768166 0.3541896514 0.0011683845 0.0191321132 0.0862463554
-0.2869553515 0.8661164962 0.0904648742 0.0038659419 0.0187889017 0.0854635863
0.0576846857 0.7650172002 -0.2752524490 0.0047462110 0.0096170950 0.0705943380
-0.2113626102 1.3523871901 -0.3975233195 0.0072289799 0.0058916916 0.1032984304
-0.4615384275 0.0654888963 0.4769320988 0.0192307478 0.0000000000 0.0865384516
0.2622930659 0.8663850731 0.0954323351 -0.0012037691 0.0190838824 0.0855068940
0.2268230315 1.4170753557 -0.4974831926 -0.0000000192 -0.0036324227 0.0676540307
-0.2103741488 1.4305567965 -0.5000510769 -0.0000000192 -0.0036186534 0.0676513191
-0.0983072387 1.2236232050 -0.3726179762 -0.0000000192 0.0049525379 0.1051143340
0.0889771628 1.3757252259 -0.4304697580 -0.0031068650 0.0058375762 0.1044126995
-0.4999999615 1.1659139616 0.1916241702 -0.0192307862 0.0000000000 0.0865384516
-0.3153430982 0.8872068592 0.2330225308 0.0058410186 0.0182765748 0.0852627402
-0.4615384275 0.9618894467 0.0477772253 -0.0160395366 -0.0092481720 0.0871084899
0.4615383891 1.2262400124 -0.0914339510 0.0192284593 0.0000481538 0.0864396631
-0.3653845925 0.9037677803 -0.1226086397 -0.0182580171 0.0036309996 0.0865315669
-0.4615384275 0.2898713512 0.5037250957 0.0164796135 0.0005701345 0.0909365664
0.4624852351 1.1440488488 0.3242693664 -0.0177937864 -0.0028512497 0.0826017405
0.4999999231 1.2213124552 -0.1920126894 -0.0192307862 0.0000000000 0.0865384516
-0.0851261248 0.8439196526 0.0355923997 0.0010798268 0.0190961132 0.0855062209
-0.4423076220 1.1151049867 -0.0148034791 0.0192307478 0.0000000000 0.0865384516
-0.4876845783 0.9306369503 -0.2442747795 0.0001051154 0.0060214032 0.0682762614
-0.0192307862 0.7575417203 -0.1857910747 -0.0192307862 0.0000000000 0.0865384516
-0.4999999615 0.9156274520 -0.1753065375 -0.0192307862 0.0000000000 0.0865384516
-0.4615384275 0.1216976783 -0.4784736756 0.0192307478 0.0000000000 0.0865384516
0.4615383891 1.2958334466 0.1731107108 -0.0192014016 0.0000164231 0.0864103362
0.3295400581 1.2250342048 -0.4037101073 -0.0059769032 0.0033499996 0.1043740456
0.0192307478 0.8010624845 0.1274626776 0.0192307478 0.0000000000 0.0865384516
0.3678861883 0.8076922145 -0.2554299705 -0.0000000192 0.0192307670 0.0865384516
-0.4423076605 1.3495927866 -0.0434479950 0.0192307478 0.0000000000 0.0865384516
-0.4615384275 0.0475314368 0.5074695568 0.0192307478 0.0000000000 0.0865384516
-0.0438136680 0.9038460496 0.3810128022 -0.0000000192 0.0192307670 0.0865384516
0.1801544023 1.1685578459 -0.4501465058 0.0001962692 -0.0036028842 0.0676723768
-0.3366288650 0.7307691464 -0.2863852170 -0.0000000192 -0.0192307670 0.0865384516
0.4423076220 1.2420049913 0.2679279114 -0.0192307862 0.0000000000 0.0865384516
0.4310694503 0.9485977175 0.0663605116 -0.0140512868 0.0129452100 0.0857987209
-0.3806435907 1.1871678438 -0.3817898983 -0.0082175952 -0.0033737304 0.0696698189
-0.1936243430 0.8765080335 0.3327028462 0.0029761920 0.0188869401 0.0851679517
-0.3936890123 0.7307691464 -0.2477739522 -0.0000000192 -0.0192307670 0.0865384516
-0.4836276557 0.3382912302 -0.4417233721 -0.0000000192 0.0060658455 0.0682894152
0.4423076605 1.2439994911 0.3007885230 -0.0192307862 0.0000000000 0.0865384516
0.2503746442 1.1462848485 -0.3365384227 -0.0000000192 0.0011443076 0.1056559109
-0.4423076605 1.2092147259 0.2247861087 0.0192307478 0.0000000000 0.0865384516
-0.4999999615 0.0145216329 -0.4909666741 -0.0192307862 0.0000000000 0.0865384516
0.0178273633 0.8653845155 -0.1868576131 -0.0000000192 0.0192307670 0.0865384516
-0.4313400464 0.7700606611 -0.2784311217 -0.0000000192 0.0086002682 0.0693379343
0.0570331280 0.8846152825 0.0802508369 -0.0000815577 0.0191346709 0.0847011248
-0.2823411597 1.2617142006 -0.3503950557 0.0118064409 0.0030941535 0.1011136806
-0.0778793949 1.1610672506 -0.3557691897 0.0031490189 0.0025192305 0.1051394109
0.4423076220 0.9451076409 0.2296750697 0.0167919788 -0.0091076143 0.0873647784
-0.4999999615 1.1819288636 0.3552219975 -0.0192307862 0.0000000000 0.0865384516
-0.2405739338 0.8644895349 0.3611916891 -0.0038973649 -0.0187690555 0.0880285283
0.3846153210 1.4085627221 -0.3500271135 -0.0121987871 0.0011261153 0.1005941615
0.2281994544 1.4459333909 -0.4837492326 -0.0001736154 0.0040445957 0.1053155263
0.4731506954 0.3052178686 0.5110044603 -0.0022138267 0.0023353459 0.1046021610
-0.1871673246 0.8528423824 0.2780060064 -0.0044396726 -0.0184364979 0.0881997783
-0.4230768935 1.2807282753 -0.1780597679 0.0192307478 0.0000000000 0.0865384516
-0.3756198605 0.9230768166 0.3825335712 -0.0058136147 -0.0169346327 0.0892777012
-0.0041018264 0.8144548676 -0.1163322558 -0.0000000192 0.0191908632 0.0853003363
0.4615383891 1.1690822882 -0.1577462703 0.0192279209 0.0000686731 0.0863201247
0.4615384275 0.9813262137 0.0382941110 0.0192137862 0.0004866538 0.0865024900
-0.4615384275 0.9577960626 -0.0068539607 -0.0154639790 -0.0103409027 0.0871332592
0.2503087211 0.8948058006 0.4326922578 -0.0012549999 0.0075298837 0.1021623921
-0.4999999615 0.0344680153 -0.5241127857 -0.0192307862 0.0000000000 0.0865384516
0.1455579640 1.2481010098 -0.4734489646 0.0059345570 -0.0041978457 0.0687347421
0.4999999231 0.1859451516 0.5166048058 0.0127244408 0.0011343460 0.0953392390
0.4230768550 0.9259867778 0.4133626831 0.0141597099 -0.0128163254 0.0879118360
0.4615383891 0.5984244117 0.4120867986 -0.0192307862 0.0000000000 0.0865384516
-0.4591807932 1.2602016815 -0.1408301376 -0.0000000192 -0.0072366338 0.1043503341
-0.3142811560 1.0769229527 -0.3500589596 -0.0000000192 -0.0192307670 0.0865384516
0.4038460880 1.3827381097 -0.3306019426 -0.0142141907 0.0048620379 0.0966931427
-0.1019286421 1.3626261312 -0.4159229520 0.0078610376 0.0065374800 0.1024287574
0.1881478244 1.4382740648 -0.4326922578 -0.0004965192 0.0004964999 0.1057076416
-0.1341395230 0.8461537485 0.4314820848 -0.0053984032 0.0057348263 0.1027335843
0.0891699320 1.0883360090 -0.3828176674 -0.0015331921 -0.0126697870 0.1007414115
-0.1374844264 0.8846152825 -0.1467371754 0.0017643267 0.0188853824 0.0837818173
0.4999999231 1.2325637616 -0.1343618499 -0.0192307862 0.0000000000 0.0865384516
-0.4423076605 1.2635206042 0.0444888603 0.0192307478 0.0000000000 0.0865384516
-0.2234626088 1.2969241388 -0.3723079570 0.0036354803 0.0057098647 0.1044178533
-0.4230768935 1.1891718051 -0.1998612654 0.0192307478 0.0000000000 0.0865384516
-0.1980274772 0.8043985226 0.4256586817 0.0001657500 0.0037702880 0.1053951417
0.3124506178 0.8110385795 0.3749999567 -0.0000000192 0.0000000000 0.0673076845
-0.1668122692 0.7677777960 -0.2795725639 -0.0000000192 0.0086002682 0.0693379343
0.4999999231 0.7711695649 0.4426783912 0.0192307478 0.0000000000 0.0865384516
-0.4423076605 1.1768454219 0.3033194842 0.0192307478 0.0000000000 0.0865384516
0.4310806041 0.8456725178 0.4174039134 -0.0000143269 0.0037742111 0.1053951801
0.1500375211 1.2049180533 -0.3663829577 -0.0000000192 0.0047397687 0.1051542571
0.4485211406 1.2714017764 0.3016220998 -0.0004239230 0.0184331902 0.0919147971
0.4999999231 1.2698481612 0.0703142611 0.0186340940 -0.0036446150 0.0867772592
0.2996288308 0.8268098661 0.4211764514 -0.0001011154 0.0037811342 0.1053933340
-0.4999999615 0.1667193269 -0.4605877353 -0.0192307862 0.0000000000 0.0865384516
0.4043381072 1.3384771917 -0.3888492821 -0.0105766911 0.0033294996 0.1022321613
-0.4999999615 1.1517570979 0.2612550852 -0.0192307862 0.0000000000 0.0865384516
-0.4423076605 1.0091074028 -0.1467330215 0.0192307478 0.0000000000 0.0865384516
-0.2386001840 0.8710503610 0.1817408636 0.0035994996 0.0186180940 0.0854926824
-0.2884615244 1.3455888255 -0.3683637844 0.0016134229 0.0055022494 0.1028254689
0.2228067628 1.0769229527 -0.3674133038 -0.0000000192 0.0116440948 0.0865384516
0.4999999231 1.1704640957 0.3742368607 -0.0192307862 0.0000000000 0.0865384516
0.0699683381 1.0814616444 -0.4326922578 -0.0000000192 0.0000000000 0.0673076845
-0.4999999231 1.1975895926 -0.1928520547 0.0192307478 0.0000000000 0.0865384516
0.4423076220 1.2378666264 -0.3340457307 -0.0189282094 -0.0000081154 0.0878101245
0.4615383891 1.0531306093 -0.1567939242 -0.0192307862 0.0000000000 0.0865384516
-0.0942494314 1.1102199681 -0.4390345647 -0.0000000192 0.0031696342 0.1055003917
-0.4739382915 1.2313094541 0.1691004420 0.0067061146 -0.0073788838 0.0853507786
-0.4230768935 1.3456115563 -0.2218158206 0.0191763055 0.0000128462 0.0868120669
-0.4347453152 1.3121214640 -0.1303476580 0.0119144217 -0.0037891342 0.1002902961
-0.3475534214 1.4765552912 -0.4697542343 -0.0104984411 0.0117214025 0.0830112404
-0.2881502168 0.8787287640 0.3237922319 0.0038168073 0.0188153440 0.0855019709
-0.0081825183 0.8846152825 0.0265566316 -0.0000000192 0.0191353247 0.0846249133
0.4471867753 0.9738144069 0.3109851372 0.0138394215 -0.0132133639 0.0875835860
-0.2052127263 0.8449483064 0.0546217437 -0.0052170956 -0.0183293633 0.0879579129
0.2769954488 0.9038461265 -0.0664895116 -0.0024233074 0.0189237094 0.0847866248
-0.4999999615 1.2622090851 0.0240349395 0.0192307478 0.0000000000 0.0865384516
-0.4423076605 1.1187031209 -0.3196654631 0.0174832864 0.0011031729 0.0929172008
-0.0608696853 0.8605708045 0.3436368834 0.0041600188 0.0186978632 0.0854280671
0.4671694269 0.7580770856 -0.3017947536 -0.0003002884 0.0060004801 0.0682722614
0.0174296518 0.8444507872 0.4011863383 -0.0000000192 -0.0191694016 0.0880697398
-0.4423076605 1.2216248206 0.3661982654 0.0192307478 0.0000000000 0.0865384516
-0.4423076605 1.3482221329 -0.0714678956 0.0192307478 0.0000000000 0.0865384516
0.1968468042 0.8800650138 0.3765726296 -0.0025777112 0.0189245555 0.0851433556
-0.4615384275 1.1440251565 0.3859285516 -0.0192241901 0.0000506923 0.0870114515
0.1375131187 1.1465715408 -0.3557691897 -0.0000000192 0.0011724037 0.1056531224
-0.3846153595 1.1305282542 -0.2779028333 0.0191311709 0.0000000000 0.0869602977
0.4423076220 1.1988827078 0.2162638020 -0.0192307862 0.0000000000 0.0865384516
0.0088082682 0.8185192709 -0.0785457025 -0.0000000192 -0.0191929209 0.0877217399
0.3413653068 1.2830013904 -0.4162156251 -0.0058500378 0.0036294804 0.1042774880
-0.4615384275 0.1553588475 0.4375540072 0.0192307478 0.0000000000 0.0865384516
-0.2090984374 0.7542800091 -0.2863214670 -0.0000000192 0.0086002682 0.0693379343
0.2227846666 0.8339434230 -0.1489688674 0.0014123652 -0.0189728632 0.0875448937
-0.4423076605 1.2459424909 -0.1215677167 0.0192307478 0.0000000000 0.0865384516
-0.4999999615 0.0309576695 0.5356275151 -0.0129697100 0.0010334037 0.0945138737
-0.1345179460 0.7785254102 -0.2741987953 -0.0000000192 0.0086002682 0.0693379343
0.4615383891 0.9842930210 -0.0943667199 0.0192192286 0.0002810384 0.0861917208
0.4252411432 1.4056259917 -0.3830482635 -0.0106616718 0.0038384611 0.1011392960
0.4615383891 0.3099519642 0.4871400399 -0.0192307862 0.0000000000 0.0865384516
-0.0237631126 0.8653845155 -0.1176851595 0.0008374999 0.0190062670 0.0844569133
0.3597681123 0.8534079785 -0.1547422898 0.0046864995 -0.0185983055 0.0876704130
0.4684575229 1.3180528671 0.1416756567 -0.0000000192 0.0184615363 0.0919230663
-0.4748567144 0.4321201617 0.4945541737 0.0005856153 0.0023722497 0.1049082956
0.4999999231 1.2575690857 -0.1736669607 -0.0192307862 0.0000000000 0.0865384516
-0.5000000000 1.0886564513 -0.1499694250 -0.0192307862 0.0000000000 0.0865384516
-0.3263209623 0.8872408207 0.1446344256 0.0060968839 0.0182040171 0.0854223748
-0.4615384275 1.2036690342 0.1792508832 -0.0192265939 0.0000531731 0.0867170861
-0.0864543746 0.8258956547 0.0579170510 -0.0010280960 -0.0190632863 0.0877560091
0.1874403630 0.8765738219 0.3335135961 -0.0037144226 0.0188180940 0.0852263171
-0.0296143427 1.3504895365 -0.5040309034 0.0005208269 -0.0035289611 0.0676441845
-0.2988800040 1.4807690599 -0.4399168531 -0.0000000192 0.0165120173 0.0940596622
-0.4423076605 1.0086081144 -0.1174770634 0.0192307478 0.0000000000 0.0865384516
